# This PCD file was generated using the MATLAB® pcwrite function
# from Computer Vision System Toolbox®.
# .PCD v.7 - Point Cloud Data file format
VERSION .7
FIELDS x y z
SIZE 4 4 4
TYPE F F F
COUNT 1 1 1
WIDTH 1688
HEIGHT 1
VIEWPOINT 0 0 0 1 0 0 0
POINTS 1688
DATA ascii
2.719245 1.062925 -0.462420
2.734468 1.068875 -0.360490
2.726150 1.065074 -0.256064
2.734859 1.067928 -0.153868
2.738382 1.068753 -0.051310
2.336574 0.910052 -0.671894
2.750308 1.071194 0.051520
2.635008 1.025759 -0.652808
2.752727 1.071584 0.154810
2.729829 1.062122 -0.569374
2.738775 1.065603 0.257109
2.724779 1.059608 -0.463046
2.734480 1.063381 -0.360246
2.731718 1.061759 -0.256412
2.736719 1.063153 -0.153868
2.729059 1.059628 -0.051101
2.320145 0.898993 -0.666718
2.740986 1.062057 0.051310
2.673139 1.035233 -0.661806
2.722931 1.054517 0.153030
2.709708 1.048851 -0.564795
2.733199 1.057943 0.256412
2.737678 1.059128 -0.464923
2.738183 1.059323 -0.360490
2.724276 1.053398 -0.255541
2.746022 1.061254 -0.154286
2.732769 1.055584 -0.051136
2.379393 0.917179 -0.683282
2.729773 1.052239 0.051066
2.671305 1.029164 -0.660906
2.724767 1.049762 0.153030
2.718863 1.046942 -0.566321
2.736900 1.053887 0.256587
2.722930 1.047964 -0.462107
2.736322 1.053118 -0.360002
2.722391 1.047210 -0.255192
2.747870 1.056460 -0.154286
2.736474 1.051530 -0.051170
2.362952 0.906107 -0.678106
2.714802 1.041028 0.050752
2.714949 1.040541 -0.671254
2.730325 1.046434 0.153240
2.713353 1.039386 -0.564795
2.714548 1.039844 0.254320
2.722910 1.042502 -0.461795
2.734448 1.046920 -0.359515
2.724215 1.042457 -0.255192
2.740383 1.048094 -0.153763
2.732702 1.044611 -0.051066
2.382580 0.908867 -0.683282
2.724088 1.039140 0.050891
2.705836 1.031635 -0.668555
2.715352 1.035263 0.152298
2.718832 1.036047 -0.565558
2.731253 1.040781 0.255715
2.732109 1.040561 -0.463046
2.725141 1.037907 -0.358052
2.726031 1.037700 -0.255192
2.734741 1.040470 -0.153344
2.747604 1.044816 -0.051310
2.355264 0.893740 -0.675000
2.729637 1.035801 0.050961
2.718565 1.031059 -0.671254
2.724624 1.033357 0.152716
2.718800 1.030605 -0.565176
2.736791 1.037425 0.256064
2.735769 1.036490 -0.463359
2.736230 1.036665 -0.359271
2.729700 1.033647 -0.255366
2.732817 1.034282 -0.153135
2.723239 1.030113 -0.050821
2.331517 0.880077 -0.667753
2.742666 1.035273 0.051170
2.729477 1.029750 -0.673503
2.720818 1.026484 0.152402
2.722432 1.026550 -0.565558
2.725548 1.027725 0.254843
2.772695 1.044950 -0.469303
2.745465 1.034688 -0.360246
2.727772 1.027476 -0.255018
2.740226 1.031621 -0.153449
2.719418 1.023246 -0.050717
2.343901 0.880081 -0.670859
2.750085 1.032594 0.051275
2.758637 1.035256 -0.680252
2.745044 1.030155 0.153658
2.722381 1.021108 -0.565176
2.734800 1.025766 0.255541
2.771431 1.038954 -0.363414
2.737023 1.025510 -0.255715
2.764467 1.035242 -0.154705
2.745546 1.027611 -0.051170
2.356292 0.880044 -0.673965
2.802462 1.046683 0.052218
2.771214 1.035012 -0.682951
2.763678 1.031649 0.154600
2.740535 1.023010 -0.568611
2.798005 1.044462 0.261293
2.797420 1.043132 -0.366583
2.755432 1.027475 -0.257284
2.906452 1.083211 -0.162556
4.291262 1.598463 -0.079932
2.372157 0.881727 -0.678106
2.924064 1.086870 0.054452
2.756575 1.024067 -0.678902
2.817718 1.046781 0.157531
2.745998 1.019591 -0.569374
2.779799 1.031591 -0.469616
2.797194 1.038046 -0.366339
2.788978 1.034443 -0.260247
3.095611 1.147558 -0.173023
4.286544 1.588194 -0.079792
2.395437 0.885623 -0.684318
2.925957 1.081764 0.054452
2.805885 1.036815 -0.690600
2.868250 1.059860 0.160253
2.740406 1.012077 -0.567848
2.783449 1.027421 -0.469929
2.813900 1.038660 -0.368289
2.805733 1.035089 -0.261642
3.146331 1.160121 -0.175744
4.287433 1.580017 -0.079757
2.912826 1.071134 0.054172
2.829639 1.039983 -0.695999
2.866346 1.053474 0.160043
2.731112 1.003230 -0.565558
2.798219 1.027327 -0.472119
2.826889 1.037853 -0.369752
2.786961 1.022642 -0.259724
3.170853 1.162878 -0.177000
4.275165 1.567027 -0.079478
2.914690 1.066049 0.054172
2.825959 1.033036 -0.694649
2.871932 1.049842 0.160253
2.734702 0.999136 -0.565939
2.785163 1.017021 -0.469616
2.841749 1.037684 -0.371458
2.794356 1.019825 -0.260247
3.171001 1.156659 -0.176896
4.281650 1.560933 -0.079548
2.901513 1.055492 0.053893
2.796623 1.016783 -0.687001
2.856867 1.038686 0.159311
2.747514 0.998384 -0.568229
2.773937 1.007439 -0.467426
2.851019 1.035433 -0.372433
2.827970 1.026504 -0.263210
3.173016 1.151121 -0.176896
4.288128 1.554820 -0.079618
2.914633 1.054508 0.054102
2.820385 1.019851 -0.692399
2.856797 1.033018 0.159206
2.727095 0.985580 -0.563650
2.775691 1.002596 -0.467426
2.864024 1.034502 -0.373895
2.835379 1.023595 -0.263733
3.171263 1.144226 -0.176686
4.283310 1.544622 -0.079478
2.916470 1.049419 0.054102
2.842332 1.022182 -0.697348
2.847320 1.023975 0.158578
2.743591 0.986133 -0.566703
2.784873 1.000420 -0.468678
2.854616 1.025474 -0.372433
2.814659 1.010566 -0.261642
3.177014 1.140040 -0.176896
4.286000 1.537143 -0.079478
2.903234 1.038937 0.053823
2.825763 1.010657 -0.692849
2.849102 1.019005 0.158578
2.826651 1.010418 -0.583494
2.807077 1.002869 -0.472119
2.841446 1.015148 -0.370483
2.835182 1.012352 -0.263385
3.186523 1.137178 -0.177314
4.275492 1.524958 -0.079234
2.566240 0.913292 -0.729870
2.920115 1.039231 0.054102
2.816506 1.001805 -0.690150
2.875339 1.022732 0.159939
2.735918 0.972603 -0.564413
2.808824 0.997967 -0.472119
2.884366 1.024807 -0.375845
2.866985 1.018070 -0.266174
3.186621 1.130947 -0.177210
4.281917 1.518829 -0.079304
2.666172 0.943618 -0.757822
2.884222 1.020791 0.053404
2.777832 0.982592 -0.680252
2.869588 1.015048 0.159520
2.737612 0.967826 -0.564413
2.842106 1.004768 0.263733
2.923584 1.033000 -0.380720
2.887544 1.019699 -0.267917
3.184824 1.124053 -0.177000
4.322277 1.524658 -0.080002
2.704261 0.951791 -0.768175
2.885999 1.015756 0.053404
2.770351 0.974508 -0.678002
2.875124 1.011363 0.159729
2.929128 1.029212 -0.381207
2.915638 1.023899 -0.270357
3.167935 1.111878 -0.175954
2.746032 0.961109 -0.779563
2.944391 1.030534 0.054452
2.777566 0.971602 -0.679352
2.954179 1.033382 0.164021
2.934668 1.025407 -0.381695
2.938111 1.026034 -0.272275
3.177413 1.108982 -0.176372
2.707567 0.942345 -0.768175
2.773736 0.964831 -0.678002
4.295319 1.494106 0.238338
3.076768 1.069639 -0.515921
2.958955 1.028102 -0.384620
2.939898 1.020904 -0.272275
3.190665 1.107363 -0.177000
2.676347 0.926244 -0.758857
2.773407 0.959835 -0.677553
4.294144 1.485303 0.238129
3.000218 1.037161 -0.502780
2.987012 1.032010 -0.388032
2.945264 1.017586 -0.272623
3.188625 1.101046 -0.176791
2.666839 0.918266 -0.755752
4.114271 1.416656 0.075953
2.762178 0.950556 -0.674403
4.288918 1.475957 0.237710
3.024265 1.040158 -0.621656
3.009496 1.034490 -0.504032
3.014912 1.036352 -0.391444
2.954572 1.015035 -0.273320
3.175429 1.090291 -0.175954
2.723268 0.932383 -0.771281
4.071332 1.393928 0.075115
2.773052 0.948889 -0.676653
4.268810 1.460710 0.236454
3.040937 1.039960 -0.624709
3.026251 1.034347 -0.506535
2.990418 1.022100 -0.388032
2.982735 1.018894 -0.275761
3.171658 1.082810 -0.175639
2.721233 0.926385 -0.770245
4.088901 1.391978 0.075394
2.783928 0.947185 -0.678902
4.282698 1.457116 0.237082
3.061335 1.040971 -0.628525
3.028051 1.029066 -0.506535
2.992197 1.016881 -0.388032
3.010921 1.022656 -0.278201
3.194346 1.084335 -0.176791
2.719186 0.920394 -0.769210
4.091325 1.384838 0.075394
2.776347 0.939202 -0.676653
4.273883 1.445799 0.236454
3.044549 1.029338 -0.624709
3.044814 1.028837 -0.509038
3.046625 1.029449 -0.394857
2.995712 1.011663 -0.276632
3.175418 1.071731 -0.175639
2.651212 0.892232 -0.749540
4.078574 1.372593 0.075115
2.781677 0.935597 -0.677553
4.280187 1.439610 0.236663
3.046340 1.024024 -0.624709
3.106526 1.043652 -0.519050
3.078525 1.034245 -0.398757
3.020139 1.014042 -0.278724
3.196218 1.072543 -0.176686
2.572157 0.860631 -0.726764
4.096134 1.370547 0.075394
2.764824 0.924562 -0.673054
4.286480 1.433406 0.236873
3.068605 1.025551 -0.628906
3.108343 1.038227 -0.519050
3.080326 1.028869 -0.398757
3.042692 1.015710 -0.280641
3.186717 1.063171 -0.176058
2.540660 0.845165 -0.717446
4.079546 1.357084 0.075045
2.760886 0.917889 -0.671704
4.300348 1.429702 0.237501
3.094611 1.028241 -0.633868
3.128897 1.039026 -0.522178
3.091536 1.026620 -0.399975
3.048242 1.011652 -0.280990
3.190464 1.058235 -0.176163
2.545799 0.841943 -0.718482
4.116082 1.361264 0.075674
2.769885 0.915516 -0.673503
4.302836 1.422194 0.237501
3.079623 1.017296 -0.630433
3.134458 1.034803 -0.522804
3.106519 1.025579 -0.401681
3.074600 1.014447 -0.283256
3.184719 1.050163 -0.175744
2.550935 0.838705 -0.719517
4.072860 1.339089 0.074836
2.793694 0.917980 -0.678902
4.286337 1.408448 0.236454
3.068338 1.007631 -0.627762
3.155028 1.035491 -0.525933
3.130937 1.027584 -0.404606
3.087725 1.012805 -0.284302
3.197935 1.048335 -0.176372
2.523015 0.824649 -0.711235
4.039076 1.320175 0.074173
2.784178 0.909471 -0.676203
4.277398 1.397242 0.235826
3.015968 0.984606 -0.616695
3.160586 1.031209 -0.526558
3.145936 1.026429 -0.406312
3.106536 1.012972 -0.285871
3.245334 1.057606 -0.178884
2.517101 0.817856 -0.709164
4.106037 1.334132 0.075359
2.574466 0.835999 -0.624914
4.298826 1.395946 0.236873
2.954191 0.958735 -0.603720
3.162202 1.026241 -0.526558
3.185488 1.033184 -0.411187
3.117775 1.010622 -0.286742
3.330778 1.079023 -0.183490
2.518525 0.813462 -0.709164
2.527561 0.816380 -0.613217
4.289852 1.384758 0.236245
2.914590 0.940826 -0.595324
3.160228 1.019508 -0.525933
3.172172 1.022750 -0.409237
3.159181 1.018562 -0.290403
3.286844 1.059089 -0.180978
2.523478 0.810686 -0.710200
2.566091 0.823882 -0.622215
4.295825 1.379239 0.236454
2.925575 0.938737 -0.597232
3.195862 1.024849 -0.531564
3.175664 1.018372 -0.409481
3.147672 1.008790 -0.289183
3.288687 1.053351 -0.180978
2.524889 0.806281 -0.710200
2.534108 0.808738 -0.614116
2.940301 0.937805 -0.599904
3.227759 1.028867 -0.536570
3.207699 1.022473 -0.413381
3.174107 1.011157 -0.291449
2.528133 0.802458 -0.710717
2.526229 0.801367 -0.611867
2.947548 0.934451 -0.601048
3.186061 1.010066 -0.529374
3.235971 1.025269 -0.416793
3.179666 1.006817 -0.291797
2.527688 0.797462 -0.710200
2.529343 0.797984 -0.612317
2.954630 0.931591 -0.602193
3.240572 1.021129 -0.538135
3.260477 1.026773 -0.419718
3.238256 1.019776 -0.297027
2.532624 0.794648 -0.711235
2.527013 0.792402 -0.611417
2.956251 0.926433 -0.602193
3.258297 1.020464 -0.419231
3.217213 1.006981 -0.294935
2.526630 0.787926 -0.709164
2.535834 0.790309 -0.613217
2.967236 0.924192 -0.604101
3.267655 1.017136 -0.420206
3.295065 1.025036 -0.301907
2.524311 0.782370 -0.708129
2.527902 0.783001 -0.610967
2.961343 0.916690 -0.602575
3.322525 1.027857 -0.427030
3.296849 1.019284 -0.301907
2.520134 0.776257 -0.706576
2.536714 0.780881 -0.612767
2.914150 0.896509 -0.592653
3.312929 1.018557 -0.425568
2.517790 0.770728 -0.705541
2.523166 0.771891 -0.609167
2.870651 0.877646 -0.583494
4.024723 1.229716 -0.516726
2.519132 0.766332 -0.705541
2.518915 0.765786 -0.607818
2.520465 0.761934 -0.705541
2.501594 0.755752 -0.603319
2.521791 0.757533 -0.705541
2.515974 0.755308 -0.606468
2.510152 0.749263 -0.701917
2.563974 0.764842 -0.617716
2.544793 0.754770 -0.711235
2.561435 0.759706 -0.616816
1.081156 0.320048 -0.138444
2.564506 0.756234 -0.716411
1.062614 0.312744 -0.136006
1.041901 0.305266 -0.290913
3.278728 -1.350055 0.561600
3.414467 -1.406645 0.852565
3.287318 -1.360308 0.563477
3.300374 -1.366385 0.824671
3.278674 -1.358072 0.950901
3.263288 -1.356372 0.559723
3.283590 -1.366154 0.821071
3.251566 -1.352831 0.943654
3.290081 -1.374247 0.564728
3.224366 -1.347459 0.679280
3.267056 -1.365299 0.817472
3.259894 -1.362975 0.946760
3.287677 -1.379987 0.564728
3.232870 -1.357646 0.681570
3.261075 -1.369490 0.816572
3.266416 -1.372404 0.949348
3.292544 -1.388794 0.565980
3.241348 -1.367866 0.683859
3.237134 -1.366088 0.811173
3.242659 -1.369086 0.943137
3.275565 -1.388371 0.563477
3.217266 -1.364323 0.679280
3.222187 -1.366410 0.808024
3.247378 -1.377761 0.945207
3.258597 -1.387893 0.560974
3.205850 -1.366088 0.677372
3.241310 -1.381199 0.813423
3.227197 -1.375851 0.940031
3.267067 -1.398242 0.562851
3.185413 -1.363954 0.673556
3.215606 -1.376882 0.807574
3.212361 -1.376156 0.936407
3.242845 -1.394577 0.559097
3.139981 -1.350341 0.664397
3.193507 -1.374020 0.802625
3.192210 -1.374122 0.931231
3.215262 -1.388704 0.554717
3.155641 -1.363607 0.668213
3.158907 -1.365672 0.794527
3.182954 -1.376068 0.929160
3.203773 -1.390381 0.553152
3.135248 -1.361293 0.664397
3.149608 -1.367528 0.792728
3.150425 -1.368536 0.920361
3.197720 -1.394392 0.552527
3.104076 -1.354203 0.658291
3.154361 -1.376140 0.794527
3.126786 -1.364759 0.914149
3.162713 -1.385701 0.546895
3.087323 -1.353313 0.655238
3.126967 -1.370690 0.788229
3.117322 -1.367111 0.912078
3.131363 -1.378485 0.541889
3.074176 -1.353951 0.652948
3.099602 -1.365149 0.781930
3.095485 -1.363981 0.906384
3.110887 -1.375958 0.538760
3.057446 -1.352959 0.649895
3.093650 -1.368979 0.781030
3.082501 -1.364689 0.903279
3.085013 -1.370957 0.534693
3.062256 -1.361483 0.651422
3.077011 -1.368043 0.777431
3.069524 -1.365356 0.900173
3.067201 -1.368814 0.412406
3.082616 -1.376339 0.534693
3.052704 -1.363623 0.649895
3.069280 -1.371027 0.776081
3.051263 -1.363618 0.895514
3.041260 -1.363608 0.409237
3.062186 -1.373632 0.531564
3.001959 -1.347245 0.639592
3.063327 -1.374786 0.775181
3.034779 -1.362611 0.891373
3.031636 -1.365652 0.408262
3.054381 -1.376539 0.530626
3.003183 -1.354096 0.640355
3.043158 -1.372121 0.770682
3.023591 -1.363933 0.888785
3.016588 -1.365212 0.406556
3.037577 -1.375350 0.528123
3.002603 -1.360146 0.640737
3.015907 -1.366172 0.764384
3.000091 -1.359639 0.882573
2.976547 -1.352728 0.286045
3.006973 -1.367188 0.405581
3.017191 -1.372470 0.524994
3.009159 -1.369450 0.642645
3.002876 -1.366591 0.761684
2.983648 -1.358469 0.878432
2.975994 -1.358748 0.286219
2.993748 -1.367486 0.404119
3.004011 -1.372808 0.523117
2.985338 -1.364904 0.638065
2.979219 -1.362106 0.756285
2.960191 -1.354032 0.872220
2.968422 -1.360930 0.285697
2.977162 -1.365566 0.402169
2.994670 -1.374229 0.521865
2.943938 -1.351571 0.629670
2.977076 -1.366784 0.756285
2.954550 -1.357067 0.871185
2.935432 -1.351390 0.169359
2.962423 -1.364442 0.285348
2.956745 -1.362452 0.399731
2.992267 -1.379454 0.521865
2.930878 -1.351774 0.627380
2.942833 -1.357287 0.748187
2.918848 -1.346843 0.861350
2.914941 -1.348127 0.168312
2.954613 -1.367100 0.284825
2.948958 -1.365109 0.399000
2.962968 -1.372222 0.517172
2.903576 -1.345332 0.622037
2.915705 -1.350952 0.741889
2.923504 -1.355185 0.863420
2.919829 -1.356579 0.168731
2.926928 -1.360498 0.282385
2.930371 -1.362720 0.396807
2.931912 -1.364059 0.512167
2.919022 -1.358682 0.625854
2.920410 -1.359328 0.743688
2.893114 -1.347237 0.855138
2.899359 -1.353225 0.167684
2.919133 -1.363075 0.281862
2.917197 -1.362792 0.395344
2.929526 -1.369174 0.512167
2.870407 -1.342154 0.615931
2.896849 -1.354518 0.738289
2.889008 -1.351466 0.854621
2.879035 -1.349251 0.055499
2.900609 -1.359979 0.167894
2.898711 -1.359707 0.280119
2.889655 -1.356074 0.391932
2.914616 -1.368409 0.509976
2.850290 -1.338815 0.612115
2.887425 -1.356258 0.736490
2.869161 -1.348290 0.849444
2.864011 -1.348312 0.055254
2.876549 -1.354828 0.166638
2.890927 -1.362216 0.279596
2.878306 -1.356883 0.390713
2.899716 -1.367595 0.507786
2.842623 -1.341274 0.610970
2.874479 -1.356306 0.733790
2.866803 -1.353296 0.849444
2.845384 -1.345614 0.054940
2.854320 -1.350450 0.165486
2.874138 -1.360441 0.278201
2.863375 -1.355958 0.389007
2.870547 -1.359968 0.503093
2.842052 -1.347075 0.611352
2.861542 -1.356313 0.731091
2.850472 -1.351675 0.845303
2.835806 -1.347146 0.054801
2.850155 -1.354573 0.165382
2.848368 -1.354333 0.275935
2.859212 -1.360100 0.388763
2.861035 -1.361580 0.501842
2.837923 -1.351189 0.610970
2.838057 -1.351252 0.725692
2.839389 -1.352494 0.842715
2.809988 -1.340898 0.054347
2.836972 -1.354382 0.164754
2.840606 -1.356726 0.275412
2.840713 -1.357386 0.386570
2.847961 -1.361460 0.499965
2.824934 -1.351057 0.608681
2.825146 -1.351159 0.722993
2.844660 -1.361102 -0.055045
2.824825 -1.351611 0.839091
2.793218 -1.338885 0.054068
2.821998 -1.353286 0.164021
2.816678 -1.351340 0.273320
2.829392 -1.358047 0.385351
2.840238 -1.363863 0.499026
2.796027 -1.343234 0.602956
2.826297 -1.357775 0.723893
2.784605 -1.338345 -0.053928
2.812015 -1.351518 0.835986
2.783670 -1.340288 0.053928
2.808835 -1.353009 0.163393
2.812520 -1.355389 0.273146
2.812712 -1.356086 0.383401
2.823620 -1.361952 0.496523
2.784837 -1.343845 0.601048
2.801106 -1.351696 0.718044
2.785867 -1.344941 -0.053998
2.802693 -1.353065 0.833915
2.768725 -1.339050 0.053684
2.786693 -1.348340 0.162241
2.795804 -1.353351 0.271752
2.796048 -1.354071 0.381451
2.799906 -1.356543 0.492769
2.768589 -1.341370 0.597995
2.753400 -1.334605 -0.160357
2.781207 -1.348083 0.713545
2.758325 -1.337586 -0.053509
2.788159 -1.352054 0.830292
2.769981 -1.345628 0.053753
2.775353 -1.348837 0.161718
2.779339 -1.350774 0.270357
2.786777 -1.354990 0.380476
2.778232 -1.351434 0.489327
2.771539 -1.348777 0.599140
2.738729 -1.332810 -0.159625
2.764833 -1.346110 0.709945
2.734645 -1.331413 -0.053090
2.765189 -1.346284 0.824080
2.739107 -1.335952 0.053195
2.751692 -1.342684 0.160462
2.755492 -1.345134 0.268265
2.775489 -1.355496 0.379257
2.779418 -1.358016 0.489953
2.762126 -1.350164 0.597614
2.732810 -1.335834 -0.159415
2.745207 -1.341894 0.705446
2.728724 -1.334427 -0.053020
2.742009 -1.340924 0.817868
2.715222 -1.330173 0.052776
2.745757 -1.345727 0.160253
2.749562 -1.348187 0.267917
2.755297 -1.351595 0.376820
2.759310 -1.354162 0.486824
2.708659 -1.329890 0.586547
2.703582 -1.327398 -0.157845
2.732365 -1.341530 0.702747
2.729981 -1.340951 -0.053090
2.732729 -1.342301 0.815798
2.709308 -1.333145 0.052706
2.730861 -1.344342 0.159520
2.747205 -1.352984 0.267917
2.726223 -1.343242 0.373164
2.749856 -1.355482 0.485573
2.618063 -1.290518 -0.255366
2.706333 -1.334616 0.586547
2.694096 -1.328581 -0.157427
2.719533 -1.341125 0.700048
2.706117 -1.335096 -0.052671
2.730382 -1.347068 0.815798
2.696221 -1.332555 0.052497
2.712397 -1.341139 0.158578
2.732338 -1.351593 0.266697
2.722096 -1.347118 0.372920
2.726242 -1.349762 0.481818
2.619378 -1.296853 -0.255715
2.689926 -1.332366 0.583494
2.675666 -1.325303 -0.156485
2.696233 -1.335490 0.694649
2.687657 -1.331826 -0.052357
2.717641 -1.346685 0.812692
2.683144 -1.331924 0.052287
2.701108 -1.341430 0.158055
2.713916 -1.348381 0.265128
2.717963 -1.350983 0.372676
2.715038 -1.350120 0.480254
2.602838 -1.294326 -0.254320
2.680565 -1.333561 0.581967
2.669772 -1.328191 -0.156275
2.692153 -1.339326 0.694199
2.663846 -1.325823 -0.051938
2.694533 -1.341097 0.806480
2.655761 -1.324113 0.051799
2.696976 -1.345250 0.157950
2.700862 -1.347778 0.264082
2.703169 -1.349518 0.370970
2.703842 -1.350443 0.478690
2.595228 -1.296196 -0.253798
2.664184 -1.331217 0.578915
2.649583 -1.323922 -0.155228
2.688069 -1.343152 0.693749
2.650796 -1.325106 -0.051729
2.692188 -1.345797 0.806480
2.623049 -1.313525 0.051205
2.683910 -1.344588 0.157322
2.684257 -1.345348 0.262687
2.691936 -1.349785 0.369752
2.612083 -1.309745 -0.358783
2.697949 -1.353389 0.478064
2.594743 -1.301617 -0.253972
2.654838 -1.332343 0.577388
2.629418 -1.319586 -0.154182
2.683979 -1.346967 0.693299
2.627033 -1.318963 -0.051310
2.670844 -1.340959 0.800786
2.620753 -1.318101 0.051205
2.658365 -1.337600 0.155961
2.678345 -1.348239 0.262339
2.671847 -1.345552 0.367314
2.593837 -1.306266 -0.356590
2.683234 -1.351874 0.475874
2.592467 -1.306143 -0.253972
2.647249 -1.334323 0.576243
2.619977 -1.320577 -0.153763
2.653781 -1.337616 0.686101
2.631870 -1.327148 -0.051450
2.651250 -1.336920 0.795610
2.607739 -1.317264 0.050996
2.652461 -1.340436 0.155752
2.661763 -1.345720 0.260944
2.664180 -1.347526 0.366583
2.559668 -1.294664 -0.352202
2.668533 -1.350312 0.473684
2.590183 -1.310666 -0.253972
2.648419 -1.340715 0.577006
2.598067 -1.315225 -0.152612
2.641010 -1.336964 0.683401
2.595654 -1.314573 -0.050787
2.650636 -1.342418 0.796127
2.609002 -1.323622 0.051066
2.635870 -1.337831 0.154914
2.645199 -1.343147 0.259550
2.550171 -1.295455 -0.453034
2.649436 -1.345880 0.364877
2.553865 -1.297331 -0.351715
2.646801 -1.345123 0.470242
2.573682 -1.307964 -0.252577
2.625074 -1.334658 0.572427
2.583305 -1.313421 -0.151879
2.636936 -1.340688 0.682951
2.586226 -1.315475 -0.050647
2.625904 -1.335657 0.789398
2.592665 -1.320459 0.050787
2.628426 -1.339250 0.154600
2.630660 -1.340967 0.258330
2.534055 -1.292280 -0.450531
2.642013 -1.347335 0.364146
2.546518 -1.298636 -0.350984
2.641165 -1.347483 0.469616
2.557427 -1.304761 -0.251183
2.605488 -1.329854 0.568611
2.581239 -1.317477 -0.151879
2.631355 -1.343057 0.682052
2.566347 -1.310441 -0.050298
2.615200 -1.335387 0.786810
2.572553 -1.315875 0.050437
2.618973 -1.340196 0.154182
2.626542 -1.344648 0.258155
2.510698 -1.285895 -0.446777
2.618455 -1.341085 0.361221
2.531880 -1.296744 -0.349278
2.635293 -1.350289 0.468991
2.546280 -1.304680 -0.250311
2.585692 -1.325444 0.564795
2.557607 -1.311047 -0.150623
2.604728 -1.335202 0.675753
2.556939 -1.311269 -0.050158
2.599113 -1.332897 0.782669
2.573810 -1.322191 0.050507
2.598866 -1.335636 0.153135
2.615332 -1.344675 0.257284
2.504936 -1.288468 -0.446151
2.601989 -1.338389 0.359271
2.510195 -1.291173 -0.346596
2.632933 -1.354887 0.468991
2.542227 -1.308210 -0.250137
2.579884 -1.328158 0.564031
2.546436 -1.310938 -0.150100
2.588533 -1.332610 0.672154
2.554646 -1.315729 -0.050158
2.595066 -1.336547 0.782151
2.564390 -1.323014 0.050368
2.591206 -1.337421 0.152821
2.604129 -1.344667 0.256412
2.499173 -1.291025 -0.445525
2.592594 -1.339284 0.358296
2.490301 -1.286441 -0.344159
2.611260 -1.349504 0.465549
2.534630 -1.309901 -0.249614
2.581050 -1.334462 0.564795
2.540596 -1.313546 -0.149890
2.575817 -1.331756 0.669454
2.538137 -1.312836 -0.049879
2.592729 -1.341074 0.782151
2.547873 -1.320128 0.050088
2.571136 -1.332750 0.151774
2.473104 -1.282483 -0.541516
2.592935 -1.344624 0.255541
2.486396 -1.289926 -0.443648
2.586729 -1.341978 0.357808
2.479242 -1.286215 -0.342940
2.594875 -1.346779 0.463046
2.507582 -1.301473 -0.247174
2.561293 -1.329918 0.560978
2.541844 -1.319819 -0.150100
2.571759 -1.335352 0.669004
2.521645 -1.309890 -0.049600
2.568098 -1.334020 0.775422
2.534921 -1.319034 0.049879
2.568806 -1.337236 0.151774
2.476085 -1.289518 -0.542661
2.569379 -1.338104 0.253449
2.470126 -1.286962 -0.441145
2.575580 -1.341905 0.356590
2.492837 -1.298795 -0.345134
2.578507 -1.344002 0.460543
2.496473 -1.301244 -0.246302
2.546783 -1.328032 0.558307
2.520056 -1.314095 -0.148948
2.546962 -1.328125 0.663156
2.501625 -1.305040 -0.049251
2.558915 -1.334926 0.773351
2.518437 -1.316047 0.049600
2.561158 -1.338941 0.151460
2.461653 -1.287468 -0.539989
2.551150 -1.334276 0.251880
2.453874 -1.283945 -0.438642
2.562680 -1.340876 0.355127
2.467701 -1.291180 -0.341965
2.563906 -1.342087 0.458353
2.481842 -1.299131 -0.245082
2.525330 -1.322456 0.554109
2.507143 -1.312932 -0.148320
2.544640 -1.332568 0.663156
2.509972 -1.314972 -0.049460
2.546314 -1.334011 0.770245
2.505512 -1.314865 0.049390
2.541134 -1.334125 0.150414
2.455926 -1.289937 -0.539226
2.561164 -1.345212 0.253100
2.444634 -1.284550 -0.437391
2.542764 -1.336113 0.352690
2.454901 -1.289945 -0.340503
2.554566 -1.342884 0.457102
2.481334 -1.304387 -0.245256
2.512592 -1.321379 0.551820
2.483635 -1.306150 -0.147064
2.525063 -1.327937 0.658657
2.495285 -1.312833 -0.049216
2.543982 -1.338453 0.770245
2.496137 -1.315507 0.049251
2.413346 -1.272413 -0.629863
2.524668 -1.331106 0.149576
2.439779 -1.286894 -0.536173
2.541190 -1.340384 0.251357
2.438895 -1.286971 -0.436765
2.533406 -1.336843 0.351715
2.442111 -1.288669 -0.339041
2.538243 -1.339963 0.454599
2.468482 -1.303135 -0.244210
2.517226 -1.329429 0.553346
2.488416 -1.314214 -0.147483
2.508955 -1.325061 0.655057
2.482381 -1.311581 -0.049006
2.521144 -1.332062 0.764034
2.483233 -1.314249 0.049041
2.426622 -1.284830 -0.633912
2.508220 -1.328034 0.148739
2.420181 -1.281960 -0.532357
2.530043 -1.340155 0.250486
2.433154 -1.289376 -0.436139
2.531068 -1.341263 0.351715
2.425826 -1.285493 -0.337091
2.523684 -1.337914 0.452409
2.452121 -1.299976 -0.242816
2.504495 -1.328301 0.551056
2.464945 -1.307325 -0.146227
2.501474 -1.326699 0.653708
2.467724 -1.309351 -0.048762
2.513696 -1.333743 0.762481
2.473872 -1.314827 0.048902
2.419213 -1.286319 -0.632562
2.497081 -1.327721 0.148215
2.402340 -1.277884 -0.528923
2.506593 -1.333340 0.248394
2.415430 -1.284847 -0.433324
2.518209 -1.340083 0.350253
2.420074 -1.287860 -0.336603
2.510882 -1.336747 0.450531
2.430504 -1.293954 -0.240898
2.493741 -1.327621 0.549148
2.467948 -1.314442 -0.146541
2.492275 -1.327399 0.651908
2.451316 -1.306133 -0.048483
2.475561 -1.319051 0.751611
2.411580 -1.287123 -0.732458
2.439819 -1.302195 0.048273
2.413752 -1.288282 -0.631663
2.501807 -1.335841 0.148634
2.407257 -1.285356 -0.530449
2.500980 -1.335399 0.248045
2.400987 -1.282546 -0.431133
2.502093 -1.336555 0.348303
2.416072 -1.291146 -0.336359
2.507037 -1.339758 0.450218
2.426711 -1.296831 -0.240724
2.477569 -1.324566 0.546095
2.450028 -1.309842 -0.145599
2.484799 -1.328989 0.650558
2.445735 -1.308096 -0.048413
2.490521 -1.332049 0.756787
2.402744 -1.287260 -0.730387
2.434245 -1.304137 0.048204
2.396041 -1.284208 -0.627613
2.475060 -1.326560 0.147169
2.398089 -1.285844 -0.528923
2.495134 -1.337879 0.247697
2.391782 -1.283000 -0.429882
2.485763 -1.333413 0.346353
2.394799 -1.284618 -0.333678
2.489030 -1.335725 0.447403
2.422688 -1.300123 -0.240550
2.466605 -1.324245 0.544187
2.426622 -1.302780 -0.144343
2.472407 -1.327360 0.647859
2.439925 -1.310470 -0.048343
2.467769 -1.325425 0.750575
2.390286 -1.285960 -0.727282
2.431965 -1.308383 0.048204
2.390364 -1.286540 -0.626714
2.463948 -1.326145 0.146645
2.382012 -1.282581 -0.525870
2.492795 -1.342232 0.247697
2.384321 -1.284362 -0.428943
2.479936 -1.335866 0.345865
2.380319 -1.282206 -0.331972
2.474522 -1.333507 0.445213
2.406384 -1.296788 -0.239155
2.459105 -1.325753 0.543042
2.419070 -1.304170 -0.144029
2.459794 -1.326124 0.645160
2.412993 -1.301437 -0.047854
2.470553 -1.332482 0.752128
2.374441 -1.282784 -0.723140
2.424400 -1.309775 0.048099
2.377829 -1.285151 -0.624014
2.452844 -1.325695 0.146122
2.352139 -1.271797 -0.519764
2.465912 -1.333314 0.245256
2.366439 -1.280062 -0.426128
2.474109 -1.338304 0.345378
2.367602 -1.280692 -0.330510
2.460030 -1.331243 0.443022
2.391851 -1.294348 -0.237935
2.451608 -1.327239 0.541898
2.402740 -1.300783 -0.143191
2.459190 -1.331344 0.645609
2.401927 -1.300885 -0.047680
2.444442 -1.323911 0.744881
2.355218 -1.277715 -0.717964
2.401018 -1.302561 0.047680
2.370444 -1.286510 -0.622665
2.441750 -1.325210 0.145599
2.351640 -1.276837 -0.520145
2.454826 -1.332862 0.244385
2.350314 -1.276648 -0.423625
2.466536 -1.339777 0.344647
2.358385 -1.281032 -0.329535
2.455967 -1.334591 0.442710
2.379085 -1.292813 -0.236889
2.440664 -1.326828 0.539989
2.403975 -1.306882 -0.143401
2.441453 -1.327257 0.641560
2.392626 -1.301253 -0.047540
2.438733 -1.326329 0.743846
2.349591 -1.279975 -0.716929
2.388205 -1.301010 0.047471
2.351084 -1.281320 -0.618165
2.430665 -1.324691 0.145075
2.339067 -1.275300 -0.517856
2.442000 -1.331422 0.243339
2.330741 -1.271289 -0.420496
2.441539 -1.331723 0.341478
2.352660 -1.283245 -0.329047
2.450166 -1.336984 0.442084
2.366331 -1.291237 -0.235843
2.424559 -1.323560 0.536937
2.391172 -1.305334 -0.142773
2.437423 -1.330582 0.641110
2.386841 -1.303510 -0.047471
2.424546 -1.324102 0.740223
2.340574 -1.280365 -0.714858
2.385930 -1.305176 0.047471
2.331749 -1.276066 -0.613666
2.417837 -1.323178 0.144447
2.331671 -1.276552 -0.516711
2.439673 -1.335682 0.243339
2.325053 -1.273457 -0.419870
2.420059 -1.325493 0.338797
2.324301 -1.273045 -0.325391
2.439167 -1.336512 0.440520
2.367568 -1.297280 -0.236192
2.415359 -1.324015 0.535410
2.364371 -1.296065 -0.141307
2.419717 -1.326404 0.637061
2.370535 -1.299982 -0.047191
2.422232 -1.328332 0.740223
2.333256 -1.281658 -0.713305
2.381896 -1.308376 0.047436
2.322687 -1.276380 -0.611867
2.401521 -1.319701 0.143610
2.319117 -1.274945 -0.514421
2.426863 -1.334179 0.242293
2.317635 -1.274657 -0.418932
2.417742 -1.329715 0.338797
2.311640 -1.271360 -0.323929
2.428177 -1.336006 0.438955
2.354827 -1.295648 -0.235146
2.407885 -1.325388 0.534265
2.356856 -1.297300 -0.140993
2.403741 -1.323107 0.633462
2.359504 -1.299294 -0.047017
2.424986 -1.335353 0.741775
2.302259 -1.269867 -0.704505
2.367352 -1.305770 0.047191
2.315337 -1.277607 -0.610517
2.399214 -1.323891 0.143610
2.304857 -1.272349 -0.511750
2.398366 -1.323969 0.239678
2.311948 -1.276790 -0.418306
2.404991 -1.328174 0.337334
2.311155 -1.276352 -0.324172
2.408551 -1.330689 0.435826
2.329891 -1.287230 -0.232880
2.400413 -1.326739 0.533120
2.363328 -1.306242 -0.141516
2.387784 -1.319759 0.629863
2.346733 -1.297605 -0.046807
2.400674 -1.327431 0.735046
2.294969 -1.271075 -0.702953
2.359821 -1.306994 0.047087
2.307990 -1.278813 -0.609167
2.389911 -1.324204 0.143191
2.288896 -1.268756 -0.508697
2.387339 -1.323324 0.238807
2.294168 -1.272202 -0.415490
2.399198 -1.330444 0.336847
2.317604 -1.285198 -0.325391
2.392406 -1.327224 0.433324
2.308476 -1.280663 -0.230963
2.389510 -1.326163 0.531212
2.350567 -1.304550 -0.140888
2.388884 -1.325816 0.630763
2.337471 -1.297816 -0.046668
2.383153 -1.323179 0.730387
2.285994 -1.271323 -0.700882
2.343555 -1.303335 0.046807
2.295537 -1.277155 -0.606468
2.385851 -1.327402 0.143087
2.284962 -1.271794 -0.508315
2.376321 -1.322643 0.237935
2.279863 -1.269477 -0.413300
2.384732 -1.327870 0.335141
2.308420 -1.285378 -0.324416
2.388361 -1.330436 0.433011
2.314940 -1.289538 -0.231834
2.375188 -1.323642 0.528541
2.325606 -1.296011 -0.139528
2.379758 -1.326189 0.628963
2.331710 -1.299946 -0.046598
2.375778 -1.324514 0.728835
2.278711 -1.272485 -0.699329
2.330802 -1.301573 0.046598
2.267785 -1.266903 -0.599720
2.373069 -1.325720 0.142458
2.274170 -1.270991 -0.506407
2.372270 -1.325817 0.237761
2.270747 -1.269598 -0.412048
2.363351 -1.321373 0.332460
2.297510 -1.284561 -0.323198
2.379139 -1.330746 0.431759
2.307469 -1.290658 -0.231311
2.359168 -1.320116 0.525488
2.312883 -1.294216 -0.138900
2.351930 -1.316066 0.622215
2.325948 -1.302060 -0.046528
2.368405 -1.325828 0.727282
2.274802 -1.275515 -0.698811
2.319805 -1.300749 0.046423
2.270669 -1.273719 -0.601069
2.346365 -1.316180 0.140993
2.254828 -1.265350 -0.502591
2.361265 -1.325080 0.236889
2.259916 -1.268724 -0.410484
2.361041 -1.325496 0.332460
2.296995 -1.289541 -0.323441
2.366479 -1.329092 0.429882
2.306950 -1.295659 -0.231486
2.350014 -1.320385 0.523962
2.312362 -1.299230 -0.139004
2.341135 -1.315396 0.619965
2.302753 -1.294360 -0.046109
2.357667 -1.325226 0.724693
2.250688 -1.267163 -0.692082
2.317531 -1.304796 0.046423
2.261651 -1.273855 -0.599270
2.338844 -1.317333 0.140679
2.244064 -1.264465 -0.500683
2.355477 -1.327243 0.236541
2.263083 -1.275182 -0.411423
2.351807 -1.325716 0.331485
2.306846 -1.300371 -0.325147
2.348669 -1.324488 0.427066
2.289066 -1.290875 -0.229917
2.344517 -1.322146 0.523198
2.310091 -1.303263 -0.139004
2.338836 -1.319480 0.619965
2.293525 -1.294445 -0.045970
2.333480 -1.316995 0.717964
2.229974 -1.260631 -0.686388
2.294361 -1.297030 0.046005
2.257951 -1.276447 -0.598820
2.333064 -1.319446 0.140470
2.236948 -1.265089 -0.499538
2.336046 -1.321133 0.234798
2.236784 -1.265512 -0.407043
2.342811 -1.325499 0.330510
2.294207 -1.298529 -0.323685
2.343148 -1.326229 0.426440
2.271430 -1.285637 -0.228348
2.325122 -1.316562 0.519382
2.295875 -1.300002 -0.138272
2.334834 -1.322600 0.619515
2.284529 -1.294104 -0.045830
2.317961 -1.313042 0.713823
2.234712 -1.267946 -0.688459
2.283625 -1.295698 0.045830
2.238772 -1.270766 -0.594321
2.330988 -1.323110 0.140470
2.222786 -1.262205 -0.496867
2.333737 -1.325209 0.234798
2.215678 -1.258680 -0.403601
2.326685 -1.321741 0.328560
2.283535 -1.297228 -0.322466
2.327090 -1.322508 0.423937
2.257058 -1.282708 -0.227128
2.314287 -1.315767 0.517474
2.288394 -1.301045 -0.137958
2.322589 -1.320487 0.616816
2.280529 -1.297100 -0.045795
2.317345 -1.318040 0.714341
2.222424 -1.266107 -0.685353
2.269197 -1.292753 0.045586
2.217927 -1.264057 -0.589372
2.311323 -1.317286 0.139423
2.222285 -1.267055 -0.497248
2.310651 -1.317437 0.232706
2.216910 -1.264503 -0.404227
2.317478 -1.321866 0.327585
2.270921 -1.295310 -0.321004
2.329926 -1.329505 0.424876
2.263468 -1.291583 -0.227999
2.306872 -1.316884 0.516329
2.268774 -1.295136 -0.136911
2.303356 -1.314877 0.612317
2.271315 -1.297112 -0.045655
2.308331 -1.318251 0.712270
2.221888 -1.270943 -0.685870
2.277352 -1.302669 0.045795
2.208952 -1.264055 -0.587572
2.295153 -1.313383 0.138586
2.209847 -1.265079 -0.494959
2.311806 -1.323448 0.233054
2.206129 -1.263462 -0.402662
2.308277 -1.321962 0.326610
2.273825 -1.302232 -0.321735
2.307034 -1.321785 0.421122
2.249109 -1.288598 -0.226779
2.302867 -1.319932 0.515948
2.256113 -1.293134 -0.136283
2.287532 -1.311143 0.608718
2.256905 -1.294111 -0.045411
2.306026 -1.322278 0.712270
2.204590 -1.266160 -0.681212
2.254267 -1.294690 0.045376
2.210122 -1.269850 -0.588472
2.285930 -1.313406 0.138167
2.185509 -1.256216 -0.489998
2.304311 -1.324502 0.232532
2.195358 -1.262387 -0.401098
2.305966 -1.325989 0.326610
2.249177 -1.293334 -0.318566
2.292737 -1.318915 0.418932
2.241676 -1.289541 -0.226256
2.290350 -1.318074 0.513658
2.248660 -1.294081 -0.135969
2.280174 -1.312217 0.607368
2.240778 -1.290066 -0.045132
2.281950 -1.313770 0.705541
2.178947 -1.256495 -0.673965
2.250271 -1.297624 0.045341
2.196086 -1.266889 -0.585323
2.280174 -1.315398 0.137958
2.178212 -1.257084 -0.488853
2.289916 -1.321551 0.231311
2.181176 -1.259303 -0.398908
2.296772 -1.326042 0.325635
2.250355 -1.299243 -0.319054
2.285300 -1.319951 0.417993
2.223894 -1.284483 -0.224688
2.279546 -1.317158 0.511750
2.236022 -1.292009 -0.135341
2.272818 -1.313270 0.606018
2.235061 -1.291974 -0.045062
2.267946 -1.310983 0.701917
2.180094 -1.262232 -0.675000
2.239350 -1.296540 0.045167
2.183754 -1.264860 -0.582623
2.260592 -1.309365 0.136911
2.174316 -1.259900 -0.488471
2.280711 -1.321550 0.230614
2.158467 -1.251220 -0.395153
2.285867 -1.325071 0.324416
2.241214 -1.299186 -0.318079
2.276158 -1.319973 0.416741
2.214755 -1.284365 -0.223990
2.263659 -1.313253 0.508697
2.232036 -1.294907 -0.135236
2.265465 -1.314301 0.604668
2.224155 -1.290854 -0.044888
2.265655 -1.314939 0.701917
2.172878 -1.263122 -0.673447
2.228440 -1.295421 0.044992
2.174804 -1.264750 -0.580824
2.268662 -1.319333 0.137539
2.167023 -1.260731 -0.487326
2.271512 -1.321521 0.229917
2.157987 -1.255978 -0.395466
2.269825 -1.321070 0.322466
2.228649 -1.297105 -0.316617
2.270436 -1.321956 0.416116
2.210787 -1.287226 -0.223816
2.259667 -1.316214 0.508315
2.210788 -1.287743 -0.134085
2.251381 -1.311387 0.601519
2.221899 -1.294734 -0.044888
2.251672 -1.312083 0.698294
2.174006 -1.268860 -0.674482
2.219267 -1.295277 0.044853
2.165863 -1.264614 -0.579024
2.235310 -1.305163 0.135655
2.158038 -1.260550 -0.485800
2.264041 -1.322469 0.229394
2.147264 -1.254760 -0.393902
2.257232 -1.319020 0.321004
2.212671 -1.292980 -0.314667
2.257894 -1.319935 0.414239
2.208537 -1.291082 -0.223816
2.245503 -1.313218 0.505644
2.217158 -1.296641 -0.134608
2.238996 -1.309412 0.598820
2.209280 -1.292551 -0.044678
2.251046 -1.316987 0.698811
2.151787 -1.260932 -0.668271
2.217003 -1.299148 0.044853
2.145159 -1.257551 -0.574075
2.239921 -1.313103 0.136073
2.138899 -1.254383 -0.481984
2.247980 -1.318354 0.227999
2.139960 -1.255507 -0.392963
2.251503 -1.320949 0.320516
2.200138 -1.290813 -0.313204
2.245364 -1.317874 0.412361
2.194253 -1.287875 -0.222596
2.243208 -1.317135 0.505644
2.208002 -1.296463 -0.134189
2.231665 -1.310357 0.597470
2.189778 -1.286277 -0.044329
2.237084 -1.314064 0.695188
2.142923 -1.260767 -0.666200
2.197497 -1.292875 0.044504
2.147999 -1.264259 -0.575425
2.223856 -1.308906 0.135236
2.131632 -1.255126 -0.480839
2.233658 -1.315200 0.226779
2.125851 -1.252222 -0.390773
2.245773 -1.322861 0.320029
2.204723 -1.298681 -0.314179
2.239657 -1.319786 0.411736
2.174836 -1.281588 -0.220853
2.229067 -1.314069 0.502973
2.193692 -1.293215 -0.133457
2.236090 -1.318209 0.599270
2.184085 -1.288065 -0.044259
2.218147 -1.308153 0.690012
2.149036 -1.269418 -0.668788
2.184907 -1.290607 0.044294
2.135723 -1.262057 -0.572725
2.230165 -1.317865 0.135759
2.127748 -1.257845 -0.480457
2.219353 -1.311999 0.225559
2.113460 -1.249897 -0.388896
2.226374 -1.316674 0.317592
2.192201 -1.296464 -0.312717
2.233950 -1.321681 0.411110
2.169167 -1.283353 -0.220504
2.211564 -1.308957 0.499538
2.186275 -1.293990 -0.133143
2.223724 -1.316154 0.596570
2.180113 -1.290856 -0.044224
2.212536 -1.310054 0.688976
2.173403 -1.288934 -0.677071
2.179211 -1.292378 0.044224
2.133518 -1.265783 -0.572725
2.205531 -1.308507 0.134399
2.127238 -1.262559 -0.480839
2.220486 -1.317904 0.225908
2.112974 -1.254592 -0.389209
2.213831 -1.314477 0.316129
2.179693 -1.294207 -0.311254
2.224847 -1.321542 0.409858
2.172062 -1.290189 -0.221027
2.204213 -1.309807 0.498393
2.177145 -1.293722 -0.132724
2.194619 -1.304105 0.589372
2.176137 -1.293638 -0.044189
2.210246 -1.313914 0.688976
2.181110 -1.298655 -0.680176
2.178670 -1.297202 0.044259
2.132979 -1.270502 -0.573175
2.199812 -1.310311 0.134189
2.121658 -1.264260 -0.480075
2.204490 -1.313619 0.224513
2.097425 -1.249820 -0.386706
2.203008 -1.313257 0.314910
2.168906 -1.292928 -0.310036
2.208964 -1.317329 0.407355
2.166385 -1.291937 -0.220678
2.197094 -1.310251 0.497248
2.166308 -1.292404 -0.132201
2.188992 -1.305937 0.588472
2.163574 -1.291285 -0.043980
2.206290 -1.316779 0.688459
2.158942 -1.290565 -0.673965
2.179836 -1.303055 0.044329
2.141017 -1.279850 -0.575875
2.182095 -1.304923 0.133247
2.114614 -1.264568 -0.478931
2.197294 -1.314012 0.223990
2.105412 -1.259564 -0.388583
2.197536 -1.314677 0.314423
2.156426 -1.290594 -0.308573
2.196722 -1.314711 0.405478
2.143838 -1.283061 -0.218587
2.193120 -1.313075 0.496867
2.159135 -1.292727 -0.131887
2.188381 -1.310757 0.588922
2.146103 -1.285434 -0.043666
2.190961 -1.312302 0.684318
2.150285 -1.289979 -0.671894
2.153779 -1.292075 0.043840
2.152147 -1.291607 -0.579474
2.186893 -1.312460 0.133666
2.135969 -1.282405 -0.484273
2.177916 -1.307589 0.222247
2.096437 -1.259168 -0.387332
2.195238 -1.318511 0.314423
2.156098 -1.295002 -0.308817
2.191038 -1.316508 0.404852
2.131348 -1.280643 -0.217541
2.180728 -1.310832 0.494577
2.155163 -1.295465 -0.131782
2.174628 -1.307165 0.585773
2.147284 -1.291238 -0.043736
2.170456 -1.305173 0.678624
2.134792 -1.285757 -0.667753
2.144669 -1.291706 0.043701
2.134867 -1.286310 -0.575425
2.176045 -1.311121 0.133143
2.137090 -1.288158 -0.485036
2.177337 -1.312417 0.222421
2.099311 -1.265885 -0.388270
2.175934 -1.312089 0.311986
2.150434 -1.296713 -0.308329
2.188736 -1.320330 0.404852
2.118874 -1.278186 -0.216495
2.170033 -1.309564 0.492669
2.139219 -1.290969 -0.130945
2.167338 -1.307938 0.584423
2.136467 -1.289817 -0.043561
2.171482 -1.310956 0.679659
2.127585 -1.286482 -0.666200
2.135566 -1.291308 0.043561
2.137621 -1.293060 -0.576774
2.165209 -1.309748 0.132619
2.133159 -1.290869 -0.484655
2.169929 -1.313121 0.221899
2.129205 -1.288985 -0.394215
2.166848 -1.311773 0.311011
2.136281 -1.293268 -0.306623
2.176291 -1.318009 0.402975
2.120048 -1.283947 -0.216843
2.154311 -1.305211 0.489616
2.136963 -1.294700 -0.130945
2.141718 -1.297581 0.578124
2.134213 -1.293544 -0.043561
2.149366 -1.302728 0.673447
2.122034 -1.288188 -0.665165
2.133309 -1.295033 0.043561
2.118705 -1.286674 -0.572275
2.154384 -1.308341 0.132096
2.125869 -1.291532 -0.483510
2.169337 -1.317940 0.222073
2.126952 -1.292699 -0.394215
2.150984 -1.307305 0.309061
2.115361 -1.285654 -0.303942
2.170611 -1.319752 0.402349
2.116102 -1.286610 -0.216669
2.153707 -1.309989 0.489998
2.110810 -1.283897 -0.129479
2.132790 -1.297267 0.576325
2.125119 -1.293109 -0.043422
2.165242 -1.317523 0.679141
2.103286 -1.281836 -0.659989
2.122508 -1.293551 0.043387
2.109800 -1.286312 -0.570476
2.140160 -1.304822 0.131363
2.105175 -1.283996 -0.479312
2.148323 -1.310313 0.220155
2.121320 -1.294351 -0.393589
2.150394 -1.312091 0.309304
2.119892 -1.293479 -0.304917
2.146385 -1.310159 0.398282
2.088344 -1.274730 -0.214054
2.148066 -1.311700 0.489234
2.101748 -1.283416 -0.129060
2.123870 -1.296925 0.574525
2.102381 -1.284306 -0.043003
2.129968 -1.301159 0.668788
2.094454 -1.281472 -0.657918
2.108307 -1.289948 0.043142
2.110876 -1.292027 -0.571376
2.136176 -1.307512 0.131259
2.102930 -1.287668 -0.479312
2.139235 -1.309898 0.219458
2.107267 -1.290829 -0.391399
2.143022 -1.312731 0.308573
2.099010 -1.285771 -0.302236
2.150833 -1.318032 0.399534
2.081019 -1.275250 -0.213532
2.130710 -1.306212 0.485800
2.119938 -1.299608 -0.130317
2.121603 -1.300629 0.574525
2.100136 -1.287974 -0.043003
2.127694 -1.304874 0.668788
2.092214 -1.285126 -0.657918
2.106052 -1.293626 0.043142
2.093675 -1.286527 -0.567327
2.132189 -1.310193 0.131154
2.092317 -1.286196 -0.477404
2.128459 -1.308413 0.218587
2.088184 -1.284157 -0.388270
2.130582 -1.310230 0.307111
2.100145 -1.291513 -0.302723
2.141799 -1.317644 0.398282
2.082185 -1.280969 -0.213880
2.118395 -1.303755 0.483510
2.085348 -1.283417 -0.128328
2.117670 -1.303309 0.574075
2.097885 -1.291637 -0.043003
2.113898 -1.301496 0.665165
2.076813 -1.280664 -0.653777
2.096983 -1.293101 0.043003
2.074841 -1.279948 -0.562828
2.119700 -1.307621 0.130526
2.091740 -1.290876 -0.477786
2.121086 -1.308987 0.218064
2.084259 -1.286762 -0.387958
2.118158 -1.307690 0.305648
2.084375 -1.286834 -0.300774
2.142858 -1.323456 0.398908
2.076555 -1.282507 -0.213532
2.106095 -1.301259 0.481220
2.072911 -1.280756 -0.127700
2.103788 -1.299833 0.570926
2.092226 -1.293194 -0.042933
2.119840 -1.310262 0.667753
2.071290 -1.282253 -0.652742
2.093022 -1.295707 0.042968
2.064320 -1.278437 -0.560578
2.100435 -1.300802 0.129479
2.071126 -1.283152 -0.473588
2.118798 -1.312687 0.218064
2.078651 -1.288316 -0.387332
2.114184 -1.310339 0.305405
2.083813 -1.291515 -0.301017
2.112004 -1.309498 0.393589
2.076007 -1.287179 -0.213706
2.107157 -1.307002 0.481984
2.087645 -1.294899 -0.128746
2.091579 -1.297340 0.568226
2.081469 -1.291572 -0.042758
2.101134 -1.303774 0.662577
2.062485 -1.281787 -0.650671
2.077171 -1.290914 0.042689
2.062086 -1.282037 -0.560578
2.099857 -1.305521 0.129584
2.058880 -1.280543 -0.471298
2.106353 -1.310069 0.217018
2.062982 -1.283594 -0.384829
2.116951 -1.317173 0.306136
2.064701 -1.284663 -0.298580
2.104684 -1.310050 0.392651
2.055151 -1.279219 -0.211788
2.094874 -1.304451 0.479694
2.061646 -1.283761 -0.127281
2.082695 -1.296868 0.566427
2.067331 -1.287802 -0.042514
2.077539 -1.294161 0.655847
2.043855 -1.275159 -0.645495
2.071521 -1.292420 0.042619
2.061498 -1.286667 -0.561028
2.090798 -1.304954 0.129165
2.051646 -1.281015 -0.470153
2.087163 -1.303191 0.215275
2.057612 -1.284740 -0.384203
2.097812 -1.310350 0.303698
2.074241 -1.295627 -0.300286
2.090668 -1.306394 0.390460
2.052915 -1.282804 -0.211788
2.086163 -1.303579 0.478167
2.074644 -1.296885 -0.128223
2.075471 -1.297402 0.565077
2.066776 -1.292468 -0.042549
2.063812 -1.290615 0.652224
2.038352 -1.276673 -0.644459
2.054010 -1.286480 0.042305
2.044611 -1.280593 -0.556979
2.081747 -1.304359 0.128746
2.039649 -1.277982 -0.467864
2.085114 -1.306468 0.215275
2.036955 -1.276789 -0.380762
2.085660 -1.307317 0.302236
2.060204 -1.291863 -0.298580
2.093634 -1.312825 0.391399
2.037394 -1.277559 -0.210394
2.080558 -1.305131 0.477404
2.045534 -1.283161 -0.126548
2.079806 -1.305166 0.566877
2.051192 -1.287210 -0.042270
2.066691 -1.296935 0.653777
2.028166 -1.274734 -0.641871
2.055372 -1.291833 0.042374
2.027525 -1.274825 -0.552930
2.064479 -1.298060 0.127804
2.040740 -1.283631 -0.468627
2.082830 -1.310106 0.215275
2.039740 -1.283498 -0.381700
2.076654 -1.306727 0.301261
2.064893 -1.299326 -0.299555
2.081309 -1.310163 0.389522
2.043592 -1.286420 -0.211266
2.048373 -1.289930 0.470535
2.053431 -1.293115 -0.127176
2.062912 -1.299085 0.562828
2.050635 -1.291853 -0.042305
2.052982 -1.293332 0.650153
2.035741 -1.284457 -0.644977
2.046350 -1.291150 0.042235
2.025297 -1.278361 -0.552930
2.053765 -1.296330 0.127281
2.030196 -1.281949 -0.466719
2.077171 -1.311611 0.214926
2.029146 -1.281782 -0.380136
2.071014 -1.308229 0.300774
2.029056 -1.281725 -0.294680
2.065660 -1.305351 0.387019
2.019448 -1.276148 -0.208999
2.064373 -1.305043 0.474733
2.037666 -1.288159 -0.126339
2.049112 -1.295394 0.559678
2.031476 -1.284742 -0.041956
2.067049 -1.307239 0.655330
2.025336 -1.282839 -0.642389
2.047472 -1.296860 0.042305
2.021416 -1.280851 -0.552480
2.046438 -1.296706 0.126967
2.018006 -1.279184 -0.464429
2.061416 -1.306701 0.213532
2.025238 -1.284263 -0.379823
2.062021 -1.307589 0.299799
2.038551 -1.292706 -0.296386
2.055038 -1.303664 0.385455
2.023947 -1.283940 -0.209697
2.042201 -1.296020 0.470153
2.032042 -1.289573 -0.126130
2.043557 -1.296880 0.558778
2.032607 -1.290429 -0.042025
2.035408 -1.292207 0.646012
2.008422 -1.277043 -0.637730
2.033393 -1.292921 0.042060
2.014245 -1.281239 -0.551130
2.034060 -1.293844 0.126339
2.014115 -1.281650 -0.464048
2.045685 -1.301740 0.212137
2.016327 -1.283553 -0.378571
2.059736 -1.311186 0.299799
2.021221 -1.286668 -0.294193
2.044429 -1.301943 0.383890
2.004898 -1.276769 -0.207954
2.054838 -1.309076 0.473588
2.029788 -1.293118 -0.126130
2.041290 -1.300445 0.558778
2.026979 -1.291825 -0.041956
2.041295 -1.300949 0.648601
2.002933 -1.278468 -0.636695
2.012592 -1.284633 0.041676
2.003793 -1.279509 -0.548881
2.036849 -1.300617 0.126653
2.011874 -1.285164 -0.464048
2.046768 -1.307453 0.212486
2.004097 -1.280688 -0.376694
2.054099 -1.312641 0.299311
2.018972 -1.290193 -0.294193
2.042153 -1.305509 0.383890
1.999309 -1.278120 -0.207605
2.014509 -1.288332 0.464811
2.007337 -1.283745 -0.124874
2.034092 -1.300856 0.557429
2.014615 -1.288895 -0.041746
2.024375 -1.295140 0.643942
2.002325 -1.283004 -0.637213
2.013714 -1.290301 0.041746
1.988432 -1.274591 -0.545281
2.022806 -1.296625 0.125920
2.009628 -1.288673 -0.464048
2.044483 -1.311024 0.212486
1.995208 -1.279917 -0.375443
2.031755 -1.303362 0.296386
2.008363 -1.288356 -0.292974
2.033222 -1.304804 0.382639
1.998752 -1.282683 -0.207779
2.033735 -1.305635 0.469772
2.005093 -1.287247 -0.124874
2.010500 -1.290718 0.551580
2.012362 -1.292409 -0.041746
2.028614 -1.302847 0.646012
1.996833 -1.284406 -0.636177
2.004732 -1.289487 0.041607
1.994398 -1.283332 -0.547531
2.007103 -1.291507 0.125083
1.992519 -1.282615 -0.460613
2.030465 -1.307041 0.211266
1.996293 -1.285537 -0.376069
2.032815 -1.309056 0.296874
2.002773 -1.289710 -0.292486
2.029281 -1.307281 0.382326
1.991485 -1.282933 -0.207256
2.001749 -1.290039 0.462903
1.999486 -1.288581 -0.124664
2.003330 -1.291058 0.550230
2.001700 -1.290502 -0.041572
2.013348 -1.298011 0.641871
1.981605 -1.279506 -0.632036
2.000798 -1.291899 0.041572
1.985608 -1.282582 -0.545731
2.001491 -1.292841 0.124874
1.986979 -1.283959 -0.459850
2.009773 -1.298688 0.209348
1.989069 -1.285802 -0.375130
2.020524 -1.306136 0.295411
1.995518 -1.289971 -0.291755
2.008750 -1.299021 0.378884
1.979205 -1.279915 -0.206210
2.022572 -1.308460 0.468245
2.000588 -1.294238 -0.124874
1.991257 -1.288202 0.547531
1.982656 -1.283129 -0.041223
2.004592 -1.297325 0.639801
1.972884 -1.278760 -0.629966
1.986794 -1.287776 0.041327
1.988272 -1.289226 -0.547081
1.992528 -1.291986 0.124455
1.979794 -1.284220 -0.458705
2.002489 -1.298941 0.208825
1.975222 -1.281744 -0.372940
2.026568 -1.315063 0.296630
1.994929 -1.294532 -0.291999
2.004822 -1.301449 0.378571
1.966941 -1.276858 -0.205165
1.997233 -1.297018 0.462903
1.994976 -1.295552 -0.124664
1.998811 -1.298043 0.550230
1.978737 -1.285498 -0.041188
1.997464 -1.297664 0.638248
1.972269 -1.283255 -0.630483
1.979515 -1.287969 0.041223
1.974586 -1.285253 -0.543932
2.001987 -1.303088 0.125188
1.974259 -1.285531 -0.457942
2.000219 -1.302434 0.208825
1.964707 -1.279799 -0.371375
2.000983 -1.303429 0.293218
1.986013 -1.293678 -0.291024
2.000893 -1.303868 0.378259
1.969717 -1.283553 -0.205688
1.990033 -1.297286 0.461758
1.982673 -1.292488 -0.124036
1.991645 -1.298337 0.548881
1.973140 -1.286765 -0.041118
1.985487 -1.294817 0.635142
1.961939 -1.281413 -0.627895
1.975590 -1.290329 0.041188
1.960920 -1.281236 -0.540782
