# This PCD file was generated using the MATLAB® pcwrite function
# from Computer Vision System Toolbox®.
# .PCD v.7 - Point Cloud Data file format
VERSION .7
FIELDS x y z
SIZE 4 4 4
TYPE F F F
COUNT 1 1 1
WIDTH 1728
HEIGHT 1
VIEWPOINT 0 0 0 1 0 0 0
POINTS 1728
DATA ascii
1.222247 -0.273877 0.243472
1.210286 -0.271196 -0.065001
1.232227 -0.276113 0.291537
1.227324 -0.275239 -0.021955
1.238466 -0.277738 0.340088
1.225181 -0.275657 0.021920
1.223640 -0.275535 0.065734
1.228384 -0.276828 0.110165
1.241264 -0.279959 0.156237
1.242848 -0.280544 0.201800
1.187473 -0.268044 -0.106504
1.217938 -0.275144 0.242709
1.207862 -0.272868 -0.064897
1.233644 -0.278693 0.291986
1.228793 -0.277822 -0.021990
1.247401 -0.282029 0.342676
1.236399 -0.280449 0.022130
1.223158 -0.277670 0.065734
1.229841 -0.279413 0.110339
1.240774 -0.282125 0.156237
1.246209 -0.283589 0.202426
1.223916 -0.278516 -0.109816
1.223198 -0.278577 0.243854
1.230753 -0.280298 -0.066153
1.229356 -0.279980 0.291087
1.238055 -0.282188 -0.022165
1.226188 -0.279483 0.336982
1.235908 -0.282607 0.022130
1.214883 -0.278022 0.065315
1.229352 -0.281559 0.110339
1.240280 -0.284290 0.156237
1.236085 -0.283555 0.200862
1.222710 -0.280712 0.243854
1.203009 -0.276189 -0.064687
1.228865 -0.282125 0.291087
1.220020 -0.280318 -0.021850
1.250174 -0.287247 0.343712
1.241258 -0.286111 0.022234
1.214396 -0.280142 0.065315
1.232741 -0.284601 0.110688
1.251386 -0.289135 0.157699
1.224041 -0.283042 0.198985
1.231782 -0.285059 0.245762
1.216146 -0.281440 -0.065420
1.226473 -0.283830 0.290637
1.219529 -0.282447 -0.021850
1.223322 -0.283326 0.336465
1.236862 -0.287372 0.022165
1.213905 -0.282261 0.065315
1.226421 -0.285397 0.110165
1.250880 -0.291319 0.157699
1.242783 -0.289662 0.202113
1.227459 -0.286316 0.244999
1.231213 -0.287192 -0.066257
1.231669 -0.287298 0.291986
1.213192 -0.283212 -0.021746
1.239758 -0.289413 0.341124
1.228570 -0.287706 0.022025
1.215356 -0.284835 0.065420
1.223981 -0.287082 0.109991
1.242639 -0.291687 0.156724
1.238430 -0.290927 0.201488
1.217401 -0.286211 0.243091
1.236856 -0.290785 0.293336
1.226322 -0.288534 -0.021990
1.224207 -0.288037 0.336982
1.231958 -0.290769 0.022095
1.218744 -0.287874 0.065629
1.229295 -0.290593 0.110513
1.245992 -0.294770 0.157211
1.249454 -0.295819 0.203365
1.224541 -0.290146 0.244617
1.223073 -0.289799 0.290187
1.227762 -0.291136 -0.022025
1.246259 -0.295522 0.343194
1.231449 -0.292918 0.022095
1.206582 -0.287226 0.065001
1.234601 -0.294123 0.111036
1.231959 -0.293721 0.155505
1.237407 -0.295248 0.201488
1.224033 -0.292283 0.244617
1.220670 -0.291480 0.289737
1.223194 -0.292308 0.336982
1.204137 -0.288865 0.064897
1.236023 -0.296743 0.111211
1.244955 -0.299117 0.157211
1.236890 -0.297408 0.201488
1.229247 -0.295797 0.245762
1.233422 -0.296802 0.292886
1.250854 -0.301227 0.344747
1.205572 -0.291436 0.065001
1.221947 -0.295620 0.109991
1.250219 -0.302691 0.157943
1.240208 -0.300496 0.202113
1.221097 -0.296091 0.244236
1.231009 -0.298495 0.292436
1.218411 -0.295665 0.335947
1.201181 -0.292594 0.064792
1.236915 -0.301527 0.111385
1.238118 -0.302050 0.156480
1.243520 -0.303597 0.202739
1.222486 -0.298688 0.244617
1.234272 -0.301568 0.293336
1.244165 -0.304215 0.343194
1.230582 -0.302260 0.110862
1.233734 -0.303262 0.155993
1.250661 -0.307655 0.203991
1.221963 -0.300821 0.244617
1.235636 -0.304187 0.293786
1.226750 -0.302227 0.338535
1.245525 -0.308236 0.112257
1.235129 -0.305892 0.156237
1.246287 -0.308887 0.203365
1.227152 -0.304371 0.245762
1.227537 -0.304467 0.291986
1.246845 -0.309487 0.344229
1.238446 -0.309009 0.156724
1.236164 -0.308669 0.201800
1.238048 -0.309369 0.248052
1.232676 -0.308026 0.293336
1.223814 -0.306039 0.338018
1.237904 -0.311170 0.156724
1.239454 -0.311789 0.202426
1.216617 -0.306044 0.243854
1.224577 -0.308274 0.291537
1.251378 -0.315253 0.345782
1.256197 -0.318100 0.205242
1.214177 -0.307685 0.243472
1.231593 -0.312327 0.293336
1.219047 -0.309146 0.336982
1.242242 -0.316874 0.203052
1.217443 -0.310775 0.244236
1.231101 -0.314261 0.293336
1.246582 -0.318445 0.344747
1.234034 -0.317076 0.201800
1.216899 -0.312899 0.244236
1.224889 -0.314954 0.291986
1.253508 -0.322546 0.346818
1.243041 -0.321704 0.203365
1.227754 -0.317976 0.246525
1.226224 -0.317580 0.292436
1.239853 -0.321340 0.343194
1.227198 -0.320118 0.246525
1.233210 -0.321687 0.294236
1.233682 -0.322040 0.341641
1.201952 -0.315775 0.241564
1.223223 -0.321363 0.291986
1.229382 -0.323210 0.340606
1.235562 -0.326911 0.248433
1.224544 -0.323996 0.292436
1.230683 -0.325850 0.341124
1.218327 -0.324627 0.291087
1.235712 -0.329491 0.342676
1.234699 -0.331298 0.295136
1.222075 -0.328140 0.339053
1.223365 -0.330777 0.339571
1.224650 -0.333419 0.340088
1.229656 -0.337088 0.341641
1.078117 0.647543 -0.336982
1.065983 0.637725 -0.332841
1.073732 0.639819 -0.334912
1.061557 0.630056 -0.330771
1.075977 0.638360 -0.288837
1.072634 0.634101 -0.333877
1.083800 0.640447 -0.290637
1.053762 0.620466 -0.327665
1.066442 0.627681 -0.285688
1.088032 0.640133 -0.245380
1.053177 0.617648 -0.327147
1.052405 0.616949 -0.281639
1.062046 0.622351 -0.239275
1.047581 0.611912 -0.325077
1.056739 0.617261 -0.282539
1.064718 0.621672 -0.239656
1.051880 0.612209 -0.326112
1.051077 0.611496 -0.280739
1.074287 0.624748 -0.241564
1.056290 0.612310 -0.327147
1.057201 0.612592 -0.282089
1.071978 0.620904 -0.240801
1.054011 0.608534 -0.326112
1.065020 0.614642 -0.283888
1.054354 0.608241 -0.236603
1.051722 0.604767 -0.325077
1.055954 0.606955 -0.281189
1.063925 0.611290 -0.238511
1.113426 0.639473 -0.203365
1.052775 0.602931 -0.325077
1.053629 0.603175 -0.280289
1.068398 0.611382 -0.239275
1.075103 0.614970 -0.196169
1.053826 0.601092 -0.325077
1.049602 0.598439 -0.278939
1.066053 0.607573 -0.238511
1.079607 0.615048 -0.196795
1.054874 0.599252 -0.325077
1.052339 0.597569 -0.279389
1.055160 0.598927 -0.235840
1.078961 0.612188 -0.196482
1.106713 0.627934 -0.156237
1.052555 0.595507 -0.324041
1.055076 0.596691 -0.279839
1.059621 0.599017 -0.236603
1.064550 0.601557 -0.193666
1.106079 0.625025 -0.155993
1.115458 0.630069 -0.112082
1.053593 0.593669 -0.324041
1.062908 0.598674 -0.281639
1.050401 0.591387 -0.234313
1.063877 0.598730 -0.193353
1.100248 0.619199 -0.155018
1.106137 0.622260 -0.111036
1.051258 0.589939 -0.323006
1.055453 0.592051 -0.279389
1.065131 0.597235 -0.237366
1.056304 0.592044 -0.191789
1.084010 0.607573 -0.152580
1.110698 0.622276 -0.111385
1.055659 0.589988 -0.324041
1.049680 0.586406 -0.277590
1.069600 0.597289 -0.238130
1.072859 0.598864 -0.194605
1.081603 0.603745 -0.152093
1.080465 0.602862 -0.108247
1.114609 0.621657 -0.066885
1.056687 0.588145 -0.324041
1.054108 0.586468 -0.278489
1.068925 0.594468 -0.237748
1.065270 0.592192 -0.193040
1.072245 0.596069 -0.150631
1.083257 0.601943 -0.108422
1.094740 0.608074 -0.065629
1.057712 0.586299 -0.324041
1.063652 0.589350 -0.280739
1.052786 0.583089 -0.233932
1.081856 0.598942 -0.195856
1.080230 0.598042 -0.151605
1.068616 0.591369 -0.106853
1.085313 0.600362 -0.065001
1.055351 0.582585 -0.323006
1.061267 0.585610 -0.279839
1.055522 0.582199 -0.234313
1.060412 0.584654 -0.191789
1.084749 0.598073 -0.152093
1.053942 0.580848 -0.105284
1.095106 0.603285 -0.065525
1.059752 0.582604 -0.324041
1.057164 0.580941 -0.278489
1.058257 0.581301 -0.234695
1.073551 0.589458 -0.193979
1.089271 0.598090 -0.152580
1.047968 0.575173 -0.104587
1.099660 0.603294 -0.065734
1.116886 0.612492 -0.022234
1.057378 0.578898 -0.323006
1.058176 0.579095 -0.278489
1.060992 0.580395 -0.235077
1.058979 0.579054 -0.191163
1.083347 0.592378 -0.151605
1.061208 0.580032 -0.105807
1.091947 0.596585 -0.065211
1.117954 0.610541 -0.022234
1.061779 0.578901 -0.324041
1.055763 0.575382 -0.277590
1.072348 0.584178 -0.237366
1.086011 0.591375 -0.195856
1.075662 0.585740 -0.150387
1.060470 0.577226 -0.105633
1.094741 0.595634 -0.065315
1.083884 0.589481 -0.021536
1.055997 0.573359 -0.321971
1.060191 0.575398 -0.278489
1.050932 0.570135 -0.232405
1.064467 0.577237 -0.191789
1.087153 0.589539 -0.151849
1.052717 0.570628 -0.104761
1.072950 0.581353 -0.063955
1.090186 0.590445 -0.021641
1.050199 0.567840 -0.319900
1.115224 0.603000 0.022130
1.068051 0.577253 -0.280289
1.070926 0.578564 -0.236603
1.082854 0.584765 -0.194917
1.070713 0.578208 -0.149412
1.053711 0.568790 -0.104761
1.080994 0.583273 -0.064373
1.091215 0.588542 -0.021641
1.057992 0.569671 -0.321971
1.116275 0.601053 0.022130
1.065625 0.573540 -0.279389
1.059832 0.570184 -0.233932
1.064736 0.572582 -0.191476
1.090953 0.586681 -0.152093
1.061722 0.570723 -0.105458
1.076733 0.578549 -0.064059
1.076385 0.578121 -0.021327
1.062390 0.569649 -0.323006
1.099699 0.589654 0.021781
1.056319 0.566156 -0.276690
1.069478 0.572968 -0.235840
1.070958 0.573521 -0.192414
1.095475 0.586650 -0.152580
1.064473 0.569809 -0.105633
1.081263 0.578553 -0.064269
1.091499 0.583786 -0.021606
1.066790 0.569613 -0.324041
1.053867 0.562476 -0.275790
1.111822 0.593408 0.066048
1.058351 0.564632 -0.233169
1.071957 0.571651 -0.192414
1.066720 0.568858 -0.148437
1.067225 0.568888 -0.105807
1.087559 0.579484 -0.064583
1.085457 0.578120 -0.021466
1.064372 0.565936 -0.323006
1.091157 0.580178 0.021571
1.065172 0.566124 -0.278489
1.079347 0.573658 0.064059
1.071471 0.569232 -0.235840
1.096169 0.582353 0.108596
1.079831 0.573674 -0.193666
1.085243 0.576305 -0.150874
1.062936 0.564222 -0.105284
1.092097 0.579457 -0.064792
1.082931 0.574351 -0.021397
1.055114 0.558654 -0.319900
1.083332 0.573595 0.021397
1.062616 0.562626 -0.277590
1.089173 0.576444 0.064583
1.055012 0.558364 -0.232024
1.065386 0.563855 0.105458
1.063370 0.562551 -0.190537
1.088002 0.575338 -0.151118
1.056776 0.558826 -0.104587
1.093006 0.577740 -0.064792
1.090904 0.576386 -0.021536
1.059408 0.558799 -0.320936
1.078925 0.569093 0.021292
1.065320 0.561680 -0.278040
1.097144 0.578459 0.065001
1.076827 0.567506 -0.236603
1.080469 0.569426 0.106853
1.071341 0.564377 -0.191789
1.088905 0.573629 0.151118
1.095930 0.577330 -0.152093
1.061275 0.558837 -0.104936
1.081641 0.569320 -0.064059
1.088369 0.572619 -0.021466
1.063802 0.558746 -0.321971
1.079917 0.567210 0.021292
1.054221 0.553478 -0.274890
1.084005 0.569116 0.064164
1.067385 0.560152 -0.234313
1.079697 0.566613 0.106679
1.060080 0.556082 -0.189599
1.096936 0.575416 0.152093
1.086389 0.569883 -0.150631
1.062249 0.556984 -0.104936
1.080864 0.566504 -0.063955
1.096452 0.574430 -0.021606
1.068199 0.558679 -0.323006
1.087993 0.569031 0.021432
1.058639 0.553443 -0.275790
1.060217 0.554268 0.062698
1.077061 0.562834 -0.236222
1.075387 0.561959 0.106156
1.071554 0.559719 -0.191476
1.101457 0.575339 0.152580
1.076824 0.562472 -0.149168
1.075583 0.561584 -0.106156
1.085392 0.566465 -0.064164
1.090361 0.568816 -0.021466
1.065746 0.555029 -0.321971
1.092532 0.568978 0.021501
1.064789 0.554294 -0.277140
1.077127 0.560717 0.063641
1.055401 0.549173 -0.231261
1.079901 0.561922 0.106504
1.074282 0.558759 -0.191789
1.095416 0.569751 0.151605
1.086610 0.565171 -0.150387
1.062419 0.552354 -0.104761
1.081062 0.561807 -0.063850
1.091352 0.566912 -0.021466
1.059853 0.549610 -0.319900
1.082872 0.561547 0.021292
1.067485 0.553332 -0.277590
1.072784 0.556079 0.063327
1.052872 0.545524 -0.230497
1.063189 0.550870 0.104761
1.071747 0.555067 -0.191163
1.110510 0.575142 0.153555
1.085832 0.562361 -0.150143
1.117454 0.578491 0.199298
1.059843 0.548667 -0.104413
1.094458 0.566344 -0.064583
1.085235 0.561332 -0.021327
1.064244 0.549533 -0.320936
1.090957 0.563326 0.021432
1.064986 0.549680 -0.276690
1.082627 0.558786 0.063850
1.060801 0.547286 -0.232024
1.090709 0.562716 0.107376
1.065692 0.549574 -0.189911
1.100926 0.567744 0.152093
1.099162 0.566834 -0.151849
1.107927 0.571110 0.197420
1.062570 0.547729 -0.104587
1.080285 0.556622 0.236222
1.088343 0.560774 -0.064164
1.093325 0.563099 -0.021466
1.065201 0.547674 -0.320936
1.081269 0.555936 0.021222
1.064210 0.546930 -0.276240
1.083601 0.556895 0.063850
1.073979 0.551713 -0.234695
1.098778 0.564453 0.108073
1.070164 0.549517 -0.190537
1.078959 0.554033 0.148924
1.089554 0.559474 -0.150387
1.115952 0.572783 0.198672
1.061752 0.544964 -0.104413
1.063787 0.545774 0.232405
1.073327 0.550668 -0.063222
1.094306 0.561190 -0.021466
1.062716 0.544054 -0.319900
1.085797 0.555870 0.021292
1.061694 0.543296 -0.275340
1.070347 0.547724 0.063013
1.055714 0.540003 -0.230497
1.096214 0.560720 0.107725
1.060568 0.542254 -0.188660
1.088761 0.556668 0.150143
1.065784 0.544921 -0.146974
1.090566 0.557350 0.193979
1.069798 0.546736 -0.105110
1.092711 0.558206 0.238511
1.088516 0.556063 -0.064059
1.095283 0.559280 -0.021466
1.063664 0.542198 -0.319900
1.097455 0.559423 0.021501
1.066113 0.543212 -0.276240
1.071302 0.545856 0.063013
1.054905 0.537270 -0.230116
1.095415 0.557902 0.107550
1.075596 0.547571 -0.191163
1.100346 0.560171 0.151605
1.072041 0.545761 -0.147706
1.091537 0.555446 0.193979
1.060096 0.539447 -0.104064
1.055186 0.536717 0.230116
1.089484 0.554163 -0.064059
1.076913 0.547769 0.278939
1.096258 0.557367 -0.021466
1.064609 0.540341 -0.319900
1.091297 0.553886 0.021362
1.072273 0.543995 -0.277590
1.075815 0.545792 0.063222
1.059343 0.537203 -0.230879
1.091057 0.553285 0.107027
1.069502 0.542120 -0.189911
1.101322 0.558249 0.151605
1.076533 0.545684 -0.148193
1.094267 0.554433 0.194292
1.061036 0.537596 -0.104064
1.080642 0.547293 0.235458
1.092232 0.553163 -0.064164
1.084822 0.549410 0.280739
1.090093 0.551840 -0.021327
1.062102 0.536739 -0.318865
1.085124 0.548373 0.021222
1.062784 0.536851 -0.274890
1.074983 0.543013 0.063117
1.063784 0.537123 -0.231642
1.088464 0.549584 0.106679
1.063393 0.536692 -0.188660
1.098750 0.554537 0.151118
1.082801 0.546487 -0.148924
1.086414 0.548074 0.192727
1.063751 0.536641 -0.104238
1.095619 0.552478 0.238511
1.084279 0.546759 -0.063641
1.096219 0.552780 0.283438
1.098197 0.553537 -0.021466
1.066488 0.536621 -0.319900
1.089651 0.548276 0.021292
1.056756 0.531493 -0.273091
1.075929 0.541136 0.063117
1.069982 0.537911 -0.232787
1.094761 0.550368 0.107202
1.067858 0.536610 -0.189286
1.092621 0.549053 0.150143
1.073110 0.539249 -0.147462
1.097960 0.551497 0.194605
1.062906 0.533889 -0.104064
1.103600 0.554088 0.240038
1.087016 0.545762 -0.063745
1.121565 0.563107 0.289737
1.099161 0.551619 -0.021466
1.067423 0.534759 -0.319900
1.094182 0.548165 0.021362
1.069879 0.535756 -0.276240
1.059014 0.530315 0.062070
1.056875 0.529013 -0.229734
1.101066 0.551132 0.107725
1.068700 0.534932 -0.189286
1.100679 0.550699 0.151118
1.074050 0.537376 -0.147462
1.091854 0.546045 0.193353
1.063836 0.532033 -0.104064
1.095689 0.547963 0.238130
1.084394 0.542078 -0.063536
1.106858 0.553307 0.285688
1.092967 0.546125 -0.021327
1.064898 0.531171 -0.318865
1.095138 0.546254 0.021362
1.065488 0.531465 -0.274890
1.070662 0.533812 0.062698
1.062975 0.529980 -0.230879
1.091231 0.544068 0.106679
1.076703 0.536591 -0.190537
1.101542 0.548970 0.151118
1.078540 0.537270 -0.147949
1.087406 0.541687 0.192414
1.057537 0.526808 -0.103367
1.079069 0.537299 0.234313
1.095972 0.545715 -0.064164
1.104332 0.549638 0.284788
1.090243 0.542626 -0.021257
1.068819 0.531963 0.319900
1.058810 0.526059 -0.316795
1.088831 0.540974 0.021222
1.075141 0.533939 -0.277140
1.076866 0.534795 0.063013
1.067416 0.529869 -0.231642
1.099318 0.545706 0.107376
1.067021 0.529442 -0.188660
1.106056 0.548810 0.151605
1.082939 0.537340 -0.148437
1.086580 0.538911 0.192102
1.054885 0.523191 -0.103018
1.076488 0.533671 0.233550
1.075449 0.533156 -0.062908
1.082497 0.536650 0.278939
1.091188 0.540722 -0.021257
1.125138 0.557545 0.336465
1.063190 0.525923 -0.317830
1.079019 0.533753 0.021013
1.067337 0.527742 -0.274890
1.079588 0.533800 0.063117
1.061298 0.524527 -0.230116
1.093124 0.540256 0.106679
1.067944 0.527579 -0.188660
1.099893 0.543362 0.150631
1.087434 0.537208 -0.148924
1.091062 0.538762 0.192727
1.055797 0.521349 -0.103018
1.079178 0.532660 0.233932
1.069214 0.527743 -0.062489
1.086927 0.536485 0.279839
1.095717 0.540586 -0.021327
1.094925 0.540195 0.327147
1.064106 0.524067 -0.317830
1.087125 0.535403 0.021152
1.064759 0.524158 -0.273990
1.078726 0.531033 0.063013
1.071020 0.527008 -0.232024
1.097640 0.540107 0.107027
1.068863 0.525714 -0.188660
1.099058 0.540565 0.150387
1.081245 0.531804 -0.147949
1.102637 0.542086 0.194605
1.060281 0.521263 -0.103367
1.090678 0.535971 0.236222
1.066549 0.524114 -0.062280
1.082615 0.532009 0.278489
1.094864 0.537791 -0.021292
1.104536 0.542541 0.329735
1.068489 0.523910 -0.318865
1.084467 0.531744 0.021083
1.069172 0.524014 -0.274890
1.072477 0.525634 0.062594
1.061360 0.519955 -0.229734
1.098582 0.538190 0.107027
1.069779 0.523848 -0.188660
1.094651 0.536027 0.149656
1.078606 0.528170 -0.147462
1.091161 0.534083 0.192414
1.068347 0.522916 -0.104064
1.088085 0.532341 0.235458
1.071050 0.524007 -0.062489
1.088793 0.532688 0.279839
1.079633 0.527973 -0.020978
1.114158 0.544856 0.332324
1.062457 0.518655 -0.316795
1.096175 0.535115 0.021292
1.068334 0.521292 -0.274440
1.075188 0.524637 0.062698
1.062266 0.518102 -0.229734
1.095938 0.534525 0.106679
1.070692 0.521980 -0.188660
1.100938 0.536726 0.150387
1.075958 0.524547 -0.146974
1.093868 0.533042 0.192727
1.060303 0.516686 -0.103192
1.097837 0.534740 0.237366
1.075554 0.523886 -0.062698
1.089721 0.530787 0.279839
1.080553 0.526088 -0.020978
1.101212 0.536146 0.328183
1.059886 0.515110 -0.315759
1.080920 0.525333 0.020978
1.072748 0.521130 -0.275340
1.077899 0.523632 0.062803
1.061403 0.515389 -0.229352
1.080739 0.524778 0.105110
1.075155 0.521836 -0.189286
1.109017 0.538271 0.151362
1.080443 0.524402 -0.147462
1.094796 0.531133 0.192727
1.055826 0.512226 -0.102669
1.082870 0.525113 0.233932
1.076467 0.522008 -0.062698
1.095906 0.531434 0.281189
1.083269 0.525073 -0.021013
1.088239 0.527482 0.324041
1.067739 0.516625 -0.317830
1.076435 0.520833 0.020873
1.068393 0.516711 -0.273990
1.080609 0.522619 0.062908
1.065835 0.515245 -0.230116
1.090622 0.527227 0.105981
1.068950 0.516521 -0.188034
1.101018 0.532016 0.150143
1.084931 0.524243 -0.147949
1.095722 0.529221 0.192727
1.053130 0.508649 -0.102321
1.083785 0.523223 0.233932
1.073779 0.518392 -0.062489
1.105607 0.533758 0.283438
1.087786 0.524920 -0.021083
1.099597 0.530620 0.327147
1.065158 0.513084 -0.316795
1.073740 0.517218 0.020803
1.072804 0.516537 -0.274890
1.076121 0.518134 0.062594
1.072040 0.515939 -0.231261
1.095131 0.527051 0.106330
1.073410 0.516367 -0.188660
1.094789 0.526651 0.149168
1.082267 0.520627 -0.147462
1.101984 0.529876 0.193666
1.064790 0.511991 -0.103367
1.088235 0.523031 0.234695
1.076482 0.517382 -0.062594
1.092485 0.525074 0.279839
1.092306 0.524752 -0.021152
1.100522 0.528699 0.327147
1.073020 0.514566 -0.318865
1.080050 0.517937 0.020908
1.070190 0.512979 -0.273990
1.073421 0.514528 0.062384
1.076480 0.515763 -0.232024
1.099643 0.526861 0.106679
1.074310 0.514492 -0.188660
1.092126 0.523025 0.148681
1.074222 0.514451 -0.146243
1.095780 0.524540 0.192414
1.076464 0.515293 -0.104413
1.090918 0.521978 0.235077
1.075582 0.514640 -0.062489
1.093400 0.523166 0.279839
1.089612 0.521120 -0.021083
1.110157 0.530945 0.329735
1.066943 0.509363 -0.316795
1.088171 0.519497 0.021048
1.071083 0.511110 -0.273990
1.077923 0.514374 0.062594
1.059659 0.505431 -0.228208
1.096964 0.523225 0.106330
1.078772 0.514317 -0.189286
1.103788 0.526244 0.150143
1.076910 0.513429 -0.146487
1.089561 0.519228 0.191163
1.062973 0.506557 -0.103018
1.095372 0.521762 0.235840
1.076478 0.512762 -0.062489
1.099589 0.523771 0.281189
1.083298 0.515779 -0.020943
1.102360 0.524855 0.327147
1.064340 0.505842 -0.315759
1.085464 0.515881 0.020978
1.077255 0.511749 -0.275340
1.067994 0.507350 0.061966
1.065860 0.506107 -0.229352
1.090676 0.517891 0.105633
1.076099 0.510740 -0.188660
1.101118 0.522614 0.149656
1.074218 0.509847 -0.145999
1.094035 0.519019 0.191789
1.060255 0.502993 -0.102669
1.092733 0.518167 0.235077
1.080981 0.512594 -0.062698
1.107545 0.525190 0.282988
1.089617 0.516457 -0.021048
1.099783 0.521275 0.326112
1.068714 0.505636 -0.316795
1.082747 0.512275 0.020908
1.065814 0.504036 -0.272191
1.070684 0.506339 0.062070
1.072066 0.506764 -0.230497
1.096982 0.518542 0.106156
1.069844 0.505485 -0.187409
1.098439 0.518996 0.149168
1.096644 0.518148 -0.148924
1.096726 0.517951 0.192102
1.053925 0.497738 -0.101972
1.088310 0.513745 0.233932
1.071037 0.505592 -0.062070
1.099649 0.519098 0.280739
1.092326 0.515407 -0.021083
1.104186 0.521003 0.327147
1.076586 0.507062 -0.318865
1.083640 0.510384 0.020908
1.063166 0.500515 -0.271291
1.073373 0.505320 0.062175
1.071173 0.504056 -0.230116
1.088872 0.512384 0.105284
1.070725 0.503617 -0.187409
1.097547 0.516232 0.148924
1.083177 0.509473 -0.146974
1.097628 0.516037 0.192102
1.065611 0.500984 -0.103018
1.090982 0.512680 0.234313
1.079149 0.507119 -0.062489
1.097026 0.515520 0.279839
1.093223 0.513500 -0.021083
1.091105 0.512505 0.323006
1.077469 0.505182 -0.318865
1.091771 0.511888 0.021048
1.069332 0.501139 -0.272641
1.065211 0.499208 0.061652
1.068495 0.500520 -0.229352
1.098786 0.514709 0.106156
1.075180 0.503423 -0.188034
1.096648 0.513474 0.148681
1.087660 0.509266 -0.147462
1.093160 0.511608 0.191163
1.066483 0.499124 -0.103018
1.095431 0.512438 0.235077
1.080032 0.505235 -0.062489
1.085568 0.507824 0.276690
1.088683 0.509050 -0.020978
1.112998 0.520419 0.329218
1.071347 0.500033 -0.316795
1.092663 0.509982 0.021048
1.071971 0.500096 -0.273091
1.067891 0.498193 0.061756
1.067587 0.497825 -0.228971
1.085236 0.506054 0.104761
1.083219 0.504884 -0.189286
1.104740 0.514914 0.149656
1.083149 0.504851 -0.146731
1.094051 0.509700 0.191163
1.063741 0.495579 -0.102669
1.101663 0.513012 0.236222
1.080912 0.503349 -0.062489
1.091752 0.508397 0.278040
1.091383 0.507993 -0.021013
1.098141 0.511139 0.324559
1.068714 0.496534 -0.315759
1.086297 0.504704 0.020908
1.074610 0.499045 -0.273540
1.074193 0.498851 0.062070
1.066674 0.495133 -0.228589
1.086118 0.504159 0.104761
1.076931 0.499667 -0.188034
1.100235 0.510479 0.148924
1.085829 0.503795 -0.146974
1.098523 0.509451 0.191789
1.060989 0.492045 -0.102321
1.084745 0.502832 0.232405
1.087225 0.503981 -0.062803
1.097942 0.508949 0.279389
1.090454 0.505247 -0.020978
1.104290 0.511658 0.326112
1.069579 0.494668 -0.315759
1.079916 0.499449 0.020768
1.079017 0.498804 -0.274440
1.076875 0.497814 0.062175
1.069319 0.494095 -0.228971
1.086996 0.502263 0.104761
1.074215 0.496129 -0.187409
1.099322 0.507725 0.148681
1.093916 0.505228 -0.147949
1.104791 0.510017 0.192727
1.065464 0.491862 -0.102669
1.089186 0.502583 0.233169
1.075408 0.496226 -0.062070
1.105906 0.510298 0.281189
1.093150 0.504180 -0.021013
1.096410 0.505684 0.323524
1.066931 0.491185 -0.314724
1.084419 0.499236 0.020838
1.074574 0.494477 -0.273091
1.075927 0.495100 0.062070
1.071963 0.493048 -0.229352
1.096922 0.504528 0.105633
1.075079 0.494254 -0.187409
1.092992 0.502489 0.147706
1.080367 0.496685 -0.145999
1.105679 0.508088 0.192727
1.066321 0.490002 -0.102669
1.088278 0.499862 0.232787
1.079903 0.496015 -0.062280
1.099712 0.505114 0.279389
1.094028 0.502272 -0.021013
1.109581 0.509412 0.327147
1.078324 0.494151 -0.317830
1.081653 0.495676 0.020768
1.070121 0.490166 -0.271741
1.062263 0.486567 0.061233
1.069252 0.489542 -0.228589
1.094178 0.500954 0.105284
1.072262 0.490920 -0.186783
1.093867 0.500581 0.147706
1.081232 0.494799 -0.145999
1.092193 0.499584 0.190224
1.074422 0.491456 -0.103367
1.094418 0.500602 0.233932
1.073501 0.490808 -0.061861
1.088186 0.497522 0.276240
1.087628 0.497037 -0.020873
1.105197 0.505066 0.325594
1.075670 0.490665 -0.316795
1.087975 0.496278 0.020873
1.077981 0.491719 -0.273540
1.070380 0.488026 0.061652
1.066447 0.486233 -0.227826
1.085899 0.495102 0.104413
1.083902 0.493963 -0.188660
1.103684 0.502978 0.148924
1.085707 0.494557 -0.146487
1.091179 0.497049 0.189911
1.064314 0.484812 -0.102321
1.098863 0.500318 0.234695
1.085177 0.494087 -0.062489
1.096147 0.498850 0.278040
1.086588 0.494499 -0.020838
1.104231 0.502529 0.325077
1.065886 0.484180 -0.313689
1.086932 0.493741 0.020838
1.084161 0.492254 -0.274890
1.071145 0.486344 0.061652
1.074445 0.487616 -0.229352
1.084947 0.492382 0.104238
1.077567 0.488806 -0.187409
1.102753 0.500231 0.148681
1.082867 0.491210 -0.145999
1.095643 0.496776 0.190537
1.061529 0.481308 -0.101972
1.096159 0.496778 0.233932
1.086038 0.492192 -0.062489
1.102255 0.499541 0.279389
1.096557 0.496728 -0.021013
1.101587 0.499007 0.324041
1.070250 0.483912 -0.314724
1.076860 0.486900 0.020629
1.072588 0.484743 -0.271741
1.079273 0.487764 0.062070
1.071716 0.484124 -0.228589
1.089436 0.492128 0.104587
1.071217 0.483674 -0.186157
1.098196 0.495855 0.147949
1.100005 0.496672 -0.148193
1.103711 0.498113 0.191789
1.064184 0.480274 -0.102147
1.086286 0.490021 0.231642
1.079613 0.487010 -0.062070
1.103125 0.497616 0.279389
1.091953 0.492348 -0.020908
1.113023 0.501848 0.327147
1.074616 0.483628 -0.315759
1.088649 0.489944 0.020838
1.068101 0.480472 -0.270391
1.078301 0.485060 0.061966
1.074350 0.483058 -0.228971
1.092111 0.491044 0.104761
1.079267 0.485042 -0.187409
1.097249 0.493124 0.147706
1.088196 0.489055 -0.146487
1.108182 0.497804 0.192414
1.066838 0.479232 -0.102321
1.079976 0.484907 0.230116
1.080462 0.485125 -0.062070
1.091547 0.490102 0.276240
1.098284 0.492897 -0.021013
1.110372 0.498322 0.326112
1.078985 0.483332 -0.316795
1.089503 0.488043 0.020838
1.077831 0.482588 -0.272641
1.066386 0.477464 0.061233
1.075191 0.481182 -0.228971
1.102059 0.493206 0.105633
1.080112 0.483158 -0.187409
1.099921 0.492018 0.147949
1.085424 0.485534 -0.145999
1.094623 0.489419 0.189911
1.074948 0.480622 -0.103018
1.084405 0.484624 0.230879
1.081306 0.483239 -0.062070
1.095959 0.489787 0.277140
1.090013 0.486902 -0.020838
1.114768 0.497960 0.327147
1.079827 0.481447 -0.316795
1.097658 0.489398 0.020978
1.076891 0.479914 -0.272191
1.078163 0.480481 0.061861
1.070649 0.476908 -0.227826
1.093818 0.487228 0.104761
1.084563 0.482878 -0.188034
1.100778 0.490098 0.147949
1.089981 0.485063 -0.146487
1.100889 0.489918 0.190850
1.064864 0.473886 -0.101972
1.090631 0.485124 0.232024
1.085798 0.482975 -0.062280
1.087994 0.483724 0.274890
1.089034 0.484186 -0.020803
1.105129 0.491112 0.324041
1.066621 0.473108 -0.312653
1.089456 0.483236 0.020803
1.075946 0.477244 -0.271741
1.077258 0.477600 0.061756
1.075070 0.476630 -0.228589
1.094751 0.485127 0.104761
1.074568 0.476183 -0.186157
1.108976 0.491200 0.148924
1.090826 0.483160 -0.146487
1.094518 0.484796 0.189599
1.062128 0.470227 -0.101624
1.084295 0.480041 0.230497
1.090376 0.482505 -0.062489
1.092401 0.483401 0.275790
1.099105 0.486139 -0.020978
1.105985 0.489182 0.324041
1.070980 0.472805 -0.313689
1.081151 0.477295 0.020629
1.073295 0.473603 -0.270841
1.083572 0.478138 0.062070
1.075983 0.474566 -0.228589
1.082836 0.477588 0.103541
1.068250 0.470932 -0.184906
1.100750 0.485259 0.147706
1.097117 0.483658 -0.147218
1.100870 0.485083 0.190537
1.070240 0.471586 -0.102321
1.085214 0.477959 0.230497
1.080249 0.475772 -0.061861
1.093243 0.481494 0.275790
1.103613 0.485831 -0.021048
1.106837 0.487251 0.324041
1.075341 0.472490 -0.314724
1.085644 0.477017 0.020699
1.068767 0.469379 -0.269491
1.077090 0.473034 0.061652
1.080405 0.474265 -0.229352
1.096438 0.481303 0.104761
1.079924 0.473829 -0.186783
1.094324 0.480147 0.146731
1.088871 0.477754 -0.145999
1.107142 0.485540 0.191476
1.071061 0.469717 -0.102321
1.089643 0.477640 0.231261
1.077420 0.472282 -0.061652
1.101221 0.482715 0.277590
1.098964 0.481497 -0.020943
1.098838 0.481442 0.321453
1.079704 0.472160 -0.315759
1.090140 0.476723 0.020768
1.073156 0.469074 -0.270391
1.074253 0.469553 0.061442
1.081231 0.472378 -0.229352
1.093625 0.477793 0.104413
1.080666 0.472132 -0.186783
1.096980 0.479030 0.146974
1.089703 0.475853 -0.145999
1.102556 0.481237 0.190537
1.071879 0.467847 -0.102321
1.090392 0.475928 0.231261
1.089226 0.475193 -0.062280
1.093131 0.476896 0.275340
1.090638 0.475581 -0.020768
1.108531 0.483384 0.324041
1.076984 0.468733 -0.314724
1.090970 0.474820 0.020768
1.073891 0.467387 -0.270391
1.073240 0.466881 0.061338
1.069369 0.465197 -0.226681
1.098028 0.477665 0.104761
1.088735 0.473395 -0.188034
1.099551 0.478098 0.147218
1.088711 0.473160 -0.145756
1.101499 0.478717 0.190224
1.068958 0.464575 -0.101972
1.093022 0.474806 0.231642
1.089971 0.473481 -0.062280
1.095749 0.475763 0.275790
1.084047 0.470682 -0.020629
1.096885 0.476256 0.320418
1.070629 0.463968 -0.312653
1.086210 0.470720 0.020664
1.085434 0.470160 -0.273091
1.081303 0.468370 0.061756
1.079188 0.467230 -0.228589
1.087890 0.470997 0.103715
1.082308 0.468356 -0.186783
1.114959 0.482486 0.149168
1.089453 0.471448 -0.145756
1.100520 0.476010 0.189911
1.069767 0.462709 -0.101972
1.093849 0.472898 0.231642
1.087129 0.469992 -0.062070
1.100072 0.475588 0.276690
1.094045 0.472755 -0.020803
1.103034 0.476640 0.321971
1.074984 0.463629 -0.313689
1.081521 0.466448 0.020559
1.080885 0.465950 -0.271741
1.076616 0.464110 0.061442
1.076396 0.463792 -0.227826
1.088710 0.469098 0.103715
1.075867 0.463342 -0.185531
1.104860 0.475828 0.147706
1.099390 0.473472 -0.146974
1.108607 0.477212 0.191163
1.070574 0.460840 -0.101972
1.082049 0.465556 0.228971
1.087948 0.468094 -0.062070
1.106271 0.475978 0.278040
1.098542 0.472425 -0.020873
1.102090 0.473951 0.321453
1.075792 0.461752 -0.313689
1.086009 0.466137 0.020629
1.069160 0.458685 -0.268592
1.077425 0.462230 0.061442
1.082617 0.464234 -0.228971
1.085865 0.465627 0.103367
1.076674 0.461463 -0.185531
1.092916 0.468425 0.145999
1.085618 0.465297 -0.145025
1.111254 0.476055 0.191476
1.075039 0.460541 -0.102321
1.088274 0.465985 0.230116
1.088764 0.466195 -0.062070
1.105309 0.473279 0.277590
1.099365 0.470508 -0.020873
1.102915 0.472027 0.321453
1.083702 0.462909 -0.315759
1.090498 0.465812 0.020699
1.078920 0.460643 -0.270841
1.078230 0.460349 0.061442
1.079814 0.460803 -0.228208
1.101336 0.469987 0.104761
1.084745 0.462683 -0.186783
1.102862 0.470411 0.147218
1.095558 0.467296 -0.146243
1.104815 0.471015 0.190224
1.077674 0.459444 -0.102495
1.090892 0.464855 0.230497
1.089575 0.464294 -0.062070
1.091791 0.465238 0.273990
1.090986 0.464670 -0.020699
1.110847 0.473129 0.323524
1.077397 0.457994 -0.313689
1.098671 0.467037 0.020838
1.074342 0.456474 -0.269491
1.075355 0.456905 0.061233
1.071581 0.455081 -0.226299
1.096653 0.465728 0.104238
1.085551 0.460789 -0.186783
1.098200 0.466158 0.146487
1.094545 0.464607 -0.145999
1.092905 0.463686 0.188034
1.069303 0.453673 -0.101624
1.095316 0.464483 0.231261
1.094062 0.463951 -0.062280
1.094395 0.464092 0.274440
1.099160 0.465886 -0.020838
1.104557 0.468174 0.321453
1.067520 0.451597 -0.310583
1.090276 0.461224 0.020664
1.084111 0.458393 -0.271741
1.081670 0.457360 0.061547
1.075991 0.454738 -0.227063
1.088288 0.459935 0.103367
1.079075 0.455819 -0.185531
1.111812 0.469648 0.148193
1.099011 0.464241 -0.146487
1.110092 0.468693 0.190850
1.070094 0.451805 -0.101624
1.087081 0.458754 0.229352
1.094870 0.462041 -0.062280
1.098794 0.463697 0.275340
1.103656 0.465522 -0.020908
1.098252 0.463242 0.319383
1.078989 0.454230 -0.313689
1.085550 0.456992 0.020559
1.081317 0.454988 -0.270841
1.082466 0.455472 0.061547
1.082212 0.455142 -0.228208
1.089089 0.458035 0.103367
1.083511 0.455466 -0.186157
1.097990 0.461553 0.146243
1.103480 0.463860 -0.146974
1.105445 0.464459 0.189911
1.067207 0.448394 -0.101275
1.089691 0.457616 0.229734
1.091991 0.458583 -0.062070
1.097805 0.461024 0.274890
1.100779 0.462047 -0.020838
1.102621 0.462820 0.320418
1.079780 0.452347 -0.313689
1.093724 0.458188 0.020699
1.069527 0.447832 -0.267692
1.081417 0.452811 0.061442
1.086627 0.454769 -0.228971
1.099077 0.459979 0.104238
1.077015 0.450525 -0.184906
1.093300 0.457338 0.145512
1.095131 0.458104 -0.145756
1.113543 0.465577 0.191163
1.079017 0.451142 -0.102321
1.092299 0.456470 0.230116
1.081733 0.452055 -0.061442
1.096810 0.458356 0.274440
1.108964 0.463208 -0.020978
1.108775 0.463129 0.321971
1.091267 0.454921 -0.316795
1.094522 0.456278 0.020699
1.077502 0.448962 -0.269491
1.078519 0.449386 0.061233
1.074732 0.447588 -0.226299
1.101717 0.458827 0.104413
1.088742 0.453199 -0.186783
1.101427 0.458480 0.146487
1.092264 0.454665 -0.145268
1.103411 0.459080 0.189286
1.076124 0.447727 -0.101972
1.089468 0.453056 0.229352
1.082520 0.450167 -0.061442
1.090411 0.453448 0.272641
1.098692 0.456667 -0.020768
1.113150 0.462676 0.323006
1.077784 0.447094 -0.312653
1.097164 0.455133 0.020733
1.080084 0.447828 -0.269941
1.077456 0.446738 0.061128
1.077326 0.446463 -0.226681
1.098835 0.455377 0.104064
1.093181 0.452810 -0.187409
1.109562 0.459595 0.147462
1.091222 0.451999 -0.145025
1.106036 0.457910 0.189599
1.076903 0.445848 -0.101972
1.099328 0.454907 0.231261
1.098069 0.454386 -0.062280
1.100204 0.455270 0.274890
1.084704 0.448634 -0.020489
1.101459 0.455564 0.319383
1.074991 0.443738 -0.311618
1.094259 0.451692 0.020664
1.088070 0.448915 -0.271741
1.081927 0.446380 0.061338
1.074473 0.443085 -0.225918
1.083051 0.446623 0.102495
1.090317 0.449396 -0.186783
1.115868 0.459928 0.148193
1.099350 0.453120 -0.145999
1.101354 0.453721 0.188660
1.070311 0.440932 -0.101275
1.094674 0.450745 0.230116
1.095166 0.450948 -0.062070
1.099195 0.452607 0.274440
1.098430 0.452068 -0.020733
1.104039 0.454376 0.319900
1.082912 0.444797 -0.313689
1.089497 0.447502 0.020559
1.081641 0.444055 -0.269941
1.088247 0.446767 0.061652
1.082510 0.444191 -0.227444
1.093045 0.448514 0.103367
1.083789 0.444495 -0.185531
1.107486 0.454213 0.146974
1.100139 0.451200 -0.145999
1.107628 0.454046 0.189599
1.074766 0.440575 -0.101624
1.088192 0.445857 0.228589
1.092255 0.447521 -0.061861
1.105393 0.452904 0.275790
1.097367 0.449392 -0.020699
1.108406 0.453913 0.320936
1.080110 0.441445 -0.312653
1.090276 0.445600 0.020559
1.077002 0.439955 -0.268592
1.089026 0.444866 0.061652
1.083284 0.442301 -0.227444
1.101204 0.449618 0.104064
1.084563 0.442602 -0.185531
1.100925 0.449280 0.145999
1.097249 0.447779 -0.145512
1.110248 0.452857 0.189911
1.079223 0.440203 -0.101972
1.092605 0.445439 0.229352
1.085637 0.442598 -0.061442
1.097159 0.447296 0.273540
1.112964 0.453513 -0.020978
1.109196 0.451978 0.320936
1.091616 0.443925 -0.315759
1.094757 0.445203 0.020629
1.077769 0.438075 -0.268592
1.078699 0.438453 0.061024
1.078597 0.438193 -0.226299
1.118600 0.454444 0.105633
1.085334 0.440708 -0.185531
1.099869 0.446610 0.145756
1.090672 0.442876 -0.144537
1.109206 0.450176 0.189599
1.083682 0.439817 -0.102321
1.097019 0.445008 0.230116
1.093811 0.443706 -0.061861
1.103356 0.447578 0.274890
1.106342 0.448564 -0.020838
1.115355 0.452218 0.322489
1.085226 0.439121 -0.313689
1.097386 0.444041 0.020664
1.080338 0.436924 -0.269041
1.079462 0.436570 0.061024
1.073900 0.434102 -0.225155
1.102767 0.445771 0.104064
1.089765 0.440294 -0.186157
1.115371 0.450639 0.147706
1.096965 0.443203 -0.145268
1.097168 0.443063 0.187409
1.077058 0.434942 -0.101624
1.105077 0.446031 0.231642
1.090879 0.440301 -0.061652
1.096907 0.442734 0.273091
1.099705 0.443640 -0.020699
1.116142 0.450271 0.322489
1.078823 0.434340 -0.311618
1.100015 0.442872 0.020699
1.082907 0.435765 -0.269491
1.087634 0.437667 0.061442
1.078299 0.433692 -0.225918
1.094301 0.440128 0.103192
1.083200 0.435443 -0.184906
1.110630 0.446470 0.146974
1.103263 0.443508 -0.145999
1.110770 0.446302 0.189599
1.077816 0.433061 -0.101624
1.096744 0.440444 0.229734
1.099060 0.441374 -0.062070
1.097678 0.440819 0.273091
1.096766 0.440230 -0.020629
1.104377 0.443285 0.318865
1.083166 0.433894 -0.312653
1.085935 0.435003 0.020419
1.083666 0.433875 -0.269491
1.088396 0.435769 0.061442
1.084522 0.433997 -0.227063
1.095068 0.438217 0.103192
1.080290 0.432086 -0.184280
1.107721 0.443057 0.146487
1.104035 0.441583 -0.145999
1.106045 0.442163 0.188660
1.074870 0.429700 -0.101275
1.095688 0.437800 0.229352
1.096119 0.437972 -0.061861
1.105684 0.441794 0.274890
1.108675 0.442766 -0.020838
1.114119 0.444940 0.321453
1.087511 0.433433 -0.313689
1.092266 0.435328 0.020524
1.075370 0.428376 -0.267242
1.083589 0.431650 0.061128
1.088926 0.433557 -0.227826
1.103235 0.439254 0.103890
1.084714 0.431660 -0.184906
1.093737 0.435251 0.144537
1.095582 0.435985 -0.144781
1.115993 0.443882 0.190224
1.079321 0.429296 -0.101624
1.101924 0.438063 0.230497
1.085746 0.431632 -0.061233
1.090156 0.433385 0.270841
1.111305 0.441568 -0.020873
1.113098 0.442281 0.320936
1.091857 0.432958 -0.314724
1.091165 0.432684 0.020489
1.083362 0.429371 -0.269041
1.078771 0.427551 0.060814
1.078729 0.427318 -0.225536
1.113261 0.440997 0.104761
1.089139 0.431221 -0.185531
1.103724 0.436995 0.145756
1.092650 0.432611 -0.144293
1.103908 0.436845 0.188034
1.083774 0.428878 -0.101972
1.100861 0.435418 0.230116
1.103213 0.436348 -0.062175
1.096346 0.433632 0.272191
1.106495 0.437422 -0.020768
1.115665 0.441048 0.321453
1.081829 0.426798 -0.311618
1.099359 0.433714 0.020629
1.089548 0.429625 -0.270391
1.079515 0.425668 0.060814
1.081300 0.426154 -0.225918
1.095493 0.431747 0.103018
1.093566 0.430767 -0.186157
1.108179 0.436523 0.146243
1.095250 0.431431 -0.144537
1.112021 0.437813 0.189286
1.077105 0.424067 -0.101275
1.107100 0.435652 0.231261
1.100256 0.432959 -0.061966
1.102542 0.433858 0.273540
1.094230 0.430367 -0.020524
1.107444 0.435564 0.318865
1.082572 0.424909 -0.311618
1.092669 0.428872 0.020489
1.084854 0.425587 -0.269041
1.083975 0.425242 0.061024
1.082042 0.424266 -0.225918
1.088826 0.426926 0.102321
1.086959 0.425974 -0.184906
1.114484 0.436761 0.146974
1.101546 0.431691 -0.145268
1.101748 0.431549 0.187409
1.074133 0.420732 -0.100926
1.102374 0.431572 0.230116
1.101010 0.431038 -0.061966
1.097854 0.429802 0.272191
1.100566 0.430642 -0.020629
1.102806 0.431519 0.317312
1.086911 0.424425 -0.312653
1.093415 0.426965 0.020489
1.083780 0.422984 -0.268592
1.092158 0.426254 0.061442
1.088268 0.424517 -0.227063
1.100706 0.429369 0.103367
1.087701 0.424077 -0.184906
1.104147 0.430489 0.145512
1.104147 0.430489 -0.145512
1.113543 0.433929 0.189286
1.078579 0.420304 -0.101275
1.099467 0.428222 0.229352
1.101761 0.429115 -0.061966
1.094970 0.426471 0.271291
1.108770 0.431623 -0.020768
1.107158 0.430995 0.318347
1.093052 0.424626 -0.314206
1.094159 0.425056 0.020489
1.082700 0.420386 -0.268142
1.089176 0.422901 0.061233
1.089007 0.422617 -0.227063
1.105169 0.428889 0.103715
1.084756 0.420750 -0.184280
1.103046 0.427844 0.145268
1.097494 0.425690 -0.144537
1.114298 0.431984 0.189286
1.083026 0.419861 -0.101624
1.102043 0.427012 0.229734
1.102508 0.427192 -0.061966
1.095713 0.424559 0.271291
1.109521 0.429687 -0.020768
1.111511 0.430458 0.319383
1.090188 0.421324 -0.313171
1.104225 0.426750 0.020664
1.081614 0.417794 -0.267692
1.082460 0.418121 0.060814
1.084249 0.418595 -0.225918
1.111491 0.429112 0.104238
1.092860 0.421700 -0.185531
1.109347 0.428062 0.145999
1.096383 0.423059 -0.144293
1.115051 0.430039 0.189286
1.087475 0.419404 -0.101972
1.102787 0.425088 0.229734
1.095797 0.422394 -0.061547
1.090997 0.420544 0.269941
1.100940 0.424155 -0.020594
1.108655 0.427128 0.318347
1.087315 0.418035 -0.312136
1.101236 0.423387 0.020594
1.084161 0.416605 -0.268142
1.086917 0.417664 0.061024
1.075814 0.413182 -0.224010
1.104799 0.424314 0.103541
1.097283 0.421208 -0.186157
1.108240 0.425413 0.145756
1.102680 0.423279 -0.145025
1.112111 0.426677 0.188660
1.077044 0.413223 -0.100926
1.101694 0.422460 0.229352
1.100262 0.421911 -0.061756
1.089910 0.417941 0.269491
1.099811 0.421518 -0.020559
1.116615 0.427958 0.320418
1.080826 0.413375 -0.310065
1.101973 0.421464 0.020594
1.090347 0.416800 -0.269491
1.087644 0.415766 0.061024
1.087538 0.415508 -0.226299
1.096232 0.418830 0.102669
1.090635 0.416473 -0.184906
1.118253 0.427019 0.146974
1.107126 0.422770 -0.145512
1.116545 0.426144 0.189286
1.077764 0.411343 -0.100926
1.098761 0.419137 0.228589
1.104729 0.421414 -0.061966
1.099742 0.419511 0.271741
1.098677 0.418885 -0.020524
1.106529 0.421879 0.317312
1.088768 0.414237 -0.312136
1.087755 0.413852 0.020315
1.089251 0.414203 -0.269041
1.092102 0.415287 0.061233
1.084591 0.412214 -0.225536
1.104411 0.419747 0.103367
1.087667 0.413166 -0.184280
1.109718 0.421543 0.145756
1.111573 0.422248 -0.145999
1.120980 0.425597 0.189911
1.082206 0.410876 -0.101275
1.097655 0.416522 0.228208
1.101729 0.418067 -0.061756
1.105938 0.419665 0.273091
1.105015 0.419094 -0.020629
1.110876 0.421317 0.318347
1.089489 0.412336 -0.312136
1.101567 0.416907 0.020559
1.079037 0.408164 -0.266342
1.085353 0.410554 0.060814
1.092654 0.413098 -0.227063
1.099551 0.415706 0.102844
1.092082 0.412664 -0.184906
1.108595 0.418904 0.145512
1.103024 0.416799 -0.144781
1.114330 0.420848 0.188660
1.079193 0.407578 -0.100926
1.098381 0.414605 0.228208
1.098719 0.414733 -0.061547
1.099376 0.414981 0.271291
1.109487 0.418576 -0.020699
1.109803 0.418696 0.317830
1.093823 0.411795 -0.313171
1.100422 0.414279 0.020524
1.083395 0.407653 -0.267242
1.082329 0.407252 0.060605
1.080510 0.406352 -0.224391
1.120789 0.421500 0.104761
1.096499 0.412147 -0.185531
1.113041 0.418365 0.145999
1.098175 0.412777 -0.144050
1.116912 0.419597 0.188973
1.083633 0.407095 -0.101275
1.104616 0.414758 0.229352
1.099442 0.412815 -0.061547
1.105572 0.415117 0.272641
1.104599 0.414532 -0.020594
1.119575 0.420152 0.320418
1.090922 0.408530 -0.312136
1.112379 0.416566 0.020733
1.085930 0.406445 -0.267692
1.083038 0.405363 0.060605
1.083057 0.405154 -0.224773
1.102862 0.412563 0.103018
1.093516 0.408849 -0.184906
1.110050 0.415031 0.145512
1.102613 0.412250 -0.144537
1.102839 0.412115 0.186470
1.084342 0.405203 -0.101275
1.110856 0.414890 0.230497
1.107644 0.413691 -0.061966
1.106295 0.413187 0.272641
1.097827 0.409806 -0.020454
1.113067 0.415495 0.318347
1.084392 0.403928 -0.310065
1.099987 0.409737 0.020489
1.095769 0.407949 -0.269941
1.091231 0.406259 0.061024
1.085602 0.403948 -0.225155
1.094243 0.407163 0.102147
1.094228 0.406939 -0.184906
1.118215 0.415860 0.146487
1.107052 0.411709 -0.145025
1.109112 0.412255 0.187409
1.079445 0.401228 -0.100752
1.104217 0.410216 0.228971
1.104620 0.410366 -0.061756
1.107014 0.411255 0.272641
1.111664 0.412761 -0.020699
1.104736 0.410189 0.315759
1.092341 0.404720 -0.312136
1.096950 0.406428 0.020419
1.094652 0.405358 -0.269491
1.090066 0.403660 0.060919
1.086305 0.402052 -0.225155
1.102427 0.408019 0.102844
1.091231 0.403659 -0.184280
1.105907 0.409088 0.144781
1.109630 0.410465 -0.145268
1.117241 0.413058 0.188660
1.089487 0.402797 -0.101624
1.104931 0.408288 0.228971
1.101588 0.407053 -0.061547
1.105902 0.408647 0.272191
1.112382 0.410821 -0.020699
1.112699 0.410938 0.317830
1.093046 0.402813 -0.312136
1.099534 0.405204 0.020454
1.086215 0.400080 -0.267242
1.088894 0.401067 0.060814
1.085163 0.399478 -0.224773
1.105006 0.406783 0.103018
1.091934 0.401753 -0.184280
1.110345 0.408528 0.145268
1.106619 0.407157 -0.144781
1.117960 0.411108 0.188660
1.084579 0.398833 -0.101101
1.107485 0.407036 0.229352
1.102297 0.405129 -0.061547
1.102956 0.405372 0.271291
1.116852 0.410258 -0.020768
1.115228 0.409661 0.318347
1.097375 0.402234 -0.313171
1.107750 0.406037 0.020594
1.085081 0.397513 -0.266792
1.083967 0.397105 0.060500
1.082171 0.396233 -0.224010
1.105715 0.404853 0.103018
1.096343 0.401205 -0.184906
1.107328 0.405225 0.144781
1.098007 0.401814 -0.143562
1.118676 0.409156 0.188660
1.087144 0.397623 -0.101275
1.104506 0.403755 0.228589
1.103002 0.403205 -0.061547
1.100001 0.402108 0.270391
1.110053 0.405563 -0.020629
1.115941 0.407714 0.318347
1.094445 0.398995 -0.312136
1.102821 0.402048 0.020489
1.096759 0.399622 -0.269491
1.090288 0.397264 0.060814
1.082861 0.394344 -0.224010
1.104548 0.402241 0.102844
1.097042 0.399291 -0.184906
1.108034 0.403292 0.144781
1.096841 0.399218 -0.143318
1.104537 0.401801 0.186157
1.087837 0.395726 -0.101275
1.107054 0.402497 0.228971
1.107458 0.402644 -0.061756
1.104364 0.401519 0.271291
1.103241 0.400893 -0.020489
1.118467 0.406425 0.318865
1.087876 0.394450 -0.310065
1.101641 0.399441 0.020454
1.095623 0.397043 -0.269041
1.087224 0.393999 0.060605
1.090932 0.395127 -0.225536
1.107121 0.400991 0.103018
1.094023 0.396030 -0.184280
1.118069 0.404735 0.145999
1.103136 0.399330 -0.144050
1.121954 0.405921 0.188973
1.084779 0.392471 -0.100926
1.104062 0.399229 0.228208
1.111916 0.402069 -0.061966
1.106896 0.400254 0.271741
1.111462 0.401685 -0.020629
1.110090 0.401190 0.316277
1.099466 0.396483 -0.313171
1.092931 0.394126 0.020280
1.096314 0.395130 -0.269041
1.095426 0.394809 0.061024
1.089773 0.392557 -0.225155
1.105945 0.398383 0.102844
1.094712 0.394121 -0.184280
1.111302 0.400094 0.145025
1.111302 0.400094 -0.145025
1.117085 0.401955 0.188034
1.089212 0.391926 -0.101275
1.104757 0.397302 0.228208
1.105098 0.397424 -0.061547
1.107593 0.398321 0.271741
1.106516 0.397716 -0.020524
1.110788 0.399252 0.316277
1.096519 0.393259 -0.312136
1.099264 0.394243 0.020384
1.089665 0.390586 -0.267242
1.092353 0.391549 0.060814
1.092304 0.391317 -0.225536
1.106638 0.396453 0.102844
1.091679 0.390878 -0.183654
1.100786 0.394138 0.143562
1.106392 0.396146 -0.144293
1.127084 0.403333 0.189599
1.086142 0.388681 -0.100926
1.110995 0.397356 0.229352
1.094507 0.391459 -0.060919
1.104616 0.395075 0.270841
1.112857 0.397803 -0.020629
1.120579 0.400564 0.318865
1.100843 0.392642 -0.313171
1.111251 0.396355 0.020594
1.088509 0.388029 -0.266792
1.085510 0.386959 0.060396
1.087437 0.387433 -0.224391
1.114836 0.397195 0.103541
1.099734 0.391814 -0.184906
1.108952 0.394880 0.144537
1.103342 0.392883 -0.143806
1.118482 0.398053 0.188034
1.086819 0.386785 -0.100926
1.109768 0.394952 0.228971
1.098952 0.390887 -0.061128
1.101632 0.391840 0.269941
1.107897 0.393851 -0.020524
1.115816 0.396666 0.317312
1.090603 0.386845 -0.310065
1.110057 0.393746 0.020559
1.094627 0.388273 -0.268142
1.089948 0.386399 0.060605
1.084344 0.384413 -0.223628
1.107947 0.392780 0.102844
1.100417 0.389894 -0.184906
1.122669 0.397779 0.146243
1.105897 0.391618 -0.144050
1.119105 0.396296 0.188034
1.091181 0.386407 -0.101275
1.110456 0.393015 0.228971
1.107095 0.391826 -0.061547
1.104151 0.390567 0.270391
1.097203 0.388109 -0.020315
1.116437 0.394913 0.317312
1.087566 0.383846 -0.309030
1.105017 0.390005 0.020454
1.102654 0.388955 -0.269941
1.090554 0.384686 0.060605
1.088716 0.383825 -0.224391
1.099236 0.387534 0.101972
1.089917 0.384034 -0.183028
1.121489 0.395159 0.145999
1.102767 0.388562 -0.143562
1.108616 0.390405 0.186157
1.091854 0.384502 -0.101275
1.111140 0.391077 0.228971
1.111546 0.391219 -0.061756
1.104763 0.388832 0.270391
1.109197 0.390175 -0.020524
1.115303 0.392323 0.316795
1.091880 0.383227 -0.310065
1.098148 0.385427 0.020315
1.092298 0.383160 -0.267242
1.094993 0.384105 0.060814
1.087532 0.381274 -0.224010
1.103671 0.386933 0.102321
1.094314 0.383438 -0.183654
1.109063 0.388606 0.144293
1.110937 0.389262 -0.144537
1.124210 0.393694 0.188660
1.088763 0.381280 -0.100926
1.106262 0.387191 0.227826
1.104686 0.386639 -0.061338
1.114637 0.390122 0.272641
1.107989 0.387578 -0.020489
1.099574 0.384635 0.312136
1.103490 0.385141 -0.313171
1.108259 0.386805 0.020489
1.092965 0.381253 -0.267242
1.091890 0.380878 0.060605
1.103026 0.384546 -0.227063
1.111870 0.387629 0.103018
1.094981 0.381528 -0.183654
1.113489 0.387976 0.144781
1.109739 0.386670 -0.144293
1.124896 0.391730 0.188660
1.089426 0.379379 -0.100926
1.101373 0.383323 0.226681
1.105359 0.384711 -0.061338
1.102433 0.383692 0.269491
1.116219 0.388271 -0.020629
1.116666 0.388427 0.316795
1.100511 0.381947 -0.312136
1.105154 0.383559 0.020419
1.099152 0.381260 -0.268592
1.088779 0.377662 0.060396
1.087001 0.376833 -0.223628
1.120075 0.388298 0.103715
1.095646 0.379616 -0.183654
1.108537 0.384082 0.144050
1.108537 0.384082 -0.144050
1.118111 0.387181 0.187409
1.097618 0.380084 -0.101624
1.113172 0.385253 0.228971
1.102255 0.381474 -0.061128
1.099418 0.380492 0.268592
1.111225 0.384362 -0.020524
1.126470 0.389635 0.319383
1.097523 0.378765 -0.311100
1.119054 0.386196 0.020664
1.088763 0.375529 -0.265892
1.089437 0.375761 0.060396
1.087657 0.374935 -0.223628
1.105682 0.381149 0.102321
1.103777 0.380277 -0.184906
1.116713 0.384734 0.145025
1.111082 0.382794 -0.144293
1.118786 0.385229 0.187409
1.094512 0.376870 -0.101275
1.117556 0.384588 0.229734
1.106696 0.380850 -0.061338
1.096395 0.377305 0.267692
