# This PCD file was generated using the MATLAB® pcwrite function
# from Computer Vision System Toolbox®.
# .PCD v.7 - Point Cloud Data file format
VERSION .7
FIELDS x y z
SIZE 4 4 4
TYPE F F F
COUNT 1 1 1
WIDTH 1734
HEIGHT 1
VIEWPOINT 0 0 0 1 0 0 0
POINTS 1734
DATA ascii
0.881922 -0.322040 -0.251572
0.878593 -0.320998 -0.215953
0.855444 -0.312540 0.047730
0.859265 -0.314106 -0.177834
0.896343 -0.327660 0.083495
0.881212 -0.322303 -0.148613
0.891139 -0.325934 -0.116507
0.866292 -0.317018 -0.080706
0.873981 -0.320004 -0.048777
0.874991 -0.320548 -0.016266
0.872291 -0.320249 -0.248984
0.868885 -0.319171 -0.213703
0.860558 -0.316283 -0.178216
0.886210 -0.325886 -0.149551
0.883117 -0.324749 -0.115532
0.858258 -0.315778 -0.080009
0.903409 -0.332569 -0.050452
0.889442 -0.327603 -0.016545
0.880792 -0.325116 -0.251572
0.862842 -0.318662 -0.212354
0.872896 -0.322548 -0.180887
0.912339 -0.337303 -0.119432
0.894713 -0.332030 -0.255713
0.878727 -0.326272 -0.216403
1.059796 0.551225 0.275790
1.036994 0.539135 0.313171
1.102287 0.570883 0.286588
1.051658 0.544430 0.317312
1.054864 0.544456 0.145756
1.060897 0.547101 0.232024
1.073837 0.553774 0.278939
1.083516 0.558526 0.326630
1.117152 0.574631 0.065839
1.055813 0.542615 0.145756
1.089396 0.559633 0.193979
1.056611 0.542558 0.230879
1.073069 0.551009 0.278489
1.079333 0.553988 0.325077
1.078485 0.552601 0.021152
1.118153 0.572680 0.065839
1.078283 0.552023 0.105981
1.092102 0.558856 0.150631
1.083336 0.554133 0.192727
1.045319 0.534457 0.228208
1.077499 0.550910 0.279389
1.068256 0.545949 0.321453
1.104385 0.563441 0.021641
1.057944 0.539282 0.103890
1.061238 0.540728 0.146243
1.080781 0.550449 0.192102
1.113169 0.566944 -0.109293
1.063747 0.541538 0.232024
1.043726 0.531346 0.270391
1.081806 0.550494 -0.021187
1.060599 0.539703 0.318865
1.080407 0.548833 0.021152
1.077405 0.547072 0.063327
1.062437 0.539238 0.104238
1.065721 0.540671 0.146731
1.078217 0.546774 0.191476
1.096388 0.555989 -0.107550
1.064596 0.539867 0.232024
1.054628 0.534581 -0.061966
1.055081 0.534810 0.273091
1.075630 0.544990 -0.021048
1.063263 0.538724 0.319383
1.097423 0.555070 0.021466
1.067664 0.539784 0.062698
1.093288 0.552739 -0.238130
1.065061 0.538468 0.104413
1.093084 0.552395 -0.193979
1.066569 0.538996 0.146731
1.107416 0.559396 -0.152337
1.070258 0.540627 0.189911
1.061692 0.536299 -0.104064
1.060279 0.535354 0.230879
1.073295 0.541926 -0.063013
1.057753 0.533846 0.273540
1.080055 0.545102 -0.021117
1.074455 0.542276 0.322489
1.064482 0.536310 -0.319383
1.098293 0.553345 0.021466
1.066727 0.537208 0.062594
1.031121 0.519051 -0.224391
1.069558 0.538400 0.104761
1.060415 0.533565 0.145756
1.108293 0.557656 -0.152337
1.060612 0.533432 0.188034
1.085765 0.546084 -0.106330
1.066474 0.536147 0.232024
1.070670 0.538257 -0.062803
1.053367 0.529558 0.272191
1.061350 0.533339 -0.020733
1.061591 0.533460 0.318347
1.075777 0.539649 -0.322489
1.063509 0.533495 0.020768
1.080160 0.541612 0.063327
1.053087 0.527807 -0.228971
1.054466 0.528497 0.103192
1.105602 0.553886 -0.195856
1.073768 0.537938 0.147462
1.111039 0.556610 -0.152580
1.072139 0.536887 0.189911
1.070684 0.536158 -0.104761
1.067408 0.534285 0.232024
1.087682 0.544433 -0.063745
1.063002 0.532080 0.274440
1.083739 0.542224 -0.021152
1.064248 0.532472 0.318865
1.069804 0.534318 -0.320418
1.064439 0.531638 0.020768
1.098430 0.548375 -0.283438
1.063235 0.530805 0.062280
1.052250 0.525092 -0.228589
1.062517 0.530215 0.103890
1.080052 0.538729 -0.191163
1.067600 0.532518 0.146487
1.112009 0.554670 -0.152580
1.074842 0.535897 0.190224
1.075184 0.536067 -0.105110
1.054282 0.525416 0.228971
1.104719 0.550552 -0.064687
1.058697 0.527617 0.273091
1.073945 0.534981 -0.020943
1.061717 0.528890 0.317830
1.077654 0.535890 -0.322489
1.070737 0.532450 0.020873
1.048779 0.521302 -0.270391
1.049852 0.521836 0.061442
1.068989 0.531116 -0.232024
1.068794 0.531019 0.104413
1.077452 0.535086 -0.190537
1.064972 0.528889 0.145999
1.089863 0.541250 -0.149412
1.082854 0.537533 0.191476
1.072549 0.532417 -0.104761
1.062232 0.527066 0.230497
1.078841 0.535307 -0.063117
1.063107 0.527500 0.273990
1.071294 0.531329 -0.020873
1.074754 0.533045 0.321453
1.078588 0.534008 -0.322489
1.071665 0.530581 0.020873
1.070645 0.529844 -0.275790
1.057921 0.523547 0.061861
1.076953 0.532731 -0.233550
1.076863 0.532687 0.105110
1.087238 0.537582 -0.192102
1.067673 0.527909 0.146243
1.085467 0.536707 -0.148681
1.069623 0.528641 0.188973
1.068118 0.527897 -0.104238
1.057870 0.522602 0.229352
1.088727 0.537847 -0.063641
1.053543 0.520465 0.271291
1.063255 0.525031 -0.020699
1.061825 0.524325 0.317312
1.062190 0.523584 -0.317312
1.076176 0.530478 0.020943
1.069820 0.527113 -0.275340
1.049875 0.517286 0.061338
1.058508 0.521309 -0.229352
1.067066 0.525524 0.104064
1.079313 0.531322 -0.190537
1.068592 0.526045 0.146243
1.073936 0.528675 -0.146974
1.068771 0.525901 0.188660
1.052948 0.518115 -0.102669
1.065827 0.524221 0.230879
1.078911 0.530656 -0.063013
1.049204 0.516045 0.269941
1.067758 0.524939 -0.020768
1.066206 0.524176 0.318347
1.063103 0.521730 -0.317312
1.066329 0.523313 0.020733
1.075988 0.527820 -0.276690
1.054362 0.517212 0.061547
1.055890 0.517732 -0.228589
1.064404 0.521907 0.103715
1.066048 0.522483 -0.188034
1.085552 0.532042 0.148437
1.083769 0.531168 -0.148193
1.062592 0.520558 0.187409
1.046694 0.512770 -0.101972
1.063214 0.520633 0.230116
1.083423 0.530529 -0.063222
1.055354 0.516784 0.271291
1.072265 0.524834 -0.020838
1.051502 0.514671 0.313689
1.060540 0.518177 -0.316277
1.067241 0.521451 0.020733
1.068152 0.521665 -0.274440
1.064237 0.519753 0.062070
1.069142 0.521918 -0.231261
1.067104 0.520923 0.103890
1.054532 0.514557 -0.185844
1.061502 0.517959 0.145025
1.079342 0.526664 -0.147462
1.072376 0.523033 0.188973
1.051169 0.512689 -0.102321
1.050003 0.511894 0.227063
1.071780 0.522511 -0.062489
1.065012 0.519211 0.273540
1.076775 0.524713 -0.020908
1.059346 0.516220 0.315759
1.073604 0.522241 -0.319900
1.064553 0.517838 0.020664
1.056793 0.513835 -0.271291
1.059754 0.515274 0.061756
1.055925 0.513186 -0.228208
1.066219 0.518189 0.103715
1.066089 0.517895 -0.187721
1.065976 0.517840 0.145512
1.073118 0.521310 -0.146487
1.075064 0.522023 0.189286
1.059231 0.514335 -0.103018
1.056194 0.512633 0.228208
1.074488 0.521512 -0.062594
1.046632 0.507992 0.268592
1.079488 0.523706 -0.020943
1.048078 0.508468 0.312136
1.069297 0.517840 -0.318347
1.065455 0.515979 0.020664
1.050672 0.508594 -0.269491
1.042674 0.504723 0.060710
1.069190 0.517328 -0.230879
1.076090 0.520666 0.104587
1.066991 0.516033 -0.187721
1.061517 0.513386 0.144781
1.074026 0.519436 -0.146487
1.065303 0.514988 0.187409
1.061921 0.513353 -0.103192
1.057087 0.510789 0.228208
1.071799 0.517898 -0.062384
1.049272 0.507012 0.269041
1.073198 0.518342 -0.020803
1.066360 0.515039 0.317312
1.070199 0.515973 -0.318347
1.066354 0.514119 0.020664
1.060335 0.510989 -0.271741
1.052550 0.507237 0.061233
1.038254 0.500124 -0.224010
1.068022 0.514463 0.103715
1.071360 0.516071 -0.188347
1.073142 0.516700 0.146243
1.071354 0.515839 -0.145999
1.062640 0.511415 0.186783
1.052044 0.506315 -0.102147
1.059657 0.509979 0.228589
1.076302 0.517758 -0.062594
1.043131 0.501801 0.267242
1.059683 0.509536 -0.020524
1.053329 0.506480 0.313171
1.055424 0.506581 -0.313689
1.070855 0.513987 0.020733
1.057623 0.507636 -0.270841
1.053434 0.505399 0.061233
1.047889 0.502739 -0.225918
1.058051 0.507614 0.102669
1.058010 0.507367 -0.185844
1.068583 0.512438 0.145512
1.074043 0.514826 -0.146243
1.067005 0.511452 0.187409
1.049244 0.502939 -0.101798
1.051693 0.503887 0.226681
1.086120 0.520381 -0.063117
1.044005 0.499979 0.267242
1.060482 0.507870 -0.020524
1.054123 0.504825 0.313171
1.063190 0.508255 -0.315759
1.057228 0.505405 0.020454
1.054991 0.504109 -0.269941
1.056028 0.504605 0.061338
1.055851 0.504294 -0.227444
1.066126 0.509202 0.103367
1.060676 0.506371 -0.186157
1.056936 0.504586 0.143806
1.076641 0.513993 -0.146487
1.071461 0.511291 0.188034
1.050120 0.501107 -0.101798
1.052571 0.502051 0.226681
1.078013 0.514186 -0.062594
1.060619 0.505890 0.271291
1.075807 0.512904 -0.020803
1.048027 0.499659 0.311100
1.064075 0.506399 -0.315759
1.068942 0.508715 0.020664
1.050590 0.499756 -0.268592
1.044282 0.496756 0.060605
1.046091 0.497392 -0.225155
1.061615 0.504773 0.102844
1.056206 0.501976 -0.185218
1.054229 0.501036 0.143318
1.068572 0.507853 -0.145268
1.072352 0.509420 0.188034
1.050993 0.499274 -0.101798
1.053445 0.500212 0.226681
1.073496 0.509733 -0.062280
1.050938 0.499022 0.268592
1.067668 0.506738 -0.020629
1.059369 0.502799 0.314206
1.061466 0.502887 -0.314724
1.062600 0.503424 0.020524
1.060267 0.502092 -0.270841
1.046953 0.495787 0.060710
1.071801 0.507325 -0.230497
1.062495 0.502920 0.102844
1.066008 0.504356 -0.186783
1.058691 0.500893 0.143806
1.074840 0.508534 -0.145999
1.062525 0.502480 0.186157
1.055466 0.499142 -0.102147
1.057866 0.500052 0.227444
1.070772 0.506152 -0.062070
1.044760 0.493856 0.266792
1.063127 0.502311 -0.020524
1.065485 0.503426 0.315759
1.057100 0.498561 -0.313171
1.067095 0.503274 0.020594
1.057616 0.498579 -0.269941
1.044203 0.492256 0.060500
1.047821 0.493737 -0.225155
1.056162 0.497668 0.102147
1.065100 0.501652 -0.186470
1.059564 0.499045 0.143806
1.063155 0.500736 -0.144293
1.059826 0.498943 0.185531
1.054532 0.496451 -0.101972
1.062291 0.499876 0.228208
1.078883 0.507684 -0.062489
1.040331 0.489543 0.265442
1.060383 0.498752 -0.020454
1.052377 0.494987 0.311618
1.063215 0.499178 -0.314724
1.060731 0.498012 0.020454
1.056720 0.495904 -0.269491
1.046869 0.491281 0.060605
1.050458 0.492742 -0.225536
1.053421 0.494131 0.101798
1.064186 0.498954 -0.186157
1.067622 0.500565 0.144781
1.083798 0.508150 -0.146974
1.066061 0.499607 0.186470
1.049985 0.492073 -0.101449
1.056050 0.494690 0.226681
1.074341 0.503258 -0.062175
1.046478 0.490206 0.266792
1.061252 0.496901 -0.020454
1.039243 0.486596 0.307477
1.057084 0.494050 -0.312653
1.057975 0.494467 0.020384
1.055819 0.493234 -0.269041
1.053153 0.491989 0.060919
1.053096 0.491738 -0.225918
1.056087 0.493135 0.101972
1.052524 0.491248 -0.183967
1.064896 0.497022 0.144293
1.077488 0.502899 -0.145999
1.063351 0.496075 0.185844
1.052648 0.491082 -0.101624
1.049794 0.489527 0.225155
1.060737 0.494630 -0.061338
1.057929 0.493321 0.269491
1.074805 0.500962 -0.020699
1.034838 0.482333 0.305924
1.057945 0.492204 -0.312653
1.055210 0.490932 0.020315
1.047843 0.487282 -0.266792
1.048577 0.487624 0.060605
1.055733 0.490727 -0.226299
1.058753 0.492131 0.102147
1.062338 0.493572 -0.185531
1.047760 0.486799 0.141856
1.069363 0.496836 -0.144781
1.071382 0.497546 0.187096
1.049889 0.487565 -0.101275
1.050647 0.487694 0.225155
1.068845 0.496141 -0.061756
1.041113 0.483268 0.264992
1.062980 0.493194 -0.020454
1.058459 0.491096 0.312653
1.057049 0.489545 -0.312136
1.052437 0.487409 0.020245
1.053997 0.487908 -0.268142
1.040364 0.481597 0.060082
1.040552 0.481464 -0.222865
1.065035 0.492792 0.102669
1.057819 0.489229 -0.184593
1.052211 0.486636 0.142343
1.068427 0.494135 -0.144537
1.061490 0.490702 0.185218
1.056164 0.488240 -0.101798
1.047932 0.484213 0.224391
1.066083 0.492600 -0.061547
1.029571 0.475729 0.261843
1.067470 0.493014 -0.020524
1.047038 0.483578 0.309030
1.061411 0.489317 -0.313171
1.062366 0.489757 0.020419
1.054847 0.486068 -0.268142
1.035761 0.477274 0.059768
1.046740 0.482111 -0.224010
1.053226 0.485098 0.101449
1.067643 0.491513 -0.186157
1.063878 0.489779 0.143806
1.069288 0.492270 -0.144537
1.058756 0.487198 0.184593
1.047965 0.482232 -0.100926
1.055911 0.485665 0.225918
1.065127 0.489904 -0.061442
1.044563 0.480446 0.265442
1.050160 0.482798 -0.020175
1.049636 0.482557 0.309548
1.049972 0.481824 -0.309548
1.057766 0.485400 0.020315
1.057465 0.485039 -0.268592
1.042039 0.477963 0.060082
1.044011 0.478647 -0.223247
1.050448 0.481598 0.101101
1.059520 0.485534 -0.184593
1.064731 0.487922 0.143806
1.079168 0.494538 -0.145756
1.059605 0.485349 0.184593
1.043371 0.477913 -0.100403
1.047831 0.479735 0.224010
1.069612 0.489707 -0.061652
1.040085 0.476188 0.264093
1.054637 0.482628 -0.020245
1.038180 0.475097 0.305924
1.050812 0.479991 -0.309548
1.054974 0.481892 0.020245
1.056537 0.482383 -0.268142
1.053773 0.481121 0.060710
1.050203 0.479269 -0.224391
1.056725 0.482245 0.101624
1.051380 0.479585 -0.183028
1.051132 0.479472 0.141856
1.074611 0.490182 -0.145025
1.064045 0.485138 0.185218
1.042390 0.475265 -0.100229
1.039735 0.473834 0.222102
1.066831 0.486182 -0.061442
1.044461 0.475988 0.264992
1.062757 0.484103 -0.020384
1.046040 0.476488 0.307995
1.058682 0.481354 -0.311618
1.052173 0.478395 0.020175
1.036088 0.470863 -0.262743
1.043701 0.474323 0.060082
1.047463 0.475811 -0.223628
1.063007 0.482873 0.102147
1.054014 0.478566 -0.183341
1.044738 0.474354 0.140881
1.071850 0.486664 -0.144537
1.064890 0.483280 0.185218
1.046847 0.475091 -0.100578
1.056651 0.479318 0.225536
1.065859 0.483495 -0.061338
1.045290 0.474164 0.264992
1.065422 0.483073 -0.020419
1.050388 0.476257 0.309030
1.056001 0.477912 -0.310583
1.060294 0.479855 0.020315
1.042235 0.471463 -0.264093
1.037249 0.469208 0.059663
1.062602 0.480454 -0.226681
1.058402 0.478555 0.101624
1.052964 0.476096 -0.183028
1.045564 0.472530 0.140881
1.069080 0.483158 -0.144050
1.047730 0.473288 0.182090
1.053122 0.475724 -0.101101
1.055614 0.476850 0.225155
1.068521 0.482456 -0.061442
1.026579 0.463519 0.260043
1.060795 0.478745 -0.020315
1.060023 0.478396 0.311618
1.049788 0.472895 -0.308512
1.059306 0.477183 0.020280
1.046528 0.471426 -0.264992
1.043529 0.469857 0.059977
1.040084 0.468306 -0.221720
1.059152 0.476892 0.101624
1.051992 0.473446 -0.182715
1.051736 0.473331 0.141612
1.064491 0.478848 -0.143318
1.053876 0.474073 0.183028
1.046600 0.470800 -0.100403
1.056444 0.475007 0.225155
1.061991 0.477501 -0.061024
1.030941 0.463324 0.260943
1.048778 0.471340 -0.020070
1.037866 0.466435 0.304889
1.048767 0.470455 -0.307995
1.054581 0.473063 0.020175
1.050905 0.471193 -0.265892
1.046089 0.469034 0.060082
1.039108 0.465687 -0.221338
1.038165 0.465264 0.099532
1.052735 0.471793 -0.182715
1.047125 0.469060 0.140881
1.070676 0.479610 -0.144050
1.056505 0.473040 0.183341
1.038328 0.464901 -0.099532
1.039271 0.465323 0.221338
1.068292 0.478094 -0.061338
1.026332 0.459316 0.259594
1.047774 0.468692 -0.020035
1.045732 0.467779 0.306959
1.049586 0.468623 -0.307995
1.042623 0.465514 0.019931
1.051644 0.469542 -0.265892
1.050553 0.468836 0.060291
1.043424 0.465654 -0.222102
1.046172 0.466881 0.100229
1.053556 0.469956 -0.182715
1.047861 0.467415 0.140881
1.067886 0.476123 -0.143562
1.060855 0.472989 0.183967
1.042696 0.464892 -0.099880
1.036494 0.461911 0.220575
1.065393 0.474790 -0.061128
1.044933 0.465453 0.264093
1.050336 0.467860 -0.020070
1.046465 0.466136 0.306959
1.052249 0.467392 -0.308512
1.045342 0.464324 0.019966
1.043720 0.463385 -0.263643
1.033197 0.458713 0.059244
1.058753 0.469838 -0.225155
1.047148 0.464688 0.100229
1.045510 0.463743 -0.181151
1.039764 0.461195 0.139662
1.074242 0.476488 -0.144293
1.061844 0.470766 0.183967
1.038203 0.460285 -0.099358
1.048229 0.464511 0.222865
1.049951 0.465274 -0.060186
1.029790 0.456340 0.260043
1.060455 0.469708 -0.020245
1.040374 0.460814 0.304889
1.053064 0.465555 -0.308512
1.042493 0.460882 0.019896
1.042745 0.460775 -0.263193
1.030342 0.455295 0.059035
1.047000 0.462438 -0.222483
1.060715 0.468495 0.101449
1.048125 0.462715 -0.181464
1.044200 0.460983 0.140150
1.055096 0.465793 -0.141612
1.053627 0.464925 0.182403
1.039005 0.458472 -0.099358
1.041853 0.459513 0.221338
1.056244 0.465860 -0.060500
1.028802 0.453756 0.259594
1.044805 0.460596 -0.019931
1.055318 0.465231 0.309030
1.043265 0.459048 -0.305406
1.050617 0.462283 0.020035
1.047115 0.460524 -0.264093
1.038448 0.456713 0.059454
1.038819 0.456659 -0.220575
1.034172 0.454616 0.098835
1.050739 0.461680 -0.181777
1.048638 0.460756 0.140637
1.057724 0.464749 -0.141856
1.047202 0.459909 0.181151
1.034331 0.454256 -0.098835
1.051642 0.461639 0.223247
1.060713 0.465621 -0.060710
1.034945 0.454309 0.260943
1.038283 0.455558 -0.019791
1.034900 0.454074 0.302818
1.033447 0.452576 -0.302301
1.044096 0.457240 0.019896
1.035421 0.453225 -0.260943
1.037414 0.454098 0.059349
1.032420 0.451697 -0.219049
1.040440 0.455206 0.099358
1.053354 0.460636 -0.182090
1.045803 0.457334 0.140150
1.067628 0.466879 -0.143075
1.053434 0.460453 0.182090
1.029645 0.450055 -0.098312
1.039853 0.454301 0.220575
1.057863 0.462169 -0.060500
1.030379 0.450162 0.259594
1.042742 0.455346 -0.019861
1.032150 0.450721 0.301783
1.048403 0.456947 -0.306442
1.037560 0.452221 0.019756
1.055862 0.459979 -0.265892
1.047361 0.456275 0.059872
1.056607 0.460084 -0.224010
1.035753 0.451003 0.098835
1.037776 0.451884 -0.179274
1.039318 0.452340 0.139175
1.061160 0.461847 -0.142100
1.052424 0.457826 0.181777
1.030429 0.448258 -0.098312
1.044165 0.454233 0.221338
1.056837 0.459526 -0.060396
1.038312 0.451471 0.261393
1.041700 0.452729 -0.019826
1.041794 0.452769 0.304371
1.038565 0.450504 -0.303336
1.042016 0.452001 0.019826
1.033342 0.448239 -0.260043
1.042658 0.452063 0.059558
1.037515 0.449833 -0.219812
1.045600 0.453338 0.099706
1.053063 0.456356 -0.181777
1.034564 0.448339 0.138444
1.058322 0.458416 -0.141612
1.060393 0.459313 0.183028
1.036617 0.449014 -0.098835
1.039552 0.450070 0.220194
1.050226 0.454691 -0.059977
1.031945 0.446562 0.259594
1.057092 0.457445 -0.020105
1.038958 0.449597 0.303336
1.046365 0.451936 -0.305406
1.046397 0.451950 0.019896
1.041280 0.449524 -0.261843
1.034198 0.446467 0.059035
1.036496 0.447244 -0.219430
1.037243 0.447566 0.098835
1.046602 0.451388 -0.180525
1.038990 0.448105 0.138931
1.059041 0.456753 -0.141612
1.055751 0.455115 0.182090
1.046547 0.451148 -0.099706
1.042139 0.449032 0.220575
1.060189 0.456809 -0.060500
1.020117 0.439543 0.256444
1.035850 0.446108 -0.019686
1.048613 0.451604 0.305924
1.040053 0.447057 -0.303336
1.047184 0.450122 0.019896
1.040272 0.446936 -0.261393
1.038646 0.446238 0.059244
1.039079 0.446209 -0.219812
1.043514 0.448114 0.099358
1.049203 0.450340 -0.180838
1.039770 0.446291 0.138931
1.056188 0.453338 -0.141125
1.043836 0.447820 0.179900
1.038178 0.445393 -0.098835
1.044725 0.447986 0.220957
1.055478 0.452597 -0.060186
1.029838 0.441602 0.258694
1.032951 0.442724 -0.019617
1.036970 0.444446 0.302301
1.030175 0.440683 -0.300230
1.044291 0.446721 0.019826
1.050010 0.448950 -0.263643
1.037587 0.443639 0.059140
1.032635 0.441309 -0.218286
1.024142 0.437679 0.097440
1.042721 0.445404 -0.179587
1.047850 0.447595 0.139906
1.067931 0.456172 -0.142587
1.050066 0.448324 0.180838
1.031624 0.440450 -0.098137
1.031060 0.439997 0.217904
1.065451 0.454674 -0.060710
1.030607 0.439804 0.258694
1.042919 0.444843 -0.019791
1.023528 0.436572 0.298160
1.041608 0.443424 -0.303336
1.037709 0.441764 0.019686
1.038239 0.441777 -0.260493
1.043873 0.444174 0.059454
1.047856 0.445653 -0.221338
1.048739 0.446028 0.099706
1.039862 0.442038 -0.178961
1.041322 0.442659 0.138931
1.061418 0.451201 -0.141612
1.056301 0.448809 0.181777
1.032391 0.438650 -0.098137
1.037247 0.440499 0.219049
1.055213 0.448129 -0.060082
1.038548 0.441052 0.260493
1.036331 0.439896 -0.019651
1.029624 0.437049 0.299712
1.042380 0.441606 -0.303336
1.040320 0.440733 0.019721
1.031831 0.436924 -0.258694
1.037290 0.439236 0.059035
1.034169 0.437701 -0.218286
1.045847 0.442644 0.099358
1.035173 0.437913 -0.178022
1.027467 0.434653 0.136981
1.056719 0.447028 -0.140881
1.057083 0.446964 0.181777
1.040496 0.439951 -0.098835
1.030781 0.435631 0.217522
1.052314 0.444731 -0.059872
1.017776 0.430135 0.255094
1.053676 0.445090 -0.019966
1.037503 0.438258 0.301783
1.046709 0.441287 -0.304371
1.046616 0.441247 0.019826
1.037979 0.437393 -0.260043
1.030693 0.434322 0.058616
1.045787 0.440468 -0.220575
1.030092 0.433857 0.097789
1.048681 0.441471 -0.180213
1.031883 0.434400 0.137469
1.053838 0.443642 -0.140393
1.057861 0.445119 0.181777
1.039425 0.437361 -0.098660
1.035159 0.435354 0.218286
1.053089 0.442894 -0.059872
1.027506 0.432135 0.257344
1.036016 0.435501 -0.019617
1.047171 0.440190 0.304371
1.043915 0.437964 -0.303336
1.047384 0.439420 0.019826
1.042336 0.437088 -0.260943
1.031450 0.432523 0.058616
1.028448 0.431053 -0.216759
1.047385 0.438990 0.099358
1.049449 0.439640 -0.180213
1.039964 0.435666 0.138444
1.054611 0.441803 -0.140393
1.049526 0.439457 0.180213
1.032836 0.432469 -0.097963
1.052217 0.440368 0.221720
1.061230 0.444140 -0.060291
1.012080 0.423570 0.253295
1.029396 0.430606 -0.019477
1.030115 0.430907 0.299195
1.026851 0.428699 -0.298160
1.046304 0.436821 0.019791
1.041299 0.434517 -0.260493
1.035890 0.432260 0.058826
1.041882 0.434548 -0.219430
1.022406 0.426425 0.096917
1.037452 0.432487 -0.178022
1.044387 0.435378 0.138931
1.062710 0.443016 -0.141368
1.052115 0.438384 0.180525
1.026233 0.427600 -0.097266
1.029423 0.428719 0.216759
1.058316 0.440751 -0.060082
1.034405 0.430794 0.258694
1.033838 0.430345 -0.019547
1.027299 0.427623 0.298160
1.038301 0.431353 -0.301265
1.034138 0.429623 0.019547
1.034856 0.429710 -0.258694
1.040331 0.431984 0.059035
1.029946 0.427460 -0.216759
1.045231 0.433804 0.099009
1.030832 0.427828 -0.176771
1.034144 0.428991 0.137469
1.067148 0.442682 -0.141856
1.056528 0.438061 0.181151
1.032499 0.428098 -0.097789
1.035536 0.429357 0.217904
1.051703 0.435845 -0.059663
1.013553 0.420034 0.253295
1.038283 0.430071 -0.019617
1.024474 0.424351 0.297124
1.035482 0.428065 -0.300230
1.038582 0.429346 0.019617
1.035530 0.428084 -0.258694
1.041084 0.430167 0.059035
1.045132 0.431840 -0.219812
1.025656 0.423792 0.097091
1.042532 0.430553 -0.178648
1.031147 0.425850 0.136981
1.047735 0.432487 -0.139175
1.055389 0.435647 0.180838
1.033170 0.426475 -0.097789
1.023580 0.422307 0.215233
1.046848 0.431907 -0.059349
1.025094 0.422722 0.255994
1.035259 0.426915 -0.019547
1.035855 0.427160 0.300230
1.036153 0.426437 -0.300230
1.039256 0.427714 0.019617
1.036275 0.426276 -0.258694
1.032523 0.424732 0.058512
1.033174 0.424789 -0.217141
1.050349 0.431851 0.099358
1.041455 0.427982 -0.178335
1.031888 0.424050 0.136981
1.044741 0.429332 -0.138687
1.045184 0.429301 0.178961
1.041285 0.427699 -0.098486
1.038845 0.426485 0.218286
1.049447 0.430838 -0.059454
1.014940 0.416671 0.253295
1.028603 0.422071 -0.019407
1.049110 0.430485 0.303854
1.029745 0.421700 -0.298160
1.043702 0.427415 0.019686
1.040625 0.425943 -0.259594
1.038808 0.425199 0.058826
1.032097 0.422242 -0.216759
1.023441 0.418700 0.096743
1.051342 0.429902 -0.179900
1.036302 0.423751 0.137469
1.052838 0.430513 -0.139662
1.040446 0.425234 0.178022
1.036497 0.423620 -0.097963
1.035953 0.423186 0.217522
1.052047 0.429761 -0.059558
1.030098 0.420794 0.256894
1.029338 0.420275 -0.019407
1.031974 0.421351 0.298677
1.030479 0.419902 -0.298160
1.040742 0.424084 0.019617
1.043172 0.424861 -0.260043
1.039548 0.423385 0.058826
1.031014 0.419700 -0.216377
1.037087 0.422172 0.097963
1.033794 0.420622 -0.176771
1.038878 0.422690 0.137712
1.049911 0.427179 -0.139175
1.044847 0.424906 0.178648
1.029852 0.418808 -0.097266
1.033052 0.419899 0.216759
1.067597 0.433940 -0.060396
1.016388 0.413126 0.253295
1.033775 0.419983 -0.019477
1.016600 0.413006 0.294018
1.031211 0.418102 -0.298160
1.026656 0.416256 0.019337
1.033075 0.418648 -0.257344
1.040286 0.421570 0.058826
1.039023 0.420848 -0.217904
1.024896 0.415126 0.096743
1.040020 0.421040 -0.177710
1.037775 0.420131 0.137469
1.058015 0.428325 -0.140150
1.045587 0.423081 0.178648
1.030582 0.417010 -0.097266
1.011943 0.409263 0.212180
1.047986 0.423840 -0.059244
1.031560 0.417197 0.256894
1.036361 0.418927 -0.019512
1.024484 0.414126 0.296089
1.028356 0.414856 -0.297124
1.038507 0.418952 0.019547
1.028382 0.414659 -0.255994
1.029905 0.415273 0.058198
1.037935 0.418300 -0.217522
1.040403 0.419294 0.098137
1.044418 0.420700 -0.178335
1.031141 0.415353 0.136494
1.051396 0.423511 -0.139175
1.053653 0.424207 0.179900
1.031308 0.415211 -0.097266
1.030869 0.414825 0.215996
1.045018 0.420519 -0.059035
1.017824 0.409576 0.253295
1.040801 0.418610 -0.019582
1.026997 0.413059 0.296607
1.043421 0.418818 -0.301265
1.037381 0.416393 0.019512
1.030913 0.413589 -0.256444
1.032483 0.414218 0.058302
1.035019 0.415026 -0.216759
1.026339 0.411546 0.096743
1.041483 0.417407 -0.177710
1.028179 0.412075 0.136006
1.048448 0.420198 -0.138687
1.043389 0.417960 0.178022
1.035730 0.414892 -0.097614
1.024301 0.410106 0.214469
1.053167 0.421664 -0.059454
1.023965 0.409972 0.254645
1.034104 0.413821 -0.019442
1.038478 0.415572 0.299712
1.036974 0.414131 -0.299195
1.039963 0.415324 0.019547
1.037063 0.413956 -0.257794
1.033204 0.412416 0.058302
1.024801 0.408854 -0.214469
1.038159 0.414183 0.097789
1.049549 0.418516 -0.178961
1.030740 0.411016 0.136250
1.051024 0.419104 -0.138931
1.036777 0.413213 0.176771
1.025348 0.408658 -0.096569
1.043254 0.415583 0.218286
1.050191 0.418346 -0.059244
1.015627 0.404578 0.252395
1.025535 0.408318 -0.019267
1.030227 0.410186 0.297124
1.023332 0.406613 -0.295054
1.038828 0.412770 0.019512
1.034161 0.410707 -0.256894
1.039491 0.412823 0.058616
1.032812 0.409962 -0.215996
1.024065 0.406490 0.096394
1.028244 0.407942 -0.175207
1.038837 0.412144 0.137225
1.049908 0.416537 -0.138687
1.048515 0.415771 0.178648
1.027911 0.407602 -0.096743
1.018425 0.403634 0.212943
1.056489 0.418720 -0.059558
1.027201 0.407113 0.255094
1.029964 0.408000 -0.019337
1.025554 0.406253 0.295571
1.027634 0.406247 -0.296089
1.030249 0.407281 0.019337
1.033064 0.408185 -0.256444
1.036495 0.409541 0.058407
1.039004 0.410323 -0.217141
1.037745 0.409826 0.097614
1.028955 0.406146 -0.175207
1.030323 0.406686 0.136006
1.058020 0.417618 -0.139662
1.045564 0.412491 0.178022
1.026768 0.405076 -0.096569
1.026434 0.404738 0.214469
1.047928 0.413213 -0.059035
1.022471 0.403175 0.253745
1.034396 0.407668 -0.019407
1.031653 0.406587 0.297124
1.024746 0.403038 -0.295054
1.034680 0.406946 0.019407
1.024707 0.402817 -0.254195
1.035349 0.407001 0.058302
1.037891 0.407791 -0.216759
1.027333 0.403642 0.096569
1.040694 0.408682 -0.177084
1.023640 0.401985 0.135031
1.043965 0.409967 -0.137712
1.042604 0.409222 0.177397
1.034892 0.406195 -0.097266
1.023484 0.401511 0.213706
1.039352 0.407736 -0.058512
1.021359 0.400678 0.253295
1.029521 0.403672 -0.019302
1.025167 0.401965 0.295054
1.036242 0.405473 -0.298160
1.040975 0.407325 0.019512
1.029038 0.402447 -0.255094
1.026757 0.401555 0.057779
1.031287 0.403120 -0.215233
1.044736 0.408377 0.098137
1.041406 0.406865 -0.177084
1.028038 0.401642 0.135519
1.052075 0.411033 -0.138687
1.039637 0.405965 0.176771
1.035599 0.404388 -0.097266
1.033327 0.403293 0.215614
1.041922 0.406648 -0.058616
1.007534 0.393227 0.249696
1.028361 0.401148 -0.019267
1.029467 0.401579 0.296089
1.026146 0.399459 -0.295054
1.039821 0.404783 0.019477
1.035187 0.402771 -0.256444
1.016289 0.395418 0.057151
1.024670 0.398472 -0.213706
1.023164 0.397887 0.096046
1.047638 0.407194 -0.178022
1.025037 0.398410 0.135031
1.045390 0.406320 -0.137712
1.040344 0.404150 0.176771
1.017732 0.395366 -0.095523
1.024879 0.397936 0.213706
1.046354 0.406274 -0.058826
1.022752 0.397110 0.253295
1.021602 0.396459 -0.019128
1.022962 0.396987 0.294018
1.026842 0.397668 -0.295054
1.033067 0.400079 0.019337
1.041341 0.403073 -0.257794
1.028153 0.397969 0.057779
1.027195 0.397392 -0.214088
1.025715 0.396819 0.096220
1.031765 0.398953 -0.175207
1.046097 0.404495 0.137712
1.049800 0.405927 -0.138200
1.037363 0.400909 0.176145
1.023995 0.395743 -0.096046
1.031066 0.398269 0.214851
1.058240 0.408765 -0.059454
1.016172 0.392516 0.251495
1.031620 0.398276 -0.019302
1.014642 0.391722 0.291430
1.020324 0.393097 -0.292983
1.033764 0.398275 0.019337
1.029313 0.396353 -0.254645
1.036301 0.399045 0.058198
1.035216 0.398420 -0.215614
1.024547 0.394314 0.096046
1.032460 0.397152 -0.175207
1.030127 0.396254 0.135519
1.057918 0.406944 -0.139175
1.038061 0.399098 0.176145
1.026544 0.394670 -0.096220
1.011601 0.388723 0.210653
1.047766 0.402619 -0.058826
1.020494 0.392140 0.252395
1.034180 0.397192 -0.019337
1.024341 0.393413 0.294018
1.021008 0.391315 -0.292983
1.032590 0.395754 0.019302
1.022724 0.391768 -0.252845
1.020210 0.390805 0.057256
1.032243 0.395208 -0.214851
1.036398 0.396799 0.097091
1.038686 0.397467 -0.176145
1.023401 0.391618 0.134544
1.045649 0.400131 -0.137469
1.042446 0.398697 0.176771
1.023510 0.391454 -0.095871
1.032450 0.394668 0.214851
1.039139 0.397224 -0.058302
1.017536 0.388966 0.251495
1.033004 0.394673 -0.019302
1.025026 0.391625 0.294018
1.028910 0.392285 -0.295054
1.038885 0.396088 0.019407
1.027048 0.391370 -0.253745
1.024624 0.390447 0.057465
1.031097 0.392707 -0.214469
1.022193 0.389316 0.095697
1.030148 0.392139 -0.174581
1.031504 0.392656 0.135519
1.048201 0.399012 -0.137712
1.035755 0.394067 0.175519
1.035364 0.393919 -0.096917
1.016621 0.386585 0.211416
1.041697 0.396120 -0.058407
1.010927 0.384419 0.249696
1.028084 0.390737 -0.019198
1.027514 0.390521 0.294536
1.029593 0.390489 -0.295054
1.035835 0.392857 0.019337
1.035018 0.392340 -0.255544
1.023436 0.387950 0.057360
1.028109 0.389515 -0.213706
1.035913 0.392472 0.096917
1.041846 0.394720 -0.176458
1.032187 0.390855 0.135519
1.037757 0.392964 -0.136250
1.029051 0.389462 0.174268
1.026733 0.388585 -0.096046
1.033753 0.391242 0.214851
1.046123 0.395714 -0.058616
1.004306 0.379896 0.247896
1.021282 0.386114 -0.019058
1.011931 0.382579 0.289877
1.012198 0.381872 -0.289877
1.036519 0.391048 0.019337
1.033810 0.390026 -0.255094
1.029718 0.388277 0.057674
1.028719 0.387900 -0.213706
1.019750 0.384518 0.095348
1.031442 0.388721 -0.174581
1.032800 0.389233 0.135519
1.042157 0.392552 -0.136737
1.033359 0.389238 0.174894
1.016155 0.382758 -0.095000
1.017898 0.383211 0.211416
1.050482 0.395478 -0.058826
1.019559 0.383633 0.251495
1.025630 0.385918 -0.019128
1.012531 0.380989 0.289877
1.030882 0.387073 -0.295054
1.029644 0.386608 0.019198
1.029016 0.386167 -0.253745
1.041546 0.390869 0.058302
1.036747 0.388862 -0.215233
1.035344 0.388336 0.096743
1.032119 0.386921 -0.174581
1.029760 0.386036 0.135031
1.050276 0.393518 -0.137712
1.041436 0.390206 0.176145
1.026150 0.384479 -0.095871
1.027758 0.384877 0.213324
1.036207 0.388041 -0.057988
1.020227 0.381853 0.251495
1.031921 0.386230 -0.019233
1.015070 0.379721 0.290395
1.031623 0.385093 -0.295054
1.034131 0.386029 0.019267
1.026037 0.383007 -0.252845
1.031067 0.384680 0.057674
1.030067 0.384307 -0.213706
1.024886 0.382170 0.095697
1.034644 0.385809 -0.174894
1.023059 0.381286 0.134056
1.043520 0.388912 -0.136737
1.049519 0.391147 0.177397
1.023153 0.381117 -0.095523
1.019230 0.379655 0.211416
1.040694 0.387445 -0.058198
1.013586 0.377353 0.249696
1.028912 0.382854 -0.019163
1.028405 0.382665 0.294018
1.035916 0.384636 -0.296089
1.034803 0.384223 0.019267
1.024943 0.380359 -0.252395
1.024247 0.380101 0.057256
1.028962 0.381646 -0.213324
1.040496 0.385924 0.097091
1.037235 0.384508 -0.175207
1.025585 0.380189 0.134300
1.044198 0.387089 -0.136737
1.035450 0.383641 0.174894
1.031289 0.382100 -0.096220
1.029162 0.381107 0.213324
1.035750 0.383546 -0.057884
1.012416 0.374906 0.249246
1.027704 0.380363 -0.019128
1.018201 0.376846 0.290913
1.018463 0.376135 -0.290913
1.039224 0.383803 0.019337
1.027434 0.379244 -0.252845
1.017414 0.375546 0.056837
1.020417 0.376452 -0.211416
1.018737 0.375832 0.095000
1.039758 0.383381 -0.175519
1.031834 0.380460 0.135031
1.044871 0.385267 -0.136737
1.028704 0.379101 0.173642
1.024477 0.377543 -0.095523
1.016930 0.374560 0.210653
1.034544 0.381048 -0.057779
1.016726 0.374485 0.250146
1.017106 0.374424 -0.018918
1.011605 0.372399 0.288842
1.019119 0.374357 -0.290913
1.032384 0.379230 0.019198
1.037241 0.380808 -0.255094
1.027442 0.377211 0.057360
1.026602 0.376699 -0.212561
1.026873 0.376799 0.095697
1.027377 0.376984 -0.173329
1.026905 0.376607 0.134300
1.047406 0.384126 -0.136981
1.025654 0.375945 0.173017
1.015781 0.372326 -0.094651
1.030420 0.377692 0.213324
1.050210 0.384738 -0.058616
1.019208 0.373381 0.250595
1.021514 0.374023 -0.018988
1.015882 0.371961 0.289877
1.016141 0.371252 -0.289877
1.025531 0.374682 0.019058
1.026855 0.375166 -0.252395
1.022471 0.373362 0.057046
1.029036 0.375760 -0.212943
1.016235 0.371085 0.094651
1.035456 0.377899 -0.174581
1.025631 0.374313 0.134056
1.049940 0.382977 -0.137225
1.035522 0.377718 0.174581
1.021979 0.372779 -0.095174
1.003410 0.365807 0.207600
1.039554 0.378984 -0.057988
1.021689 0.372269 0.251045
1.027737 0.374472 -0.019093
1.011020 0.368381 0.288324
1.020354 0.370976 -0.290913
1.029877 0.374438 0.019128
1.012856 0.368049 -0.248796
1.028688 0.373802 0.057360
1.033381 0.375304 -0.213706
1.026245 0.372712 0.095523
1.032401 0.374743 -0.173955
1.022551 0.371168 0.133569
1.039344 0.377264 -0.135762
1.043608 0.378605 0.175832
1.018883 0.369635 -0.094825
1.024349 0.371416 0.211798
1.038337 0.376487 -0.057884
1.007616 0.365349 0.247446
1.020868 0.369953 -0.018953
1.015293 0.367932 0.289360
1.028267 0.371822 -0.292983
1.030529 0.372639 0.019128
1.024493 0.370255 -0.251495
1.014312 0.366575 0.056523
1.026649 0.370832 -0.212180
1.036263 0.374304 0.096394
1.031195 0.372270 -0.173642
1.021330 0.368708 0.133325
1.040001 0.375449 -0.135762
1.027544 0.370749 0.173017
1.028897 0.371237 -0.095697
1.015762 0.366298 0.209890
1.029598 0.371288 -0.057360
1.015585 0.366234 0.249246
1.023394 0.368848 -0.018988
1.021386 0.368124 0.290913
1.025279 0.368719 -0.291948
1.034941 0.372194 0.019198
1.026971 0.369126 -0.251945
1.022468 0.367507 0.056942
1.023599 0.367711 -0.211416
1.021914 0.367106 0.095000
1.022547 0.367132 -0.172078
1.025708 0.368267 0.133813
1.040655 0.373633 -0.135762
1.024471 0.367621 0.172391
1.014541 0.364058 -0.094303
1.031184 0.369826 0.212943
1.037764 0.372187 -0.057779
1.016223 0.364461 0.249246
1.022154 0.366387 -0.018953
1.016572 0.364386 0.289360
1.011369 0.361724 -0.287807
1.035589 0.370387 0.019198
1.027614 0.367332 -0.251945
1.021227 0.365049 0.056837
1.020542 0.364603 -0.210653
1.020677 0.364652 0.094825
1.028768 0.367340 -0.173017
1.028219 0.367144 0.134056
1.037566 0.370481 -0.135275
1.032553 0.368488 0.173642
1.007669 0.359608 -0.093605
1.005939 0.358793 0.207600
1.045937 0.373059 -0.058198
1.013187 0.361378 0.248346
1.024675 0.365273 -0.018988
1.015387 0.361962 0.288842
1.019279 0.362548 -0.289877
1.028698 0.365898 0.019058
1.015401 0.360969 -0.248796
1.031272 0.366611 0.057360
1.032277 0.366765 -0.212943
1.013802 0.360201 0.094128
1.020100 0.362239 -0.171452
1.023246 0.363356 0.133325
1.049435 0.372656 -0.136737
1.023886 0.363382 0.172078
1.019561 0.361847 -0.094651
1.015816 0.360318 0.209508
1.035293 0.367226 -0.057570
1.010143 0.358305 0.247446
1.021541 0.362148 -0.018918
1.019658 0.361481 0.289877
1.023553 0.362057 -0.290913
1.027450 0.363436 0.019023
1.021541 0.361145 -0.250146
1.026261 0.362813 0.057046
1.036617 0.366271 -0.213706
1.033215 0.365069 0.095871
1.028181 0.363089 -0.172704
1.014520 0.358265 0.132106
1.035110 0.365536 -0.134787
1.033833 0.364881 0.173642
1.016433 0.358740 -0.094303
1.007186 0.355279 0.207600
1.037815 0.366083 -0.057674
1.014442 0.357838 0.248346
1.029716 0.363025 -0.019058
1.013000 0.357131 0.287807
1.024183 0.360270 -0.290913
1.035628 0.364296 0.019163
1.018493 0.358069 -0.249246
1.009935 0.355060 0.056104
1.022437 0.359255 -0.210653
1.024452 0.359963 0.095000
1.025086 0.359984 -0.172078
1.020763 0.358466 0.132838
1.039492 0.365044 -0.135275
1.027012 0.360460 0.172391
1.026458 0.360265 -0.095174
1.015214 0.356120 0.209127
1.027145 0.360305 -0.057046
1.013226 0.355423 0.247896
1.024687 0.359242 -0.018953
1.013622 0.355363 0.287807
1.013870 0.354655 -0.287807
1.036262 0.362488 0.019163
1.028314 0.359507 -0.251495
1.012438 0.353956 0.056209
1.021209 0.356822 -0.210272
1.028840 0.359489 0.095348
1.025712 0.358195 -0.172078
1.019513 0.356030 0.132594
1.040128 0.363229 -0.135275
1.016449 0.354762 0.170514
1.017679 0.355191 -0.094303
1.015835 0.354348 0.209127
1.040973 0.363116 -0.057779
1.012005 0.353012 0.247446
1.017759 0.354820 -0.018814
1.008768 0.351685 0.286254
1.003539 0.349076 -0.284701
1.029339 0.358050 0.019023
1.028940 0.357711 -0.251495
1.020601 0.354812 0.056628
1.019976 0.354395 -0.209890
1.018174 0.353769 0.094303
1.030068 0.357700 -0.172704
1.025758 0.356203 0.133325
1.046386 0.363366 -0.136006
1.020800 0.354282 0.171139
1.007004 0.349494 -0.093257
1.023871 0.355148 0.210653
1.043492 0.361954 -0.057884
1.016301 0.352522 0.248346
1.018377 0.353042 -0.018814
1.014856 0.351822 0.287807
1.007798 0.348588 -0.285736
1.026182 0.354947 0.018953
1.020354 0.352731 -0.249246
1.021218 0.353030 0.056628
1.024304 0.353896 -0.210653
1.030089 0.355895 0.095348
1.028823 0.355257 -0.172391
1.016996 0.351173 0.132106
1.045142 0.360892 -0.135762
1.032620 0.356367 0.173017
1.005729 0.347086 -0.093082
0.994794 0.343118 0.204547
1.038458 0.358178 -0.057570
1.015073 0.350112 0.247896
1.024663 0.353220 -0.018918
1.017295 0.350680 0.288324
1.008405 0.346828 -0.285736
1.030582 0.354456 0.019023
1.022811 0.351583 -0.249696
1.019944 0.350598 0.056523
1.028633 0.353384 -0.211416
1.019403 0.350213 0.094303
1.018232 0.349612 -0.170514
1.017608 0.349398 0.132106
1.032628 0.354555 -0.134056
1.027635 0.352640 0.172078
1.019525 0.349857 -0.094303
1.025104 0.351571 0.210653
1.025857 0.351829 -0.056837
1.006466 0.345179 0.245647
1.030953 0.353377 -0.019023
1.006940 0.345146 0.285219
1.016321 0.347568 -0.287807
1.034984 0.353950 0.019093
1.023423 0.349797 -0.249696
1.012995 0.346233 0.056104
1.018102 0.347781 -0.209127
1.031325 0.352298 0.095348
1.033796 0.352940 -0.173017
1.021973 0.348904 0.132594
1.033245 0.352752 -0.134056
1.024510 0.349570 0.171452
1.020134 0.348077 -0.094303
1.003418 0.342178 0.206074
1.028359 0.350684 -0.056942
1.007066 0.343422 0.245647
1.022104 0.348351 -0.018849
1.020341 0.347750 0.288842
1.005952 0.342062 -0.284701
1.031813 0.350856 0.019023
1.025877 0.348638 -0.250146
1.011707 0.343823 0.055999
1.016848 0.345371 -0.208745
1.014960 0.344730 0.093780
1.032540 0.350500 -0.172704
1.018821 0.345843 0.132106
1.031979 0.350310 -0.133813
1.015766 0.344608 0.169888
1.016967 0.345016 -0.093954
1.022607 0.346730 0.209890
1.025187 0.347605 -0.056732
1.015047 0.344167 0.247446
1.013241 0.343358 -0.018674
1.009969 0.342249 0.285736
1.002887 0.339068 -0.283666
1.028635 0.347773 0.018953
1.024637 0.346223 -0.249696
1.019874 0.344613 0.056418
1.021169 0.344853 -0.209508
1.026886 0.346783 0.094825
1.018177 0.343644 -0.170201
1.026947 0.346603 0.133081
1.030708 0.347873 -0.133569
1.016365 0.342835 0.169888
1.010016 0.340693 -0.093257
1.000886 0.337419 0.205310
1.037148 0.349644 -0.057360
1.011953 0.341150 0.246546
1.019524 0.343504 -0.018779
1.023380 0.344803 0.289360
1.010802 0.339780 -0.285736
1.029241 0.345978 0.018953
1.019698 0.342572 -0.248346
1.014794 0.340925 0.056104
1.019909 0.342445 -0.209127
1.014268 0.340551 0.093605
1.015030 0.340610 -0.169575
1.020022 0.342285 0.132106
1.050133 0.352389 -0.136006
1.026326 0.344201 0.171452
1.010609 0.338930 -0.093257
1.018227 0.341287 0.208745
1.022607 0.342755 -0.056523
1.008851 0.338144 0.245647
1.025810 0.343630 -0.018884
1.007493 0.337494 0.284701
1.015058 0.339240 -0.286772
1.026050 0.342914 0.018884
1.011053 0.337705 -0.246096
1.013493 0.338520 0.055999
1.024229 0.341908 -0.209890
1.028090 0.343197 0.094825
1.019370 0.340088 -0.170201
1.013086 0.337991 0.131131
1.026267 0.342389 -0.132838
1.026926 0.342409 0.171452
1.018759 0.339686 -0.093954
0.998332 0.332682 0.204547
1.019414 0.339707 -0.056313
1.007591 0.335767 0.245197
1.024511 0.341207 -0.018849
1.020911 0.340008 0.288324
1.015648 0.337468 -0.286772
1.026647 0.341122 0.018884
1.009791 0.335326 -0.245647
1.006500 0.334233 0.055581
1.024824 0.340119 -0.209890
1.024905 0.340146 0.094477
1.025528 0.340353 -0.171139
1.017442 0.337472 0.131619
1.019326 0.338097 -0.131863
1.016271 0.336887 0.169575
1.013677 0.336027 -0.093431
1.017489 0.337291 0.208363
1.023797 0.339183 -0.056523
1.006325 0.333395 0.244747
1.017512 0.336904 -0.018709
1.008665 0.333975 0.284701
1.008898 0.333271 -0.284701
1.023443 0.338075 0.018814
1.021419 0.337407 -0.248346
0.997599 0.329345 0.055057
1.014172 0.334816 -0.207600
1.021654 0.337287 0.094128
1.029872 0.339800 -0.171765
1.021742 0.337118 0.132106
1.031227 0.340048 -0.133325
1.009295 0.332816 0.168324
1.010419 0.333186 -0.093082
1.010618 0.333056 0.206837
1.030019 0.339450 -0.056837
1.019862 0.335906 0.247896
1.016140 0.334680 -0.018674
1.009189 0.332390 0.284701
0.998409 0.328067 -0.281595
1.027772 0.337716 0.018884
1.025710 0.336839 -0.249246
1.015194 0.333386 0.055999
1.018485 0.334270 -0.208363
1.005204 0.329911 0.092559
1.022956 0.335540 -0.170514
1.022328 0.335334 0.132106
1.031759 0.338428 -0.133325
1.013629 0.332284 0.168949
1.003426 0.328939 -0.092385
1.018660 0.333737 0.208363
1.036304 0.339518 -0.057151
1.014833 0.332483 0.246546
1.014822 0.332284 -0.018639
1.026291 0.336039 0.289360
1.002653 0.327524 -0.282630
1.024558 0.334679 0.018814
1.017033 0.332025 -0.246996
1.023368 0.334093 0.056418
1.019067 0.332492 -0.208363
1.022825 0.333719 0.094128
1.016028 0.331304 -0.169262
1.019138 0.332318 0.131619
1.039898 0.339087 -0.134300
1.014207 0.330515 0.168949
1.005893 0.327806 -0.092559
0.996840 0.324662 0.203784
1.033097 0.336471 -0.056942
1.013559 0.330108 0.246096
1.023007 0.332987 -0.018779
1.006669 0.327669 0.283666
1.006897 0.326967 -0.283666
1.025141 0.332891 0.018814
1.021318 0.331452 -0.247896
1.014451 0.329224 0.055895
1.025248 0.332530 -0.209508
1.025302 0.332547 0.094303
1.024121 0.331967 -0.170514
1.012162 0.328091 0.130644
1.025381 0.332376 -0.132350
1.022300 0.331179 0.170201
1.017836 0.329733 -0.093605
1.016083 0.328970 0.207600
1.022282 0.330976 -0.056313
1.008572 0.326537 0.244747
1.023586 0.331201 -0.018779
1.032972 0.334238 0.290913
1.011143 0.326396 -0.284701
1.025720 0.331101 0.018814
1.014477 0.327276 -0.246096
0.997917 0.321934 0.054953
1.020221 0.328933 -0.208363
1.022088 0.329535 0.093954
1.019058 0.328361 -0.169575
1.016512 0.327541 0.131131
1.016512 0.327541 -0.131131
1.017235 0.327578 0.169262
1.016513 0.327346 -0.093431
1.001705 0.322384 0.204547
1.026660 0.330415 -0.056523
1.007285 0.324180 0.244297
1.018452 0.327578 -0.018674
1.002289 0.322379 0.282113
1.008033 0.323450 -0.283666
1.033913 0.331754 0.018953
1.018758 0.326695 -0.246996
1.007987 0.323241 0.055476
1.009577 0.323557 -0.206074
1.016970 0.325926 0.093431
1.029036 0.329595 -0.171139
1.020863 0.326978 0.131619
1.020863 0.326978 -0.131619
1.012161 0.323996 0.168324
1.007596 0.322534 -0.092559
1.020965 0.326617 0.208363
1.023431 0.327406 -0.056313
1.005993 0.321828 0.243847
1.017117 0.325191 -0.018639
1.006531 0.321806 0.283148
1.001234 0.319342 -0.281595
1.026870 0.327519 0.018814
1.013756 0.323141 -0.245647
1.010453 0.322088 0.055581
1.023234 0.325966 -0.208745
1.015638 0.323546 0.093257
1.025845 0.326600 -0.170514
1.025216 0.326399 0.132106
1.030890 0.328206 -0.132838
1.010843 0.321629 0.168011
0.996765 0.317150 -0.091514
0.995340 0.316506 0.203021
1.035421 0.329251 -0.056942
1.008410 0.320662 0.244297
1.013872 0.322203 -0.018569
1.007091 0.320048 0.283148
1.005473 0.318761 -0.282630
1.019815 0.323308 0.018674
1.010603 0.320194 -0.244747
1.012917 0.320928 0.055685
1.018187 0.322401 -0.207600
1.016202 0.321773 0.093257
1.022647 0.323617 -0.169888
1.018214 0.322214 0.131131
1.039032 0.328802 -0.133813
1.018936 0.322248 0.169262
0.995418 0.314810 -0.091339
1.005251 0.317726 0.204929
1.003619 0.317210 -0.055162
1.016401 0.321250 0.246096
1.018246 0.321638 -0.018639
1.009490 0.318872 0.283666
1.009712 0.318168 -0.283666
1.028007 0.323933 0.018814
1.003726 0.316088 -0.242947
1.015381 0.319759 0.055790
1.028111 0.323570 -0.209508
1.018662 0.320597 0.093431
1.023210 0.321832 -0.169888
1.011200 0.318055 0.130156
1.024455 0.322224 -0.131863
1.015728 0.319284 0.168636
1.005469 0.316059 -0.092211
0.992693 0.311853 0.202258
1.000360 0.314261 -0.054953
1.002087 0.314804 0.242497
1.022622 0.321059 -0.018709
1.002673 0.314795 0.281595
1.010266 0.316405 -0.283666
1.024754 0.320942 0.018744
1.013575 0.317247 -0.245197
0.994970 0.311424 0.054639
1.015558 0.317673 -0.206837
1.024925 0.320603 0.093954
1.019999 0.318867 -0.169262
1.011753 0.316289 0.130156
1.009859 0.315697 -0.129913
1.012513 0.316332 0.168011
1.013626 0.316680 -0.092908
1.019472 0.318311 0.207600
1.018065 0.317872 -0.055895
0.998914 0.311893 0.241597
1.015545 0.316891 -0.018569
1.032727 0.322252 0.289877
1.003439 0.312345 -0.281595
1.040587 0.323908 0.019023
1.014127 0.315477 -0.245197
1.005048 0.312653 0.055162
1.008612 0.313569 -0.205310
1.010262 0.314082 0.092559
1.031873 0.320603 -0.171139
1.023678 0.318057 0.131619
1.021782 0.317468 -0.131375
1.009291 0.313393 0.167385
1.002761 0.311365 -0.091862
1.001276 0.310713 0.203784
1.030064 0.319647 -0.056523
1.005041 0.311881 0.242947
1.012277 0.313933 -0.018500
1.003765 0.311294 0.281595
1.000291 0.309450 -0.280560
1.022048 0.316181 0.018674
1.018399 0.314858 -0.246096
1.015133 0.313848 0.055685
1.012909 0.312967 -0.206074
1.007002 0.311142 0.092211
1.017276 0.314316 -0.168636
1.022335 0.315683 0.131375
1.018541 0.314512 -0.130888
1.017386 0.313961 0.168636
0.999495 0.308440 -0.091514
1.020522 0.314929 0.207600
1.026803 0.316671 -0.056313
1.007446 0.310701 0.243397
1.012823 0.312166 -0.018500
1.002461 0.308972 0.281078
0.997137 0.306569 -0.279525
1.014952 0.312046 0.018534
1.022618 0.314403 -0.246996
1.011861 0.310903 0.055476
1.024660 0.314835 -0.208363
1.013203 0.311315 0.092734
1.000828 0.307321 -0.165821
1.015239 0.311746 0.130400
1.026680 0.315063 -0.131863
1.015990 0.311783 0.168324
0.998074 0.306285 -0.091339
0.991039 0.303937 0.201494
1.027299 0.315058 -0.056313
1.017303 0.311797 0.245647
1.020960 0.312918 -0.018639
1.002945 0.307397 0.281078
1.001312 0.306132 -0.280560
1.023090 0.312790 0.018674
1.004528 0.306924 -0.242497
1.012348 0.309313 0.055476
1.019575 0.311326 -0.207219
1.015650 0.310128 0.092908
1.008867 0.308057 -0.167072
1.013883 0.309395 0.130156
1.017680 0.310554 -0.130644
1.014642 0.309434 0.168011
1.010041 0.308030 -0.092385
1.014050 0.309253 0.206074
1.001101 0.305112 -0.054848
0.999150 0.304518 0.241148
1.017678 0.309971 -0.018569
1.003480 0.305646 0.281078
1.012935 0.307753 -0.283666
1.023635 0.311004 0.018674
1.005009 0.305345 -0.242497
0.997597 0.302903 0.054639
1.021941 0.310295 -0.207600
1.016136 0.308532 0.092908
1.022635 0.310311 -0.169262
1.012468 0.307225 0.129913
1.018221 0.308777 -0.130644
1.015128 0.307839 0.168011
1.008617 0.305864 -0.092211
0.995799 0.301788 0.202258
1.020693 0.309332 -0.055895
0.997815 0.302209 0.240698
1.010509 0.306053 -0.018430
1.007657 0.305189 0.282113
1.002374 0.302635 -0.280560
1.031833 0.311529 0.018814
1.016788 0.306793 -0.245197
0.998124 0.301162 0.054639
1.011257 0.304931 -0.205310
1.012911 0.305430 0.092559
1.028903 0.310057 -0.170201
1.024460 0.308718 0.131375
1.020658 0.307572 -0.130888
1.008151 0.303611 0.166759
0.999664 0.301055 -0.091339
1.020816 0.307231 0.207219
1.021285 0.307372 -0.055895
1.007671 0.303274 0.242947
1.011094 0.304113 -0.018430
1.006391 0.302698 0.281595
0.995500 0.298665 -0.278489
1.020883 0.306280 0.018604
1.017322 0.305017 -0.245197
1.002475 0.300566 0.054848
1.015549 0.304293 -0.206074
1.009626 0.302518 0.092211
1.012411 0.303161 -0.167385
1.021194 0.305790 0.130888
1.021194 0.305790 -0.130888
1.012464 0.302983 0.167385
0.986826 0.295311 -0.090119
0.985613 0.294761 0.199968
1.014166 0.303300 -0.055476
1.008199 0.301515 0.242947
1.021203 0.305211 -0.018604
1.006917 0.300941 0.281595
0.992317 0.295822 -0.277454
1.013751 0.302212 0.018465
1.008514 0.300460 -0.242947
1.016397 0.302808 0.055581
1.010433 0.300840 -0.204929
1.006333 0.299619 0.091862
1.011045 0.300829 -0.167072
1.019823 0.303441 0.130644
1.025531 0.305140 -0.131375
1.009205 0.300090 0.166759
0.996889 0.296428 -0.090991
1.012473 0.300870 0.205310
1.022351 0.303806 -0.055895
1.018064 0.302531 0.245197
1.015984 0.301720 -0.018500
0.996330 0.295883 0.278489
1.003945 0.297382 -0.280560
1.018111 0.301578 0.018534
0.994088 0.294274 -0.239348
0.993942 0.294231 0.054325
1.009074 0.298519 -0.204547
1.022139 0.302383 0.093257
1.017252 0.300745 -0.168011
1.010833 0.298847 0.129425
1.012737 0.299410 -0.129669
