# This PCD file was generated using the MATLAB® pcwrite function
# from Computer Vision System Toolbox®.
# .PCD v.7 - Point Cloud Data file format
VERSION .7
FIELDS x y z
SIZE 4 4 4
TYPE F F F
COUNT 1 1 1
WIDTH 1697
HEIGHT 1
VIEWPOINT 0 0 0 1 0 0 0
POINTS 1697
DATA ascii
1.658099 0.228016 0.087715
1.396508 0.191795 -0.274002
1.723181 0.236660 0.152174
1.424701 0.195667 -0.227769
1.777878 0.243855 0.220340
1.473042 0.202044 -0.182560
1.508102 0.206585 -0.133174
1.539528 0.210616 -0.081435
1.590975 0.217370 -0.028029
1.338062 0.181865 -0.361829
1.636700 0.222455 0.028831
1.343966 0.182667 -0.313132
1.654536 0.224585 0.087506
1.365681 0.185376 -0.267896
1.715653 0.232881 0.151477
1.428955 0.193710 -0.228394
1.776292 0.240795 0.220096
1.473393 0.199473 -0.182560
1.504476 0.203681 -0.132825
1.543815 0.208732 -0.081644
1.577442 0.212998 -0.027784
1.330687 0.178733 -0.359758
1.627138 0.218552 0.028657
1.348146 0.180840 -0.314032
1.650927 0.221455 0.087296
1.389353 0.186120 -0.272475
1.704208 0.228298 0.150431
1.429291 0.191216 -0.228394
1.782612 0.238484 0.220827
1.479607 0.197947 -0.183292
1.487056 0.198680 -0.131257
1.552096 0.207094 -0.082063
1.583758 0.211037 -0.027889
1.330997 0.176411 -0.359758
1.623552 0.215187 0.028587
1.340732 0.177463 -0.312232
1.663191 0.220145 0.087924
1.381890 0.182665 -0.270949
1.712505 0.226368 0.151128
1.417872 0.187171 -0.226517
1.769249 0.233555 0.219121
1.489790 0.196664 -0.184510
1.497277 0.197386 -0.132128
1.556415 0.204906 -0.082272
1.592054 0.209316 -0.028029
1.335134 0.174589 -0.360794
1.623925 0.212352 0.028587
1.337175 0.174618 -0.311332
1.655651 0.216207 0.087506
1.407515 0.183553 -0.275910
1.718825 0.224151 0.151651
1.426032 0.185716 -0.227769
1.773591 0.230979 0.219609
1.478321 0.192525 -0.183048
1.497619 0.194773 -0.132128
1.544887 0.200645 -0.081644
1.598367 0.207308 -0.028133
1.339269 0.172753 -0.361829
1.632226 0.210541 0.028727
1.337478 0.172284 -0.311332
1.648103 0.212296 0.087087
1.374730 0.176839 -0.269422
1.721189 0.221406 0.151825
1.426354 0.183227 -0.227769
1.777929 0.228389 0.220096
1.470779 0.188933 -0.182073
1.513766 0.194186 -0.133523
1.549197 0.198457 -0.081853
1.592775 0.203757 -0.028029
1.339568 0.170414 -0.361829
1.638543 0.208449 0.028831
1.345509 0.170932 -0.313132
1.652433 0.209924 0.087296
1.386723 0.175922 -0.271712
1.713667 0.217399 0.151128
1.426672 0.180736 -0.227769
1.778325 0.225285 0.220096
1.475045 0.186864 -0.182560
1.498290 0.189544 -0.132128
1.547559 0.195503 -0.081749
1.585193 0.199975 -0.027889
1.336030 0.167595 -0.360794
1.628983 0.204344 0.028657
1.353540 0.169553 -0.314931
1.652797 0.207039 0.087296
1.392872 0.174232 -0.272857
1.706136 0.213418 0.150431
1.423065 0.177756 -0.227143
1.794474 0.224150 0.222046
1.477339 0.184536 -0.182804
1.502572 0.187422 -0.132477
1.555826 0.193788 -0.082167
1.593477 0.198196 -0.028029
1.332486 0.164790 -0.359758
1.621399 0.200520 0.028517
1.342230 0.165756 -0.312232
1.657120 0.204643 0.087506
1.395123 0.172041 -0.273238
1.708483 0.210684 0.150605
1.423373 0.175273 -0.227143
1.779101 0.219077 0.220096
1.487509 0.183171 -0.184023
1.502897 0.184799 -0.132477
1.550215 0.190343 -0.081853
1.599775 0.196145 -0.028133
1.340442 0.163399 -0.361829
1.625717 0.198173 0.028587
1.342517 0.163414 -0.312232
1.657475 0.201751 0.087506
1.389574 0.168895 -0.272094
1.710826 0.207941 0.150779
1.423676 0.172788 -0.227143
1.763715 0.214058 0.218146
1.481915 0.179857 -0.183292
1.507173 0.182655 -0.132825
1.546579 0.187156 -0.081644
1.594159 0.192632 -0.028029
1.340725 0.161059 -0.361829
1.626060 0.195336 0.028587
1.342800 0.161070 -0.312232
1.657825 0.198857 0.087506
1.397664 0.167404 -0.273620
1.719099 0.205904 0.151477
1.431821 0.171242 -0.228394
1.771971 0.211923 0.219121
1.476313 0.176563 -0.182560
1.511446 0.180496 -0.133174
1.542937 0.183985 -0.081435
1.594493 0.189850 -0.028029
1.337167 0.158264 -0.360794
1.638314 0.193907 0.028796
1.350820 0.159642 -0.314032
1.652219 0.195261 0.087192
1.394054 0.164504 -0.272857
1.719456 0.202903 0.151477
1.436042 0.169204 -0.229020
1.780223 0.209758 0.220096
1.476619 0.173985 -0.182560
1.489993 0.175298 -0.131257
1.543256 0.181291 -0.081435
1.582906 0.185668 -0.027819
1.333604 0.155483 -0.359758
1.634677 0.190584 0.028727
1.358839 0.158185 -0.315831
1.656525 0.192839 0.087401
1.372888 0.159577 -0.268659
1.715850 0.199441 0.151128
1.424562 0.165331 -0.227143
1.786502 0.207337 0.220827
1.476921 0.171408 -0.182560
1.492276 0.172927 -0.131431
1.553490 0.179745 -0.081958
1.585214 0.183135 -0.027854
1.337712 0.153596 -0.360794
1.623087 0.186363 0.028517
1.343625 0.154037 -0.312232
1.666780 0.191085 0.087924
1.394620 0.159637 -0.272857
1.714216 0.196220 0.150954
1.420923 0.162396 -0.226517
1.777000 0.203092 0.219609
1.477218 0.168830 -0.182560
1.504453 0.171677 -0.132477
1.555786 0.177260 -0.082063
1.583544 0.180142 -0.027819
1.345656 0.152129 -0.362864
1.635332 0.184877 0.028727
1.340019 0.151255 -0.311332
1.659172 0.187279 0.087506
1.396848 0.157422 -0.273238
1.728415 0.194789 0.152174
1.425130 0.160358 -0.227143
1.771434 0.199325 0.218877
1.477510 0.166252 -0.182560
1.490890 0.167494 -0.131257
1.548153 0.173653 -0.081644
1.603729 0.179604 -0.028168
1.342080 0.149353 -0.361829
1.635652 0.182023 0.028727
1.348028 0.149776 -0.313132
1.655527 0.183942 0.087296
1.387364 0.153902 -0.271330
1.724791 0.191333 0.151825
1.433261 0.158740 -0.228394
1.777698 0.196888 0.219609
1.469906 0.162799 -0.181585
1.512964 0.167300 -0.133174
1.552424 0.171390 -0.081853
1.588138 0.175052 -0.027889
1.338498 0.146589 -0.360794
1.647895 0.180474 0.028936
1.352162 0.147848 -0.314032
1.649889 0.180402 0.086982
1.370065 0.149563 -0.267896
1.709278 0.186593 0.150431
1.441391 0.157094 -0.229646
1.780013 0.194000 0.219852
1.478081 0.161093 -0.182560
1.497408 0.162936 -0.131779
1.552721 0.168679 -0.081853
1.584465 0.171848 -0.027819
1.331068 0.143425 -0.358723
1.632301 0.175884 0.028657
1.356293 0.145904 -0.314931
1.652187 0.177735 0.087087
1.399605 0.150316 -0.273620
1.709601 0.183609 0.150431
1.425950 0.152894 -0.227143
1.784296 0.191316 0.220340
1.484282 0.159148 -0.183292
1.497690 0.160321 -0.131779
1.553013 0.165969 -0.081853
1.594705 0.170143 -0.027994
1.339001 0.141916 -0.360794
1.620675 0.171770 0.028447
1.348794 0.142716 -0.313132
1.662426 0.175902 0.087610
1.386198 0.146429 -0.270949
1.717844 0.181462 0.151128
1.426215 0.150405 -0.227143
1.770808 0.186745 0.218634
1.482583 0.156349 -0.183048
1.497967 0.157707 -0.131779
1.557273 0.163676 -0.082063
1.589033 0.166734 -0.027889
1.346932 0.140380 -0.362864
1.636883 0.170600 0.028727
1.345164 0.139959 -0.312232
1.648824 0.171553 0.086878
1.400121 0.145429 -0.273620
1.722122 0.178875 0.151477
1.426475 0.147916 -0.227143
1.759284 0.182426 0.217171
1.474956 0.152943 -0.182073
1.496259 0.154888 -0.131605
1.545636 0.159726 -0.081435
1.597278 0.164781 -0.028029
1.343308 0.137870 -0.361829
1.637149 0.168028 0.028727
1.341505 0.137448 -0.311332
1.655052 0.169574 0.087192
1.402301 0.143430 -0.274002
1.728347 0.176778 0.152000
1.430636 0.146076 -0.227769
1.771418 0.180872 0.218634
1.473219 0.150424 -0.181829
1.506411 0.153547 -0.132477
1.545886 0.157298 -0.081435
1.595546 0.162070 -0.027994
1.339702 0.135137 -0.360794
1.641419 0.165572 0.028796
1.353377 0.136278 -0.314032
1.653359 0.166484 0.087087
1.367387 0.137448 -0.267133
1.718740 0.172766 0.151128
1.430889 0.143578 -0.227769
1.775681 0.178176 0.219121
1.477430 0.148248 -0.182317
1.498747 0.150123 -0.131779
1.554107 0.155395 -0.081853
1.581897 0.157894 -0.027749
1.336091 0.132418 -0.359758
1.633746 0.161918 0.028657
1.351673 0.133724 -0.313582
1.651659 0.163402 0.086982
1.394978 0.137762 -0.272475
1.707143 0.168590 0.150082
1.431137 0.141081 -0.227769
1.787842 0.176245 0.220584
1.481663 0.145801 -0.182804
1.499006 0.147507 -0.131779
1.560339 0.153268 -0.082167
1.590131 0.155914 -0.027889
1.340189 0.130226 -0.360794
1.638034 0.159168 0.028727
1.351905 0.131365 -0.313582
1.663897 0.161388 0.087610
1.395216 0.135327 -0.272475
1.721345 0.166657 0.151302
1.423517 0.137822 -0.226517
1.774346 0.171476 0.218877
1.493770 0.144360 -0.184266
1.491354 0.143864 -0.131082
1.558642 0.150081 -0.082063
1.594409 0.153244 -0.027959
1.344260 0.128254 -0.361829
1.638310 0.156309 0.028727
1.346334 0.128214 -0.312232
1.658212 0.157915 0.087296
1.383747 0.131533 -0.270186
1.727584 0.164217 0.151825
1.427688 0.135710 -0.227143
1.766738 0.167629 0.217902
1.486115 0.141003 -0.183292
1.507471 0.142763 -0.132477
1.548960 0.146420 -0.081539
1.602637 0.151212 -0.028098
1.344482 0.125907 -0.361829
1.638580 0.153449 0.028727
1.346534 0.126099 -0.312232
1.646553 0.153905 0.086668
1.391770 0.130091 -0.271712
1.727840 0.161503 0.151825
1.431856 0.133586 -0.227769
1.774905 0.165591 0.218877
1.468570 0.136752 -0.181098
1.507693 0.140395 -0.132477
1.553165 0.144356 -0.081749
1.598890 0.148325 -0.028029
1.340830 0.123441 -0.360794
1.638819 0.150875 0.028727
1.358396 0.124819 -0.314931
1.652760 0.151867 0.086982
1.393950 0.127841 -0.272094
1.718199 0.157579 0.150954
1.432087 0.131086 -0.227769
1.789029 0.163759 0.220584
1.480644 0.135531 -0.182560
1.496031 0.136676 -0.131431
1.559382 0.142190 -0.082063
1.587198 0.144446 -0.027819
1.337196 0.120753 -0.359758
1.643063 0.148374 0.028796
1.360552 0.122623 -0.315381
1.662968 0.149879 0.087506
1.392216 0.125232 -0.271712
1.720455 0.154758 0.151128
1.432314 0.128587 -0.227769
1.789312 0.160637 0.220584
1.474947 0.132414 -0.181829
1.488330 0.133353 -0.130734
1.559628 0.139468 -0.082063
1.587448 0.141676 -0.027819
1.337405 0.118419 -0.359758
1.631368 0.144447 0.028587
1.347176 0.119048 -0.312232
1.665217 0.147152 0.087610
1.394388 0.122974 -0.272094
1.716754 0.151405 0.150779
1.424665 0.125393 -0.226517
1.783658 0.156991 0.219852
1.489018 0.131058 -0.183535
1.504438 0.132151 -0.132128
1.551910 0.136048 -0.081644
1.597653 0.139776 -0.027994
1.341458 0.116419 -0.360794
1.635602 0.141947 0.028657
1.339616 0.116024 -0.310432
1.653532 0.143212 0.086982
1.400469 0.121047 -0.273238
1.719000 0.148579 0.150954
1.428818 0.123247 -0.227143
1.777996 0.153366 0.219121
1.479356 0.127606 -0.182317
1.500696 0.129183 -0.131779
1.548165 0.132997 -0.081435
1.603872 0.137500 -0.028098
1.349359 0.114733 -0.362864
1.635847 0.139092 0.028657
1.343700 0.114015 -0.311332
1.653780 0.140325 0.086982
1.392853 0.117940 -0.271712
1.725213 0.146083 0.151477
1.429031 0.120753 -0.227143
1.780239 0.150430 0.219365
1.481554 0.125192 -0.182560
1.508861 0.127233 -0.132477
1.548395 0.130295 -0.081435
1.592153 0.133698 -0.027889
1.341857 0.111736 -0.360794
1.648044 0.137232 0.028866
1.353607 0.112476 -0.313582
1.658003 0.137770 0.087192
1.387187 0.115023 -0.270567
1.719508 0.142579 0.150954
1.429239 0.118258 -0.227143
1.778520 0.147159 0.219121
1.477814 0.122278 -0.182073
1.501138 0.123944 -0.131779
1.552601 0.127921 -0.081644
1.588398 0.130590 -0.027819
1.334348 0.108766 -0.358723
1.630344 0.132893 0.028552
1.361571 0.110745 -0.315381
1.652269 0.134389 0.086878
1.395213 0.113237 -0.272094
1.721740 0.139738 0.151128
1.429444 0.115764 -0.227143
1.776796 0.143894 0.218877
1.481982 0.120019 -0.182560
1.489437 0.120360 -0.130734
1.564767 0.126173 -0.082272
1.596597 0.128459 -0.027959
1.342238 0.107051 -0.360794
1.624593 0.129570 0.028447
1.353991 0.107751 -0.313582
1.664446 0.132457 0.087506
1.377795 0.109403 -0.268659
1.714037 0.136102 0.150431
1.425705 0.112956 -0.226517
1.773087 0.140479 0.218390
1.486147 0.117745 -0.183048
1.501562 0.118703 -0.131779
1.555029 0.122657 -0.081749
1.600806 0.125986 -0.028029
1.350127 0.105309 -0.362864
1.634785 0.127513 0.028622
1.340577 0.104329 -0.310432
1.656710 0.128932 0.087087
1.401472 0.108822 -0.273238
1.724204 0.133881 0.151302
1.425900 0.110469 -0.226517
1.769371 0.137078 0.217902
1.474476 0.114232 -0.181585
1.505740 0.116390 -0.132128
1.541302 0.118867 -0.081016
1.597035 0.122885 -0.027959
1.342604 0.102366 -0.360794
1.640987 0.125115 0.028727
1.348530 0.102580 -0.312232
1.650958 0.125585 0.086773
1.401659 0.106375 -0.273238
1.726422 0.131022 0.151477
1.432000 0.108427 -0.227456
1.777525 0.134590 0.218877
1.472693 0.111509 -0.181342
1.517861 0.114661 -0.133174
1.553456 0.117078 -0.081644
1.593259 0.119799 -0.027889
1.338928 0.099735 -0.359758
1.645191 0.122548 0.028796
1.348707 0.100226 -0.312232
1.661134 0.123444 0.087296
1.390096 0.103058 -0.270949
1.718700 0.127420 0.150779
1.444007 0.106802 -0.229333
1.781716 0.131779 0.219365
1.480804 0.109523 -0.182317
1.506137 0.111133 -0.132128
1.561626 0.114953 -0.082063
1.589477 0.116724 -0.027819
1.335246 0.097117 -0.358723
1.641413 0.119386 0.028727
1.356654 0.098436 -0.314032
1.653379 0.119966 0.086878
1.398106 0.101199 -0.272475
1.714945 0.124133 0.150431
1.434340 0.103570 -0.227769
1.785904 0.128956 0.219852
1.480993 0.106939 -0.182317
1.498379 0.107931 -0.131431
1.565809 0.112514 -0.082272
1.585689 0.113664 -0.027749
1.346976 0.095607 -0.361829
1.629651 0.115671 0.028517
1.356824 0.096069 -0.314032
1.661554 0.117645 0.087296
1.378697 0.097376 -0.268659
1.725097 0.121841 0.151302
1.430578 0.100788 -0.227143
1.772265 0.124861 0.218146
1.489098 0.104911 -0.183292
1.500553 0.105456 -0.131605
1.554048 0.108943 -0.081644
1.597854 0.111733 -0.027959
1.339431 0.092723 -0.359758
1.633840 0.113104 0.028587
1.347269 0.093029 -0.311782
1.661757 0.114745 0.087296
1.398451 0.096318 -0.272475
1.705430 0.117461 0.149559
1.430751 0.098292 -0.227143
1.766539 0.121361 0.217415
1.485318 0.102041 -0.182804
1.500735 0.102837 -0.131605
1.550251 0.105957 -0.081435
1.602037 0.109216 -0.028029
1.343446 0.090645 -0.360794
1.634035 0.110251 0.028587
1.349374 0.090808 -0.312232
1.646013 0.110771 0.086459
1.398617 0.093877 -0.272475
1.731475 0.116219 0.151825
1.430904 0.096044 -0.227143
1.778632 0.119072 0.218877
1.479552 0.099050 -0.182073
1.506876 0.100615 -0.132128
1.558405 0.103782 -0.081853
1.592249 0.105757 -0.027854
1.343602 0.088300 -0.360794
1.646198 0.108186 0.028796
1.353404 0.088944 -0.313132
1.654176 0.108421 0.086878
1.390926 0.091166 -0.270949
1.701834 0.111544 0.149211
1.435012 0.093804 -0.227769
1.774855 0.116019 0.218390
1.481704 0.096597 -0.182317
1.501068 0.097859 -0.131605
1.558566 0.101335 -0.081853
1.584431 0.102739 -0.027714
1.336028 0.085695 -0.358723
1.642374 0.105344 0.028727
1.353557 0.086582 -0.313132
1.662317 0.106332 0.087296
1.396961 0.089113 -0.272094
1.711968 0.109208 0.150082
1.435157 0.091550 -0.227769
1.790903 0.113930 0.220340
1.475910 0.093891 -0.181585
1.485329 0.094230 -0.130211
1.562727 0.098866 -0.082063
1.598578 0.100855 -0.027959
1.340032 0.083604 -0.359758
1.626589 0.101482 0.028447
1.357581 0.084699 -0.314032
1.676454 0.104298 0.088029
1.399059 0.087041 -0.272475
1.726057 0.107384 0.151302
1.431372 0.088801 -0.227143
1.771267 0.109888 0.217902
1.497866 0.092663 -0.184266
1.511327 0.093496 -0.132477
1.554906 0.095919 -0.081644
1.590751 0.097852 -0.027819
1.340175 0.081264 -0.359758
1.626764 0.098642 0.028447
1.342180 0.081151 -0.310432
1.664671 0.100650 0.087401
1.385505 0.083528 -0.269804
1.706372 0.102872 0.149559
1.431539 0.086052 -0.227143
1.775438 0.106724 0.218390
1.484155 0.089215 -0.182560
1.503548 0.090118 -0.131779
1.547113 0.092457 -0.081225
1.602912 0.095511 -0.028029
1.348029 0.079380 -0.361829
1.638911 0.096508 0.028657
1.352046 0.079379 -0.312682
1.652882 0.097041 0.086773
1.399368 0.081913 -0.272475
1.734395 0.101523 0.152000
1.435632 0.083784 -0.227769
1.775622 0.103626 0.218390
1.478364 0.086278 -0.181829
1.509670 0.087840 -0.132302
1.555247 0.090220 -0.081644
1.595091 0.092252 -0.027889
1.344308 0.076806 -0.360794
1.643070 0.093876 0.028727
1.358019 0.077352 -0.314032
1.657036 0.094384 0.086982
1.372068 0.077912 -0.267133
1.716667 0.097480 0.150431
1.435776 0.081278 -0.227769
1.767872 0.100078 0.217415
1.482476 0.083922 -0.182317
1.497886 0.084532 -0.131257
1.559391 0.087730 -0.081853
1.583270 0.088796 -0.027680
1.336725 0.074033 -0.358723
1.645228 0.091119 0.028762
1.350369 0.074552 -0.312232
1.661187 0.091711 0.087192
1.397685 0.076919 -0.272094
1.720813 0.094702 0.150779
1.428026 0.078339 -0.226517
1.787865 0.098080 0.219852
1.492530 0.081878 -0.183535
1.500021 0.082026 -0.131431
1.563530 0.085225 -0.082063
1.595404 0.086684 -0.027889
1.340710 0.071906 -0.359758
1.627413 0.087283 0.028447
1.362173 0.072819 -0.314931
1.669322 0.089238 0.087610
1.380173 0.073540 -0.268659
1.720976 0.091699 0.150779
1.428160 0.075846 -0.226517
1.774158 0.094222 0.218146
1.488706 0.079062 -0.183048
1.504141 0.079618 -0.131779
1.561682 0.082392 -0.081958
1.591559 0.083689 -0.027819
1.344692 0.069766 -0.360794
1.627563 0.084443 0.028447
1.346729 0.069637 -0.311332
1.657508 0.085707 0.086982
1.399906 0.072141 -0.272475
1.731082 0.089208 0.151651
1.432236 0.073557 -0.227143
1.766389 0.090718 0.217171
1.480912 0.076056 -0.182073
1.504277 0.076994 -0.131779
1.547861 0.078953 -0.081225
1.603685 0.081520 -0.028029
1.344812 0.067419 -0.360794
1.637694 0.082103 0.028622
1.354634 0.067675 -0.313132
1.649676 0.082415 0.086564
1.396108 0.069503 -0.271712
1.715316 0.085394 0.150256
1.436308 0.071253 -0.227769
1.778441 0.088225 0.218634
1.479060 0.073373 -0.181829
1.512369 0.074761 -0.132477
1.553981 0.076546 -0.081539
1.597833 0.078426 -0.027924
1.344927 0.065072 -0.360794
1.647821 0.079727 0.028796
1.354750 0.065311 -0.313132
1.655802 0.079824 0.086878
1.400149 0.067254 -0.272475
1.733373 0.083260 0.151825
1.444323 0.069124 -0.229020
1.782558 0.085311 0.219121
1.485134 0.071077 -0.182560
1.504537 0.071742 -0.131779
1.556107 0.073928 -0.081644
1.591975 0.075355 -0.027819
1.337320 0.062365 -0.358723
1.633975 0.076199 0.028552
1.354862 0.062946 -0.313132
1.669905 0.077582 0.087610
1.380653 0.063902 -0.268659
1.707642 0.079037 0.149559
1.436548 0.066239 -0.227769
1.794602 0.082749 0.220584
1.495171 0.068942 -0.183779
1.492718 0.068567 -0.130734
1.560224 0.071395 -0.081853
1.592104 0.072576 -0.027819
1.341287 0.060204 -0.359758
1.628113 0.073078 0.028447
1.354970 0.060581 -0.313132
1.664052 0.074400 0.087296
1.402337 0.062454 -0.272857
1.725691 0.076855 0.151128
1.436661 0.063731 -0.227769
1.782845 0.079088 0.219121
1.489340 0.066068 -0.183048
1.508759 0.066665 -0.132128
1.552365 0.068321 -0.081435
1.600219 0.070147 -0.027959
1.352970 0.058362 -0.362864
1.632233 0.070409 0.028517
1.347286 0.057882 -0.311332
1.660188 0.071325 0.087087
1.410290 0.060342 -0.274383
1.711889 0.073246 0.149908
1.432823 0.061055 -0.227143
1.773064 0.075554 0.217902
1.485486 0.063299 -0.182560
1.508873 0.064033 -0.132128
1.552482 0.065611 -0.081435
1.600339 0.067354 -0.027959
1.349209 0.055841 -0.361829
1.640346 0.067890 0.028657
1.351279 0.055691 -0.312232
1.654323 0.068180 0.086773
1.380969 0.056673 -0.268659
1.727940 0.070912 0.151302
1.432928 0.058554 -0.227143
1.781127 0.072782 0.218877
1.477661 0.060382 -0.181585
1.505001 0.061237 -0.131779
1.560576 0.063225 -0.081853
1.596458 0.064399 -0.027889
1.341583 0.053180 -0.359758
1.642460 0.065107 0.028692
1.355268 0.053486 -0.313132
1.658431 0.065450 0.086982
1.394798 0.054802 -0.271330
1.726070 0.067817 0.151128
1.436966 0.056458 -0.227769
1.779267 0.069597 0.218634
1.485698 0.058114 -0.182560
1.505106 0.058610 -0.131779
1.558689 0.060423 -0.081749
1.592572 0.061459 -0.027819
1.337813 0.050693 -0.358723
1.638574 0.062089 0.028622
1.359245 0.051505 -0.314032
1.660539 0.062630 0.087087
1.400768 0.052833 -0.272475
1.726174 0.065106 0.151128
1.433114 0.053802 -0.227143
1.791276 0.067248 0.220096
1.481830 0.055373 -0.182073
1.501214 0.056097 -0.131431
1.568761 0.058346 -0.082272
1.588670 0.058809 -0.027749
1.341752 0.048732 -0.359758
1.632675 0.059298 0.028517
1.345701 0.048639 -0.310882
1.668619 0.060311 0.087506
1.404782 0.050529 -0.273238
1.730267 0.062237 0.151477
1.429257 0.051160 -0.226517
1.773537 0.063484 0.217902
1.491834 0.053400 -0.183292
1.509274 0.053760 -0.132128
1.564868 0.055467 -0.082063
1.596764 0.056319 -0.027889
1.345697 0.046523 -0.360794
1.640770 0.056724 0.028657
1.347731 0.046357 -0.311332
1.666726 0.057330 0.087401
1.389171 0.047540 -0.270186
1.726391 0.059080 0.151128
1.437242 0.048934 -0.227769
1.777613 0.060523 0.218390
1.485973 0.050593 -0.182560
1.513348 0.051261 -0.132477
1.556978 0.052467 -0.081644
1.604854 0.053800 -0.028029
1.349638 0.044301 -0.361829
1.636869 0.053729 0.028587
1.347810 0.044005 -0.311332
1.654846 0.054029 0.086773
1.401025 0.045498 -0.272475
1.726492 0.056067 0.151128
1.441273 0.046553 -0.228394
1.777716 0.057420 0.218390
1.482091 0.047872 -0.182073
1.521401 0.048875 -0.133174
1.555071 0.049686 -0.081539
1.596951 0.050745 -0.027889
1.349713 0.041945 -0.361829
1.652950 0.051368 0.028866
1.363467 0.042135 -0.314931
1.666916 0.051512 0.087401
1.373630 0.042209 -0.267133
1.730570 0.053177 0.151477
1.441352 0.044037 -0.228394
1.785750 0.054559 0.219365
1.482172 0.045284 -0.182073
1.509535 0.045857 -0.132128
1.555156 0.046972 -0.081539
1.593039 0.047837 -0.027819
1.342060 0.039363 -0.359758
1.637047 0.048015 0.028587
1.363539 0.039755 -0.314931
1.663010 0.048486 0.087192
1.397251 0.040493 -0.271712
1.724685 0.049982 0.150954
1.441427 0.041522 -0.228394
1.779890 0.051271 0.218634
1.486218 0.042812 -0.182560
1.505629 0.043109 -0.131779
1.565217 0.044541 -0.082063
1.597118 0.045170 -0.027889
1.345989 0.037127 -0.360794
1.633130 0.045047 0.028517
1.351918 0.037054 -0.312232
1.669082 0.045747 0.087506
1.401244 0.038161 -0.272475
1.710828 0.046593 0.149734
1.429649 0.038685 -0.226517
1.783945 0.048272 0.219121
1.498196 0.040540 -0.184023
1.501719 0.040373 -0.131431
1.557307 0.041596 -0.081644
1.601192 0.042488 -0.027959
1.342189 0.034678 -0.359758
1.633206 0.042197 0.028517
1.342240 0.034445 -0.309983
1.667162 0.042783 0.087401
1.409159 0.035916 -0.274002
1.732816 0.044165 0.151651
1.433664 0.036290 -0.227143
1.774104 0.044908 0.217902
1.474451 0.037323 -0.181098
1.499795 0.037702 -0.131257
1.549390 0.038678 -0.081225
1.605262 0.039793 -0.028029
1.349973 0.032521 -0.361829
1.645272 0.039635 0.028727
1.352039 0.032335 -0.312232
1.655255 0.039586 0.086773
1.405294 0.033363 -0.273238
1.712972 0.040668 0.149908
1.441625 0.033974 -0.228394
1.782118 0.041999 0.218877
1.482452 0.034936 -0.182073
1.505835 0.035224 -0.131779
1.557442 0.036160 -0.081644
1.593334 0.036715 -0.027819
1.350028 0.030165 -0.361829
1.641340 0.036674 0.028657
1.363783 0.030235 -0.314931
1.661311 0.036831 0.087087
1.393574 0.030652 -0.270949
1.728976 0.038029 0.151302
1.441682 0.031458 -0.228394
1.782189 0.038887 0.218877
1.482511 0.032348 -0.182073
1.513861 0.032769 -0.132477
1.557503 0.033441 -0.081644
1.589398 0.033848 -0.027749
1.338489 0.027571 -0.358723
1.633405 0.033645 0.028517
1.363834 0.027854 -0.314931
1.659376 0.033890 0.086982
1.405402 0.028457 -0.273238
1.711112 0.034648 0.149734
1.437785 0.028862 -0.227769
1.786223 0.035857 0.219365
1.494474 0.030000 -0.183535
1.509932 0.030047 -0.132128
1.559556 0.030762 -0.081749
1.593453 0.031152 -0.027819
1.346262 0.025380 -0.360794
1.633461 0.030794 0.028517
1.354138 0.025292 -0.312682
1.671414 0.031218 0.087610
1.397598 0.025859 -0.271712
1.727106 0.031956 0.151128
1.433883 0.026280 -0.227143
1.788268 0.032776 0.219609
1.494524 0.027392 -0.183535
1.509982 0.027412 -0.132128
1.555613 0.027968 -0.081539
1.605501 0.028585 -0.028029
1.354030 0.023162 -0.362864
1.637511 0.028011 0.028587
1.352232 0.022895 -0.312232
1.673463 0.028334 0.087715
1.411382 0.023650 -0.274383
1.713214 0.028708 0.149908
1.433926 0.023778 -0.227143
1.772444 0.029391 0.217659
1.486630 0.024652 -0.182560
1.510028 0.024776 -0.132128
1.553663 0.025221 -0.081435
1.609547 0.025847 -0.028098
1.354068 0.020798 -0.362864
1.637557 0.025153 0.028587
1.352270 0.020535 -0.312232
1.657534 0.025170 0.086878
1.389827 0.020863 -0.270186
1.727207 0.025928 0.151128
1.433966 0.021275 -0.227143
1.778447 0.026386 0.218390
1.492625 0.022145 -0.183292
1.522022 0.022315 -0.133174
1.557699 0.022567 -0.081644
1.601592 0.022923 -0.027959
1.346376 0.018330 -0.360794
1.653595 0.022513 0.028866
1.360098 0.018280 -0.314032
1.671555 0.022466 0.087610
1.401640 0.018593 -0.272475
1.727250 0.022912 0.151128
1.441902 0.018876 -0.228394
1.784445 0.023360 0.219121
1.478767 0.019358 -0.181585
1.500144 0.019377 -0.131257
1.559733 0.019873 -0.081749
1.597631 0.020078 -0.027889
1.338679 0.015889 -0.358723
1.641634 0.019485 0.028657
1.352333 0.015815 -0.312232
1.665600 0.019478 0.087296
1.405597 0.016192 -0.273238
1.721310 0.019829 0.150605
1.434031 0.016269 -0.227143
1.806318 0.020493 0.221802
1.494678 0.016957 -0.183535
1.502168 0.016780 -0.131431
1.563759 0.017195 -0.081958
1.597663 0.017289 -0.027889
1.346432 0.013630 -0.360794
1.625669 0.016457 0.028378
1.352359 0.013454 -0.312232
1.673620 0.016651 0.087715
1.389918 0.013586 -0.270186
1.709389 0.016708 0.149559
1.430107 0.013729 -0.226517
1.786501 0.017150 0.219365
1.498676 0.014387 -0.184023
1.506180 0.014196 -0.131779
1.561790 0.014447 -0.081853
1.601690 0.014537 -0.027959
1.350317 0.011313 -0.361829
1.641692 0.013754 0.028657
1.352380 0.011094 -0.312232
1.663661 0.013647 0.087192
1.407608 0.011302 -0.273620
1.727346 0.013869 0.151128
1.438030 0.011295 -0.227769
1.774618 0.013939 0.217902
1.484803 0.011662 -0.182317
1.514171 0.011628 -0.132477
1.561813 0.011722 -0.081853
1.605712 0.011771 -0.028029
1.350335 0.008956 -0.361829
1.649713 0.010941 0.028796
1.352397 0.008733 -0.312232
1.659688 0.010718 0.086982
1.389957 0.008734 -0.270186
1.717406 0.010792 0.150256
1.441998 0.008809 -0.228394
1.782580 0.010889 0.218877
1.476881 0.009022 -0.181342
1.522159 0.009033 -0.133174
1.565825 0.009019 -0.082063
1.597732 0.008923 -0.027889
1.350348 0.006599 -0.361829
1.653728 0.008082 0.028866
1.356308 0.006392 -0.313132
1.661701 0.007831 0.087087
1.403713 0.006370 -0.272857
1.725392 0.007830 0.150954
1.442011 0.006292 -0.228394
1.794506 0.007830 0.220340
1.482850 0.006470 -0.182073
1.514203 0.006344 -0.132477
1.565838 0.006286 -0.082063
1.593746 0.006120 -0.027819
1.342630 0.004219 -0.359758
1.643742 0.005165 0.028692
1.360215 0.004036 -0.314032
1.667704 0.004948 0.087401
1.397832 0.003904 -0.271712
1.711456 0.004780 0.149734
1.434119 0.003754 -0.227143
1.788562 0.004682 0.219609
1.490799 0.003902 -0.183048
1.504250 0.003676 -0.131605
1.565847 0.003553 -0.082063
1.593754 0.003337 -0.027819
1.350363 0.001886 -0.361829
1.629750 0.002276 0.028447
1.356322 0.001657 -0.313132
1.683688 0.002057 0.088238
1.405689 0.001472 -0.273238
1.727401 0.001809 0.151128
1.430172 0.001497 -0.226517
1.794523 0.001566 0.220340
1.496759 0.001307 -0.183779
1.504254 0.001051 -0.131605
1.561856 0.000817 -0.081853
1.603756 0.000560 -0.027994
1.346501 -0.000470 -0.360794
1.643750 -0.000574 0.028692
1.352426 -0.000472 -0.312232
1.669708 -0.000874 0.087506
1.409617 -0.000738 -0.274002
1.709470 -0.000895 0.149559
1.434123 -0.001001 -0.227143
1.786583 -0.001247 0.219365
1.494774 -0.001304 -0.183535
1.514215 -0.001321 -0.132477
1.553867 -0.001627 -0.081435
1.603755 -0.001959 -0.027994
1.346498 -0.002585 -0.360794
1.649746 -0.003167 0.028796
1.348525 -0.002824 -0.311332
1.657721 -0.003472 0.086878
1.403723 -0.003185 -0.272857
1.739352 -0.003946 0.152174
1.442021 -0.003524 -0.228394
1.780622 -0.004351 0.218634
1.476904 -0.003609 -0.181342
1.514211 -0.003964 -0.132477
1.565845 -0.004373 -0.082063
1.593750 -0.004729 -0.027819
1.350355 -0.004949 -0.361829
1.647738 -0.006039 0.028762
1.362159 -0.005230 -0.314482
1.667699 -0.006404 0.087401
1.386046 -0.005564 -0.269422
1.719418 -0.006902 0.150431
1.445963 -0.006057 -0.229020
1.790538 -0.007500 0.219852
1.492776 -0.006253 -0.183292
1.508224 -0.006581 -0.131954
1.569829 -0.007124 -0.082272
1.597739 -0.007529 -0.027889
1.346481 -0.007285 -0.360794
1.645725 -0.008904 0.028727
1.364097 -0.007619 -0.314931
1.675674 -0.009359 0.087820
1.403704 -0.008085 -0.272857
1.721396 -0.009915 0.150605
1.438049 -0.008534 -0.227769
1.800447 -0.010684 0.221071
1.494748 -0.008870 -0.183535
1.494264 -0.009128 -0.130734
1.569815 -0.009864 -0.082272
1.597723 -0.010318 -0.027889
1.346466 -0.009635 -0.360794
1.639708 -0.011734 0.028622
1.356287 -0.009942 -0.313132
1.677653 -0.012298 0.087924
1.386019 -0.010402 -0.269422
1.711414 -0.012844 0.149734
1.434081 -0.011013 -0.227143
1.778590 -0.013659 0.218390
1.500686 -0.011525 -0.184266
1.504208 -0.011814 -0.131605
1.565801 -0.012571 -0.082063
1.601702 -0.013139 -0.027959
1.350311 -0.012020 -0.361829
1.639685 -0.014596 0.028622
1.352370 -0.012274 -0.312232
1.673634 -0.015190 0.087715
1.413483 -0.013075 -0.274765
1.729320 -0.015997 0.151302
1.434060 -0.013516 -0.227143
1.770624 -0.016688 0.217415
1.490738 -0.014050 -0.183048
1.504185 -0.014440 -0.131605
1.561782 -0.015265 -0.081853
1.605676 -0.015974 -0.028029
1.354151 -0.014418 -0.362864
1.645656 -0.017521 0.028727
1.348449 -0.014592 -0.311332
1.669611 -0.018068 0.087506
1.393826 -0.015327 -0.270949
1.717336 -0.018884 0.150256
1.441935 -0.016107 -0.228394
1.770592 -0.019779 0.217415
1.484756 -0.016586 -0.182317
1.516111 -0.017200 -0.132651
1.555762 -0.017922 -0.081539
1.605646 -0.018777 -0.028029
1.346397 -0.016685 -0.360794
1.649622 -0.020443 0.028796
1.352319 -0.016995 -0.312232
1.673571 -0.021032 0.087715
1.401650 -0.017859 -0.272475
1.727262 -0.022008 0.151128
1.445855 -0.018675 -0.229020
1.790404 -0.023125 0.219852
1.488695 -0.019228 -0.182804
1.510102 -0.019768 -0.132128
1.559722 -0.020690 -0.081749
1.593614 -0.021418 -0.027819
1.342503 -0.018980 -0.359758
1.647584 -0.023294 0.028762
1.367876 -0.019578 -0.315831
1.669538 -0.023896 0.087506
1.397691 -0.020249 -0.271712
1.705307 -0.024705 0.149211
1.441870 -0.021140 -0.228394
1.798300 -0.026366 0.220827
1.492629 -0.021885 -0.183292
1.500104 -0.022256 -0.131257
1.561681 -0.023442 -0.081853
1.593574 -0.024199 -0.027819
1.342468 -0.021324 -0.359758
1.639544 -0.026042 0.028622
1.360045 -0.021840 -0.314032
1.681475 -0.027002 0.088134
1.405505 -0.022816 -0.273238
1.735143 -0.028167 0.151825
1.429980 -0.023462 -0.226517
1.782373 -0.029244 0.218877
1.498543 -0.024587 -0.184023
1.514008 -0.025106 -0.132477
1.561637 -0.026168 -0.081853
1.605525 -0.027184 -0.028029
1.350155 -0.023803 -0.361829
1.631498 -0.028763 0.028482
1.352211 -0.024075 -0.312232
1.669444 -0.029723 0.087506
1.403500 -0.025233 -0.272857
1.713178 -0.030801 0.149908
1.437837 -0.026102 -0.227769
1.778350 -0.032283 0.218390
1.490559 -0.027059 -0.183048
1.509978 -0.027675 -0.132128
1.561589 -0.028893 -0.081853
1.613473 -0.030135 -0.028168
1.353974 -0.026234 -0.362864
1.643441 -0.031843 0.028692
1.359961 -0.026587 -0.314032
1.655412 -0.032364 0.086773
1.407380 -0.027760 -0.273620
1.735034 -0.034223 0.151825
1.443714 -0.028729 -0.228707
1.790199 -0.035624 0.219852
1.492494 -0.029700 -0.183292
1.515903 -0.030430 -0.132651
1.557543 -0.031538 -0.081644
1.597424 -0.032624 -0.027889
1.350063 -0.028516 -0.361829
1.651380 -0.034880 0.028831
1.356016 -0.028878 -0.313132
1.661343 -0.035380 0.087087
1.373961 -0.029500 -0.267133
1.707084 -0.036653 0.149385
1.449587 -0.031377 -0.229646
1.796088 -0.038877 0.220584
1.488471 -0.032219 -0.182804
1.503896 -0.032815 -0.131605
1.563476 -0.034388 -0.081958
1.597364 -0.035412 -0.027889
1.342291 -0.030461 -0.359758
1.643327 -0.037292 0.028692
1.367658 -0.031275 -0.315831
1.667276 -0.038127 0.087401
1.405317 -0.032382 -0.273238
1.726943 -0.039793 0.151128
1.433737 -0.033287 -0.227143
1.796025 -0.041698 0.220584
1.500325 -0.034833 -0.184266
1.499859 -0.035084 -0.131257
1.573403 -0.037079 -0.082481
1.597307 -0.037922 -0.027889
1.349961 -0.032992 -0.361829
1.639261 -0.040063 0.028622
1.359809 -0.033470 -0.314032
1.677190 -0.041283 0.087924
1.413109 -0.035029 -0.274765
1.714921 -0.042511 0.150082
1.433677 -0.035789 -0.227143
1.786027 -0.044585 0.219365
1.500262 -0.037452 -0.184266
1.517721 -0.038153 -0.132825
1.563353 -0.039573 -0.081958
1.605234 -0.040913 -0.028029
1.349902 -0.035348 -0.361829
1.641187 -0.042976 0.028657
1.351956 -0.035638 -0.312232
1.669129 -0.043999 0.087506
1.389495 -0.036871 -0.270186
1.742728 -0.046244 0.152523
1.433612 -0.038292 -0.227143
1.778009 -0.047490 0.218390
1.500195 -0.040070 -0.184266
1.517652 -0.040801 -0.132825
1.561285 -0.042247 -0.081853
1.609158 -0.043824 -0.028098
1.357562 -0.037920 -0.363900
1.653103 -0.046175 0.028866
1.359684 -0.038217 -0.314032
1.661064 -0.046688 0.087087
1.407091 -0.039795 -0.273620
1.724720 -0.048778 0.150954
1.443416 -0.041075 -0.228707
1.785860 -0.050819 0.219365
1.482264 -0.042180 -0.182073
1.525545 -0.043678 -0.133523
1.565202 -0.045087 -0.082063
1.601084 -0.046400 -0.027959
1.349770 -0.040060 -0.361829
1.653020 -0.049060 0.028866
1.363511 -0.040706 -0.314931
1.672958 -0.049944 0.087715
1.399170 -0.042015 -0.272094
1.732598 -0.052028 0.151651
1.451240 -0.043832 -0.229959
1.793706 -0.054176 0.220340
1.484172 -0.044827 -0.182317
1.511526 -0.045917 -0.132302
1.565121 -0.047819 -0.082063
1.595004 -0.049010 -0.027854
1.338113 -0.042052 -0.358723
1.650934 -0.051883 0.028831
1.363438 -0.043086 -0.314931
1.674864 -0.052927 0.087820
1.401057 -0.044520 -0.272475
1.706616 -0.054229 0.149385
1.441290 -0.046050 -0.228394
1.793608 -0.057306 0.220340
1.497980 -0.047861 -0.184023
1.503478 -0.048299 -0.131605
1.565035 -0.050550 -0.082063
1.604909 -0.052119 -0.028029
1.349622 -0.044772 -0.361829
1.642846 -0.054499 0.028692
1.359465 -0.045336 -0.314032
1.672773 -0.055784 0.087715
1.408825 -0.047228 -0.274002
1.738380 -0.058275 0.152174
1.429362 -0.048166 -0.226517
1.785570 -0.060169 0.219365
1.501862 -0.050609 -0.184510
1.513348 -0.051261 -0.132477
1.564944 -0.053282 -0.082063
1.612810 -0.055193 -0.028168
1.345680 -0.046992 -0.360794
1.644747 -0.057436 0.028727
1.351593 -0.047435 -0.312232
1.668681 -0.058563 0.087506
1.414627 -0.049894 -0.275147
1.726328 -0.060888 0.151128
1.437172 -0.050941 -0.227769
1.773559 -0.062864 0.217902
1.485901 -0.052668 -0.182560
1.509274 -0.053760 -0.132128
1.556865 -0.055727 -0.081644
1.604718 -0.057721 -0.028029
1.353318 -0.049624 -0.362864
1.646643 -0.060380 0.028762
1.355404 -0.049937 -0.313132
1.660593 -0.061181 0.087087
1.389033 -0.051419 -0.270186
1.740157 -0.064417 0.152348
1.441029 -0.053596 -0.228394
1.789316 -0.066549 0.219852
1.485807 -0.055261 -0.182560
1.513160 -0.056543 -0.132477
1.564749 -0.058744 -0.082063
1.600618 -0.060370 -0.027959
1.349369 -0.051838 -0.361829
1.656526 -0.063637 0.028936
1.363104 -0.052603 -0.314931
1.664475 -0.064234 0.087296
1.408559 -0.054604 -0.274002
1.716151 -0.066528 0.150256
1.440933 -0.056111 -0.228394
1.781263 -0.069363 0.218877
1.491659 -0.058086 -0.183292
1.507086 -0.058950 -0.131954
1.564644 -0.061475 -0.082063
1.596514 -0.063006 -0.027889
1.345416 -0.054037 -0.360794
1.648420 -0.066207 0.028796
1.364957 -0.055061 -0.315381
1.676334 -0.067622 0.087924
1.400615 -0.056744 -0.272475
1.723995 -0.069846 0.150954
1.440833 -0.058625 -0.228394
1.797007 -0.073118 0.220827
1.499489 -0.061012 -0.184266
1.508972 -0.061662 -0.132128
1.572517 -0.064533 -0.082481
1.600398 -0.065957 -0.027959
1.345320 -0.056386 -0.360794
1.634316 -0.068498 0.028552
1.355124 -0.057033 -0.313132
1.678209 -0.070631 0.088029
1.412283 -0.059686 -0.274765
1.717899 -0.072602 0.150431
1.436781 -0.060973 -0.227769
1.781010 -0.075581 0.218877
1.503347 -0.063797 -0.184754
1.516824 -0.064635 -0.132825
1.560429 -0.066766 -0.081853
1.604276 -0.068922 -0.028029
1.352939 -0.059071 -0.362864
1.640187 -0.071612 0.028657
1.351128 -0.059228 -0.312232
1.682074 -0.073735 0.088238
1.400408 -0.061633 -0.272475
1.739664 -0.076564 0.152348
1.440619 -0.063655 -0.228394
1.778892 -0.078601 0.218634
1.489351 -0.065808 -0.183048
1.516709 -0.067282 -0.132825
1.560310 -0.069489 -0.081853
1.612144 -0.072079 -0.028168
1.356694 -0.061607 -0.363900
1.648051 -0.074838 0.028796
1.354916 -0.061763 -0.313132
1.671967 -0.076216 0.087715
1.410104 -0.064526 -0.274383
1.727586 -0.079054 0.151302
1.440506 -0.066169 -0.228394
1.792633 -0.082344 0.220340
1.485268 -0.068225 -0.182560
1.520570 -0.070112 -0.133174
1.554201 -0.071935 -0.081539
1.600030 -0.074336 -0.027959
1.348865 -0.063611 -0.361829
1.651912 -0.077902 0.028866
1.358699 -0.064312 -0.314032
1.671831 -0.079134 0.087715
1.411951 -0.067080 -0.274765
1.737396 -0.082541 0.152174
1.454201 -0.069341 -0.230584
1.796452 -0.085661 0.220827
1.487130 -0.070912 -0.182804
1.516465 -0.072576 -0.132825
1.568038 -0.075318 -0.082272
1.595903 -0.076936 -0.027889
1.344893 -0.065776 -0.360794
1.643785 -0.080394 0.028727
1.372210 -0.067352 -0.317181
1.675680 -0.082248 0.087924
1.392223 -0.068578 -0.270949
1.713370 -0.084397 0.150082
1.440266 -0.071197 -0.228394
1.802248 -0.089091 0.221558
1.504848 -0.074389 -0.184998
1.512356 -0.075025 -0.132477
1.575883 -0.078452 -0.082691
1.603755 -0.080120 -0.028029
1.348635 -0.068319 -0.361829
1.641645 -0.083162 0.028692
1.354574 -0.068857 -0.313132
1.673540 -0.085071 0.087820
1.407786 -0.071808 -0.274002
1.731128 -0.088301 0.151651
1.432261 -0.073056 -0.227143
1.796143 -0.091932 0.220827
1.504716 -0.077016 -0.184998
1.516203 -0.077869 -0.132825
1.555798 -0.080175 -0.081644
1.611601 -0.083332 -0.028168
1.344655 -0.070470 -0.360794
1.643494 -0.086132 0.028727
1.354464 -0.070984 -0.313132
1.687350 -0.088726 0.088552
1.411593 -0.074226 -0.274765
1.721039 -0.090497 0.150779
1.434105 -0.075660 -0.227456
1.780137 -0.093916 0.218877
1.496649 -0.079222 -0.184023
1.520058 -0.080461 -0.133174
1.553675 -0.082512 -0.081539
1.611468 -0.085864 -0.028168
1.352259 -0.072999 -0.362864
1.651344 -0.089145 0.028866
1.354338 -0.073348 -0.313132
1.671254 -0.090512 0.087715
1.409501 -0.076583 -0.274383
1.742763 -0.094690 0.152697
1.447778 -0.078916 -0.229646
1.791864 -0.097671 0.220340
1.488595 -0.081141 -0.183048
1.527872 -0.083549 -0.133871
1.563500 -0.085771 -0.082063
1.607323 -0.088456 -0.028098
1.348272 -0.075144 -0.361829
1.653182 -0.092138 0.028901
1.363937 -0.076256 -0.315381
1.669099 -0.093317 0.087610
1.399564 -0.078493 -0.272475
1.720713 -0.096504 0.150779
1.443693 -0.081221 -0.229020
1.787726 -0.100575 0.219852
1.492415 -0.083962 -0.183535
1.515789 -0.085542 -0.132825
1.567336 -0.088725 -0.082272
1.595187 -0.090581 -0.027889
1.340424 -0.077054 -0.359758
1.649026 -0.094793 0.028831
1.371584 -0.079085 -0.317181
1.680898 -0.096920 0.088238
1.403345 -0.081162 -0.273238
1.728498 -0.099967 0.151477
1.443549 -0.083740 -0.229020
1.803402 -0.104615 0.221802
1.502174 -0.087141 -0.184754
1.511659 -0.087956 -0.132477
1.571167 -0.091693 -0.082481
1.603011 -0.093833 -0.028029
1.348002 -0.079850 -0.361829
1.640873 -0.097198 0.028692
1.357826 -0.080670 -0.314032
1.676738 -0.099617 0.088029
1.418880 -0.084546 -0.276291
1.730310 -0.103102 0.151651
1.435513 -0.085788 -0.227769
1.787364 -0.106815 0.219852
1.507965 -0.090118 -0.185485
1.515481 -0.090832 -0.132825
1.559042 -0.093716 -0.081853
1.602845 -0.096630 -0.028029
1.355573 -0.082673 -0.363900
1.642697 -0.100184 0.028727
1.353793 -0.082802 -0.313132
1.678555 -0.102665 0.088134
1.418730 -0.087022 -0.276291
1.720184 -0.105512 0.150779
1.443248 -0.088779 -0.229020
1.787175 -0.109935 0.219852
1.495917 -0.092018 -0.184023
1.515320 -0.093477 -0.132825
1.562863 -0.096684 -0.082063
1.614649 -0.100171 -0.028238
1.359283 -0.085281 -0.364935
1.652499 -0.103677 0.028901
1.355592 -0.085287 -0.313582
1.664420 -0.104716 0.087401
1.414657 -0.089251 -0.275528
1.743859 -0.110020 0.152871
1.443091 -0.091297 -0.229020
1.786981 -0.113054 0.219852
1.483868 -0.093877 -0.182560
1.523108 -0.096627 -0.133523
1.562692 -0.099412 -0.082063
1.606490 -0.102479 -0.028098
1.351421 -0.087156 -0.362864
1.652315 -0.106561 0.028901
1.359330 -0.087904 -0.314482
1.670215 -0.108008 0.087715
1.387071 -0.089941 -0.270186
1.719805 -0.111516 0.150779
1.450831 -0.094075 -0.230272
1.794704 -0.116687 0.220827
1.491625 -0.096982 -0.183535
1.514985 -0.098766 -0.132825
1.566502 -0.102399 -0.082272
1.598327 -0.104760 -0.027959
1.347411 -0.089259 -0.361829
1.646141 -0.109048 0.028796
1.361135 -0.090168 -0.314931
1.679988 -0.111585 0.088238
1.414353 -0.093941 -0.275528
1.733544 -0.115142 0.152000
1.446722 -0.096345 -0.229646
1.802442 -0.120034 0.221802
1.507299 -0.100643 -0.185485
1.510852 -0.100880 -0.132477
1.570325 -0.105127 -0.082481
1.606141 -0.107806 -0.028098
1.351124 -0.091637 -0.362864
1.639982 -0.111228 0.028692
1.368752 -0.093072 -0.316731
1.685788 -0.114630 0.088552
1.398518 -0.095341 -0.272475
1.717438 -0.117083 0.150605
1.442610 -0.098600 -0.229020
1.792327 -0.122503 0.220584
1.503178 -0.102740 -0.184998
1.514649 -0.103790 -0.132825
1.566154 -0.107594 -0.082272
1.605950 -0.110609 -0.028098
1.347108 -0.093726 -0.361829
1.645770 -0.114506 0.028796
1.356924 -0.094647 -0.314032
1.685586 -0.117572 0.088552
1.414017 -0.098878 -0.275528
1.745057 -0.122026 0.153045
1.444406 -0.101256 -0.229333
1.784189 -0.125076 0.219609
1.501016 -0.105225 -0.184754
1.518441 -0.106712 -0.133174
1.557995 -0.109765 -0.081853
1.613734 -0.113975 -0.028238
1.354650 -0.096627 -0.363900
1.645568 -0.117378 0.028796
1.356757 -0.097015 -0.314032
1.675417 -0.119801 0.088029
1.394260 -0.099942 -0.271712
1.730930 -0.124075 0.151825
1.438317 -0.103352 -0.228394
1.785949 -0.128332 0.219852
1.490930 -0.107133 -0.183535
1.530175 -0.110221 -0.134220
1.565769 -0.113060 -0.082272
1.603560 -0.116070 -0.028063
1.350626 -0.098710 -0.362864
1.653338 -0.120833 0.028936
1.356585 -0.099383 -0.314032
1.685165 -0.123455 0.088552
1.407789 -0.103382 -0.274383
1.736672 -0.127533 0.152348
1.453894 -0.107022 -0.230897
1.793641 -0.132031 0.220827
1.490741 -0.109735 -0.183535
1.518059 -0.112012 -0.133174
1.565569 -0.115792 -0.082272
1.605349 -0.119016 -0.028098
1.346599 -0.100779 -0.361829
1.653125 -0.123719 0.028936
1.373899 -0.103063 -0.318081
1.672997 -0.125500 0.087924
1.389987 -0.104514 -0.270949
1.714592 -0.128921 0.150431
1.445826 -0.108966 -0.229646
1.801326 -0.135759 0.221802
1.498465 -0.112933 -0.184510
1.509914 -0.114061 -0.132477
1.569348 -0.118826 -0.082481
1.605139 -0.121818 -0.028098
1.350273 -0.103424 -0.362864
1.640943 -0.125688 0.028727
1.369831 -0.105162 -0.317181
1.692690 -0.129948 0.088971
1.413292 -0.108747 -0.275528
1.734230 -0.133442 0.152174
1.437756 -0.110882 -0.228394
1.793169 -0.138292 0.220827
1.506183 -0.116159 -0.185485
1.517659 -0.117310 -0.133174
1.569138 -0.121565 -0.082481
1.604924 -0.124619 -0.028098
1.350090 -0.105780 -0.362864
1.644708 -0.128864 0.028796
1.354103 -0.106332 -0.313582
1.684496 -0.132277 0.088552
1.411143 -0.111059 -0.275147
1.718104 -0.135218 0.150779
1.445437 -0.114012 -0.229646
1.785009 -0.140797 0.219852
1.498062 -0.118163 -0.184510
1.525396 -0.120587 -0.133871
1.556978 -0.123357 -0.081853
1.616665 -0.128370 -0.028308
1.361458 -0.109062 -0.365970
1.648467 -0.132053 0.028866
1.367513 -0.109787 -0.316731
1.668335 -0.133938 0.087715
1.408990 -0.113365 -0.274765
1.743683 -0.140293 0.153045
1.441298 -0.116217 -0.229020
1.800590 -0.145188 0.221802
1.489939 -0.120139 -0.183535
1.525183 -0.123249 -0.133871
1.570695 -0.127203 -0.082586
1.608465 -0.130544 -0.028168
1.353564 -0.110808 -0.363900
1.656207 -0.135583 0.029006
1.359551 -0.111537 -0.314931
1.668099 -0.136850 0.087715
1.393137 -0.114537 -0.271712
1.717622 -0.141214 0.150779
1.445030 -0.119057 -0.229646
1.796377 -0.148005 0.221315
1.491705 -0.122903 -0.183779
1.517024 -0.125255 -0.133174
1.560518 -0.129121 -0.082063
1.600264 -0.132690 -0.028029
1.341817 -0.112204 -0.360794
1.655967 -0.138473 0.029006
1.371006 -0.114886 -0.317631
1.683780 -0.141095 0.088552
1.406629 -0.118118 -0.274383
1.721344 -0.144545 0.151128
1.440884 -0.121248 -0.229020
1.807985 -0.152139 0.222777
1.493466 -0.125672 -0.184023
1.512832 -0.127568 -0.132825
1.576212 -0.133189 -0.082900
1.604015 -0.135821 -0.028098
1.341620 -0.114546 -0.360794
1.647753 -0.140683 0.028866
1.363036 -0.116614 -0.315831
1.681541 -0.143863 0.088448
1.388816 -0.119064 -0.270949
1.738955 -0.149081 0.152697
1.436733 -0.123424 -0.228394
1.799805 -0.154614 0.221802
1.501156 -0.128958 -0.184998
1.512607 -0.130208 -0.132825
1.566028 -0.135082 -0.082377
1.611744 -0.139309 -0.028238
1.352965 -0.117893 -0.363900
1.647505 -0.143559 0.028866
1.362831 -0.118993 -0.315831
1.677308 -0.146450 0.088238
1.419899 -0.124225 -0.277055
1.740677 -0.152289 0.152871
1.436516 -0.125931 -0.228394
1.789645 -0.156888 0.220584
1.493019 -0.130885 -0.184023
1.516347 -0.133197 -0.133174
1.563800 -0.137640 -0.082272
1.615483 -0.142473 -0.028308
1.356606 -0.120597 -0.364935
1.655220 -0.147142 0.029006
1.368444 -0.121890 -0.317181
1.669092 -0.148669 0.087820
1.402081 -0.125132 -0.273620
1.724532 -0.153910 0.151477
1.436294 -0.128438 -0.228394
1.795300 -0.160542 0.221315
1.486856 -0.132960 -0.183292
1.524050 -0.136554 -0.133871
1.567536 -0.140726 -0.082481
1.611248 -0.144934 -0.028238
1.356393 -0.122964 -0.364935
1.656952 -0.150211 0.029041
1.362407 -0.123749 -0.315831
1.674798 -0.152124 0.088134
1.403815 -0.127757 -0.274002
1.740134 -0.158365 0.152871
1.455739 -0.132739 -0.231523
1.802925 -0.164396 0.222290
1.496506 -0.136456 -0.184510
1.515873 -0.138489 -0.133174
1.569277 -0.143644 -0.082586
1.609002 -0.147563 -0.028203
1.344635 -0.124265 -0.361829
1.654696 -0.152919 0.029006
1.368010 -0.126666 -0.317181
1.672541 -0.154862 0.088029
1.405545 -0.130388 -0.274383
1.710097 -0.158641 0.150256
1.447662 -0.134296 -0.230272
1.806588 -0.167910 0.222777
1.508126 -0.140170 -0.185973
1.519596 -0.141504 -0.133523
1.576978 -0.147125 -0.083005
1.602769 -0.149813 -0.028098
1.348262 -0.126973 -0.362864
1.642481 -0.154682 0.028796
1.363929 -0.128449 -0.316281
1.688175 -0.159282 0.088866
1.411202 -0.133149 -0.275528
1.737616 -0.163947 0.152697
1.435625 -0.135707 -0.228394
1.798417 -0.170000 0.221802
1.507879 -0.142802 -0.185973
1.523339 -0.144266 -0.133871
1.566804 -0.148658 -0.082481
1.610494 -0.153087 -0.028238
1.351907 -0.129459 -0.363900
1.650199 -0.158024 0.028936
1.361763 -0.130643 -0.315831
1.683947 -0.161552 0.088657
1.416830 -0.136176 -0.276673
1.745260 -0.167742 0.153394
1.435386 -0.138212 -0.228394
1.790214 -0.172378 0.220827
1.505651 -0.145243 -0.185729
1.519119 -0.146542 -0.133523
1.562566 -0.151008 -0.082272
1.618186 -0.156669 -0.028378
1.351656 -0.132055 -0.363900
1.653873 -0.161581 0.029006
1.363473 -0.133209 -0.316281
1.673695 -0.163812 0.088134
1.408775 -0.137883 -0.275147
1.727089 -0.169343 0.151825
1.446939 -0.141874 -0.230272
1.789879 -0.175815 0.220827
1.493542 -0.146706 -0.184266
1.526766 -0.150239 -0.134220
1.570224 -0.154792 -0.082691
1.609922 -0.158989 -0.028238
1.347579 -0.134031 -0.362864
1.661548 -0.165259 0.029146
1.365154 -0.136020 -0.316731
1.677381 -0.167129 0.088343
1.387019 -0.138443 -0.270949
1.734721 -0.173148 0.152523
1.446689 -0.144399 -0.230272
1.801421 -0.180123 0.222290
1.495259 -0.149510 -0.184510
1.506677 -0.150918 -0.132477
1.562002 -0.156735 -0.082272
1.601684 -0.160999 -0.028098
1.347343 -0.136383 -0.362864
1.657278 -0.167756 0.029076
1.362999 -0.137968 -0.316281
1.689009 -0.171265 0.088971
1.414145 -0.143394 -0.276291
1.714625 -0.173863 0.150779
1.450365 -0.147323 -0.230897
1.805086 -0.183354 0.222777
1.506845 -0.153325 -0.185973
1.508420 -0.153486 -0.132651
1.573676 -0.160403 -0.082900
1.609386 -0.164327 -0.028238
1.347127 -0.138499 -0.362864
1.649055 -0.169541 0.028936
1.360818 -0.140147 -0.315831
1.690725 -0.174123 0.089076
1.415845 -0.146064 -0.276673
1.742065 -0.179718 0.153220
1.438342 -0.148384 -0.229020
1.796865 -0.185688 0.221802
1.508577 -0.155896 -0.186216
1.506168 -0.155913 -0.132477
1.569420 -0.162737 -0.082691
1.609097 -0.167136 -0.028238
1.350726 -0.141252 -0.363900
1.656712 -0.173250 0.029076
1.360596 -0.142284 -0.315831
1.680486 -0.176033 0.088552
1.394136 -0.146038 -0.272475
1.731873 -0.181416 0.152348
1.442010 -0.151307 -0.229646
1.792623 -0.188096 0.221315
1.500406 -0.157699 -0.185241
1.513847 -0.159112 -0.133174
1.561217 -0.164366 -0.082272
1.612810 -0.170082 -0.028308
1.354320 -0.144018 -0.364935
1.652430 -0.175719 0.029006
1.362258 -0.145102 -0.316281
1.676205 -0.178543 0.088343
1.415327 -0.151005 -0.276673
1.743408 -0.186009 0.153394
1.449574 -0.154915 -0.230897
1.794232 -0.191748 0.221558
1.496180 -0.159896 -0.184754
1.513539 -0.162018 -0.133174
1.564871 -0.167789 -0.082481
1.608504 -0.172751 -0.028238
1.354066 -0.146381 -0.364935
1.664050 -0.179892 0.029215
1.363940 -0.147690 -0.316731
1.679862 -0.181898 0.088552
1.409206 -0.152840 -0.275528
1.723273 -0.186903 0.151651
1.453229 -0.157871 -0.231523
1.803762 -0.195951 0.222777
