# This PCD file was generated using the MATLAB® pcwrite function
# from Computer Vision System Toolbox®.
# .PCD v.7 - Point Cloud Data file format
VERSION .7
FIELDS x y z
SIZE 4 4 4
TYPE F F F
COUNT 1 1 1
WIDTH 1645
HEIGHT 1
VIEWPOINT 0 0 0 1 0 0 0
POINTS 1645
DATA ascii
1.565678 -0.853281 -0.411660
1.556505 -0.848634 -0.344601
1.571169 -0.856985 -0.283459
1.577154 -0.860249 -0.220584
1.574056 -0.858916 -0.156880
1.581259 -0.863205 -0.094414
1.557558 -0.852032 -0.475709
1.564186 -0.856012 -0.411660
1.555021 -0.851349 -0.344601
1.564473 -0.856879 -0.282521
1.575650 -0.863001 -0.220584
1.565565 -0.857832 -0.156183
1.597264 -0.875564 -0.095461
1.554375 -0.853819 -0.475192
1.555859 -0.854987 -0.409861
1.560415 -0.857845 -0.346128
1.561244 -0.858656 -0.282208
1.589796 -0.874359 -0.222777
1.567557 -0.862484 -0.156532
1.574737 -0.866793 -0.094205
1.559649 -0.860262 -0.477262
1.547539 -0.853935 -0.408061
1.557196 -0.859618 -0.345746
1.563202 -0.863290 -0.282834
1.570890 -0.867536 -0.220340
1.571281 -0.868109 -0.157055
1.588954 -0.878235 -0.095147
1.558145 -0.862983 -0.477262
1.546046 -0.856635 -0.408061
1.559128 -0.864239 -0.346509
1.561693 -0.866017 -0.282834
1.581526 -0.877015 -0.222046
1.564537 -0.867951 -0.156532
1.571701 -0.872284 -0.094205
1.551572 -0.862884 -0.475709
1.549658 -0.862174 -0.409411
1.540463 -0.857410 -0.342693
1.560179 -0.868741 -0.282834
1.560915 -0.869151 -0.219365
1.559538 -0.868741 -0.156183
1.577155 -0.878915 -0.094623
1.538257 -0.858998 -0.472086
1.551553 -0.866778 -0.410311
1.550960 -0.866802 -0.345364
1.556936 -0.870499 -0.282521
1.580188 -0.883499 -0.222290
1.551064 -0.867571 -0.155486
1.596534 -0.893370 -0.095879
1.545180 -0.866406 -0.474674
1.546639 -0.867578 -0.409411
1.549445 -0.869508 -0.345364
1.550247 -0.870314 -0.281582
1.563065 -0.877510 -0.220096
1.549548 -0.870277 -0.155486
1.568854 -0.881480 -0.094309
1.538616 -0.866258 -0.473121
1.534935 -0.864538 -0.406712
1.542794 -0.869320 -0.344219
1.545436 -0.870808 -0.280956
1.561531 -0.880236 -0.220096
1.554968 -0.876895 -0.156183
1.577750 -0.890105 -0.094937
1.547192 -0.874646 -0.476227
1.542057 -0.871743 -0.408961
1.543135 -0.872708 -0.344601
1.550791 -0.877395 -0.282208
1.570357 -0.888827 -0.221558
1.560525 -0.883262 -0.156880
1.560708 -0.883726 -0.093995
1.539095 -0.873262 -0.474157
1.543922 -0.876357 -0.409861
1.533074 -0.870553 -0.342693
1.552693 -0.882052 -0.282834
1.551699 -0.881488 -0.219121
1.552052 -0.882046 -0.156183
1.562636 -0.888422 -0.094205
1.527497 -0.870209 -0.471051
1.542391 -0.879051 -0.409861
1.536668 -0.876145 -0.343838
1.542571 -0.879867 -0.281269
1.572574 -0.896980 -0.222290
1.543588 -0.880804 -0.155486
1.566287 -0.894119 -0.094519
1.534360 -0.877670 -0.473639
1.534088 -0.877870 -0.408061
1.545360 -0.884678 -0.346128
1.535891 -0.879613 -0.280331
1.552058 -0.888872 -0.219609
1.543777 -0.884487 -0.155660
1.578586 -0.904797 -0.095356
1.532826 -0.880346 -0.473639
1.532554 -0.880546 -0.408061
1.535303 -0.882482 -0.344219
1.541203 -0.886231 -0.281582
1.545341 -0.888611 -0.218877
1.547412 -0.890161 -0.156183
1.554501 -0.894600 -0.093995
1.531287 -0.883020 -0.473639
1.534391 -0.885167 -0.408961
1.530360 -0.883197 -0.343456
1.536232 -0.886944 -0.280956
1.554103 -0.897262 -0.220340
1.551032 -0.895850 -0.156706
1.552937 -0.897311 -0.093995
1.524728 -0.882788 -0.472086
1.529471 -0.885890 -0.408061
1.522021 -0.881930 -0.341930
1.536391 -0.890615 -0.281269
1.542230 -0.894000 -0.218877
1.533955 -0.889560 -0.155137
1.573827 -0.913050 -0.095356
1.519845 -0.883506 -0.471051
1.531291 -0.890517 -0.408961
1.517086 -0.882610 -0.341166
1.533127 -0.892301 -0.280956
1.562971 -0.909671 -0.222046
1.530678 -0.891233 -0.154963
1.560150 -0.908758 -0.094623
1.521638 -0.888105 -0.472086
1.526369 -0.891223 -0.408061
1.529105 -0.893179 -0.344219
1.528156 -0.892982 -0.280331
1.544242 -0.902382 -0.219609
1.530840 -0.894909 -0.155137
1.560286 -0.912488 -0.094728
1.520085 -0.890759 -0.472086
1.518087 -0.889944 -0.406262
1.525850 -0.894853 -0.343838
1.526595 -0.895648 -0.280331
1.549513 -0.909094 -0.220584
1.537867 -0.902622 -0.156009
1.543190 -0.906108 -0.093786
1.521858 -0.895370 -0.473121
1.524928 -0.897535 -0.408511
1.519211 -0.894526 -0.342693
1.530136 -0.901319 -0.281269
1.529110 -0.900714 -0.217902
1.541439 -0.908339 -0.156532
1.557091 -0.917929 -0.094728
1.510313 -0.892130 -0.470015
1.511616 -0.893255 -0.405362
1.515957 -0.896177 -0.342311
1.526860 -0.902983 -0.280956
1.546330 -0.914497 -0.220584
1.531277 -0.905956 -0.155660
1.538299 -0.910472 -0.093681
1.505431 -0.892794 -0.468980
1.520110 -0.901858 -0.408061
1.512702 -0.897820 -0.341930
1.521885 -0.903629 -0.280331
1.531077 -0.909087 -0.218634
1.515990 -0.900487 -0.154266
1.543576 -0.917237 -0.094100
1.510510 -0.899373 -0.471051
1.515185 -0.902515 -0.407161
1.512819 -0.901463 -0.342311
1.516912 -0.904261 -0.279705
1.546539 -0.921922 -0.221071
1.521261 -0.907213 -0.154963
1.538542 -0.917883 -0.093891
1.507280 -0.901017 -0.470533
1.500228 -0.897157 -0.403562
1.509559 -0.903094 -0.341930
1.518721 -0.908936 -0.280331
1.519377 -0.909329 -0.217415
1.523094 -0.911914 -0.155312
1.533511 -0.918514 -0.093681
1.507361 -0.904640 -0.471051
1.505343 -0.903786 -0.405362
1.507980 -0.905728 -0.341930
1.517292 -0.911320 -0.280331
1.538207 -0.924248 -0.220340
1.528331 -0.918677 -0.156009
1.528482 -0.919131 -0.093472
1.504125 -0.906273 -0.470533
1.513936 -0.912184 -0.408061
1.498149 -0.903028 -0.340022
1.517390 -0.914987 -0.280643
1.519594 -0.916678 -0.217902
1.520062 -0.916960 -0.155312
1.530456 -0.923595 -0.093681
1.492781 -0.902637 -0.467427
1.509007 -0.912808 -0.407161
1.503289 -0.909707 -0.341548
1.514101 -0.916611 -0.280331
1.535133 -0.929344 -0.220340
1.513346 -0.916515 -0.154789
1.528842 -0.926264 -0.093681
1.496158 -0.908248 -0.468980
1.500749 -0.911394 -0.405362
1.505055 -0.914368 -0.342311
1.505747 -0.915149 -0.279079
1.519938 -0.923774 -0.218390
1.511744 -0.919155 -0.154789
1.525517 -0.927893 -0.093577
1.492921 -0.909853 -0.468462
1.492500 -0.909954 -0.403562
1.510161 -0.921083 -0.343838
1.504148 -0.917775 -0.279079
1.528491 -0.932629 -0.219852
1.513539 -0.923868 -0.155137
1.518781 -0.927432 -0.093263
1.494626 -0.914473 -0.469498
1.495896 -0.915609 -0.404912
1.495157 -0.915515 -0.340785
1.505912 -0.922463 -0.279705
1.511626 -0.925963 -0.217659
1.515322 -0.928590 -0.155486
1.517160 -0.930081 -0.093263
1.494674 -0.918092 -0.470015
1.495956 -0.919239 -0.405362
1.491884 -0.917095 -0.340403
1.511031 -0.929229 -0.280956
1.510008 -0.928600 -0.217659
1.503517 -0.924970 -0.154440
1.518937 -0.934821 -0.093472
1.486492 -0.916643 -0.467945
1.494350 -0.921849 -0.405362
1.491952 -0.920729 -0.340785
1.499322 -0.925638 -0.279079
1.528654 -0.943747 -0.220584
1.495120 -0.923405 -0.153743
1.522400 -0.940620 -0.093786
1.489817 -0.922287 -0.469498
1.482798 -0.918299 -0.402662
1.490343 -0.923331 -0.340785
1.494346 -0.926172 -0.278453
1.508444 -0.934911 -0.217902
1.496893 -0.928113 -0.154091
1.510572 -0.936960 -0.093158
1.483283 -0.921826 -0.467945
1.487813 -0.925001 -0.404462
1.490396 -0.926968 -0.341166
1.489372 -0.926692 -0.277828
1.520294 -0.945932 -0.219852
1.496962 -0.931777 -0.154266
1.508935 -0.939594 -0.093158
1.488228 -0.928504 -0.470015
1.484543 -0.926565 -0.404012
1.483780 -0.926449 -0.340022
1.497805 -0.935569 -0.279705
1.498437 -0.935964 -0.216927
1.503782 -0.939667 -0.155137
1.508986 -0.943285 -0.093263
1.480056 -0.926998 -0.467945
1.484575 -0.930189 -0.404462
1.478834 -0.926951 -0.339258
1.496170 -0.938182 -0.279705
1.511938 -0.948069 -0.219121
1.492013 -0.935938 -0.154091
1.507337 -0.945918 -0.093263
1.475165 -0.927523 -0.466910
1.487898 -0.935892 -0.405812
1.477214 -0.929531 -0.339258
1.491187 -0.938687 -0.279079
1.500201 -0.944361 -0.217659
1.483633 -0.934294 -0.153394
1.509064 -0.950676 -0.093472
1.473544 -0.930097 -0.466910
1.476376 -0.932244 -0.403112
1.470610 -0.928962 -0.338114
1.486206 -0.939178 -0.278453
1.496872 -0.945918 -0.217415
1.490420 -0.942205 -0.154266
1.500650 -0.949038 -0.093053
1.470286 -0.931633 -0.466392
1.471455 -0.932733 -0.402213
1.477276 -0.936785 -0.340022
1.481229 -0.939654 -0.277828
1.506953 -0.955972 -0.219121
1.490456 -0.945872 -0.154440
1.498992 -0.951656 -0.093053
1.483329 -0.943529 -0.471051
1.474757 -0.938438 -0.403562
1.469014 -0.935144 -0.338495
1.482919 -0.944360 -0.278453
1.491887 -0.950071 -0.217171
1.487122 -0.947402 -0.154266
1.500697 -0.956418 -0.093263
1.467026 -0.936759 -0.466392
1.471474 -0.939962 -0.403112
1.465725 -0.936650 -0.338114
1.488092 -0.950943 -0.279705
1.488554 -0.951604 -0.216927
1.483788 -0.948922 -0.154091
1.492296 -0.954730 -0.092844
1.462136 -0.937234 -0.465357
1.478199 -0.947530 -0.405362
1.464252 -0.938951 -0.338114
1.476454 -0.947139 -0.277828
1.500256 -0.962778 -0.218877
1.473912 -0.945871 -0.153220
1.497517 -0.961389 -0.093263
1.462286 -0.940574 -0.465874
1.468349 -0.944836 -0.403112
1.467564 -0.944693 -0.339258
1.471477 -0.947575 -0.277202
1.483721 -0.955460 -0.216684
1.475608 -0.950600 -0.153568
1.492479 -0.961837 -0.093053
1.467134 -0.947317 -0.467945
1.455239 -0.939996 -0.399963
1.464264 -0.946187 -0.338877
1.473139 -0.952287 -0.277828
1.492054 -0.964514 -0.218146
1.478966 -0.956420 -0.154091
1.484091 -0.960101 -0.092635
1.467100 -0.950927 -0.468462
1.465042 -0.949956 -0.403112
1.456022 -0.944468 -0.337350
1.471475 -0.954857 -0.277828
1.475381 -0.957392 -0.215953
1.473952 -0.956830 -0.153743
1.485763 -0.964866 -0.092844
1.457342 -0.948218 -0.465874
1.461749 -0.951448 -0.402662
1.459307 -0.950222 -0.338495
1.471461 -0.958502 -0.278141
1.493668 -0.972967 -0.218877
1.472280 -0.959401 -0.153743
1.487423 -0.969639 -0.093053
1.452450 -0.948647 -0.464839
1.463349 -0.956130 -0.403562
1.457646 -0.952767 -0.338495
1.471439 -0.962149 -0.278453
1.475353 -0.964709 -0.216440
1.467269 -0.959788 -0.153394
1.492413 -0.976608 -0.093472
1.450792 -0.951181 -0.464839
1.458419 -0.956545 -0.402662
1.455981 -0.955310 -0.338495
1.463152 -0.960380 -0.277202
1.493582 -0.980353 -0.219365
1.468922 -0.964535 -0.153743
1.480690 -0.972632 -0.092844
1.458812 -0.960083 -0.467945
1.445353 -0.951588 -0.399513
1.452672 -0.956770 -0.338114
1.458174 -0.960759 -0.276576
1.471977 -0.969853 -0.216440
1.467237 -0.967097 -0.153743
1.475656 -0.973016 -0.092635
1.455522 -0.961563 -0.467427
1.443690 -0.954109 -0.399513
1.455913 -0.962552 -0.339258
1.463086 -0.967661 -0.277828
1.471938 -0.973516 -0.216684
1.468870 -0.971855 -0.154091
1.477286 -0.977794 -0.092844
1.449011 -0.960899 -0.465874
1.455014 -0.965245 -0.403112
1.441144 -0.956407 -0.336205
1.467978 -0.974583 -0.279079
1.475198 -0.979377 -0.217415
1.463852 -0.972213 -0.153743
1.475577 -0.980371 -0.092844
1.439291 -0.958074 -0.463286
1.456571 -0.969944 -0.404012
1.442741 -0.961097 -0.336969
1.459699 -0.972762 -0.277828
1.476790 -0.984152 -0.217902
1.452206 -0.968135 -0.152697
1.480510 -0.987378 -0.093263
1.442436 -0.963805 -0.464839
1.443535 -0.964904 -0.400863
1.452485 -0.971253 -0.339640
1.454715 -0.973112 -0.277202
1.466820 -0.981209 -0.216684
1.453826 -0.972884 -0.153045
1.465507 -0.981072 -0.092425
1.447169 -0.970625 -0.466910
1.438612 -0.965250 -0.399963
1.449157 -0.972692 -0.339258
1.456295 -0.977852 -0.277828
1.470049 -0.987088 -0.217415
1.455434 -0.977642 -0.153394
1.463793 -0.983628 -0.092425
1.442268 -0.970992 -0.465874
1.440158 -0.969937 -0.400863
1.442573 -0.971929 -0.338114
1.448034 -0.975976 -0.276576
1.458448 -0.982995 -0.215953
1.460333 -0.984636 -0.154091
1.472009 -0.992882 -0.093053
1.435769 -0.970262 -0.464321
1.440078 -0.973540 -0.401313
1.435996 -0.971146 -0.336969
1.456145 -0.985143 -0.278453
1.466595 -0.992213 -0.217415
1.448712 -0.980483 -0.153045
1.466966 -0.993210 -0.092844
1.427678 -0.968429 -0.462251
1.443214 -0.979335 -0.402662
1.434299 -0.973651 -0.336969
1.447886 -0.983244 -0.277202
1.468145 -0.997002 -0.217902
1.443702 -0.980771 -0.152697
1.465230 -0.995769 -0.092844
1.432373 -0.975268 -0.464321
1.433449 -0.976367 -0.400413
1.435842 -0.978364 -0.337732
1.439639 -0.981319 -0.275950
1.456561 -0.992854 -0.216440
1.445281 -0.985534 -0.153045
1.456890 -0.993823 -0.092425
1.438644 -0.983217 -0.466910
1.428526 -0.976668 -0.399513
1.435753 -0.981977 -0.338114
1.444618 -0.988040 -0.277202
1.459741 -0.998757 -0.217171
1.443558 -0.988055 -0.153045
1.455153 -0.996364 -0.092425
1.430553 -0.981355 -0.464839
1.423776 -0.976706 -0.398613
1.430971 -0.982009 -0.337350
1.442891 -0.990560 -0.277202
1.454723 -0.999056 -0.216684
1.445289 -0.992577 -0.153394
1.458525 -1.002042 -0.092739
1.421054 -0.978124 -0.462251
1.430094 -0.984715 -0.400863
1.421171 -0.978936 -0.335442
1.441160 -0.993077 -0.277202
1.448248 -0.997961 -0.215953
1.436993 -0.990575 -0.152697
1.455130 -1.003452 -0.092635
1.422523 -0.982799 -0.463286
1.423564 -0.983886 -0.399513
1.425919 -0.985881 -0.336969
1.436175 -0.993343 -0.276576
1.449769 -1.002745 -0.216440
1.431985 -0.990814 -0.152348
1.453376 -1.005990 -0.092635
1.417631 -0.983079 -0.462251
1.426648 -0.989701 -0.400863
1.429035 -0.991726 -0.338114
1.431194 -0.993595 -0.275950
1.454540 -1.009802 -0.217415
1.428617 -0.992175 -0.152174
1.448338 -1.006246 -0.092425
1.425426 -0.992173 -0.465357
1.415323 -0.985508 -0.398163
1.427302 -0.994219 -0.338114
1.435941 -1.000609 -0.277202
1.444632 -1.006665 -0.216196
1.431787 -0.998085 -0.152697
1.446579 -1.008772 -0.092425
1.426859 -0.996873 -0.466392
1.419990 -0.992442 -0.399963
1.417520 -0.991084 -0.336205
1.427717 -0.998585 -0.275950
1.437993 -1.005772 -0.215465
1.433308 -1.002867 -0.153045
1.446453 -1.012441 -0.092530
1.418790 -0.994925 -0.464321
1.415065 -0.992681 -0.399063
1.406146 -0.986790 -0.333916
1.432439 -1.005615 -0.277202
1.436235 -1.008280 -0.215465
1.431555 -1.005367 -0.153045
1.439781 -1.011520 -0.092216
1.412313 -0.994064 -0.462768
1.418111 -0.998515 -0.400413
1.412447 -0.994895 -0.335824
1.427452 -1.005838 -0.276576
1.440964 -1.015359 -0.216440
1.420027 -1.000977 -0.152000
1.444542 -1.018635 -0.092635
1.410576 -0.996527 -0.462768
1.414774 -0.999864 -0.399963
1.415517 -1.000759 -0.336969
1.425695 -1.008328 -0.276576
1.444052 -1.021311 -0.217171
1.421531 -1.005755 -0.152348
1.439502 -1.018847 -0.092425
1.408834 -0.998987 -0.462768
1.406669 -0.997821 -0.398163
1.413768 -1.003228 -0.336969
1.417665 -1.005993 -0.275325
1.430936 -1.015786 -0.215465
1.423023 -1.010542 -0.152697
1.436093 -1.020201 -0.092321
1.410236 -1.003685 -0.463804
1.405100 -1.000030 -0.398163
1.407393 -1.002032 -0.335824
1.419125 -1.010758 -0.275950
1.430778 -1.019434 -0.215709
1.421433 -1.012776 -0.152697
1.432862 -1.021296 -0.092216
1.405514 -1.003654 -0.462768
1.404938 -1.003613 -0.398613
1.402447 -1.002204 -0.335061
1.420573 -1.015531 -0.276576
1.429175 -1.021680 -0.215709
1.416422 -1.012937 -0.152348
1.431078 -1.023795 -0.092216
1.400619 -1.003855 -0.461733
1.403185 -1.006064 -0.398613
1.407077 -1.009227 -0.336587
1.418798 -1.018009 -0.276576
1.432228 -1.027645 -0.216440
1.414652 -1.015408 -0.152348
1.435778 -1.030951 -0.092635
1.405138 -1.010810 -0.463804
1.399845 -1.007373 -0.398163
1.405314 -1.011681 -0.336587
1.413813 -1.018175 -0.275950
1.428821 -1.028983 -0.216196
1.409645 -1.015546 -0.152000
1.429115 -1.029952 -0.092321
1.403372 -1.013261 -0.463804
1.391765 -1.005251 -0.396364
1.400363 -1.011833 -0.335824
1.412034 -1.020641 -0.275950
1.422197 -1.027986 -0.215465
1.414328 -1.022675 -0.152697
1.427316 -1.032445 -0.092321
1.404730 -1.017976 -0.464839
1.394742 -1.011110 -0.397713
1.395416 -1.011970 -0.335061
1.413448 -1.025424 -0.276576
1.415580 -1.026970 -0.214734
1.415766 -1.027482 -0.153045
1.425512 -1.034935 -0.092321
1.402951 -1.020426 -0.464839
1.392975 -1.013542 -0.397713
1.390473 -1.012093 -0.334297
1.411657 -1.027889 -0.276576
1.418600 -1.032944 -0.215465
1.401087 -1.020567 -0.151651
1.425317 -1.038597 -0.092425
1.393366 -1.017178 -0.462251
1.392778 -1.017121 -0.398163
1.395046 -1.019151 -0.335824
1.413050 -1.032682 -0.277202
1.426411 -1.042446 -0.216927
1.402521 -1.025363 -0.152000
1.431563 -1.046979 -0.092949
1.394705 -1.021892 -0.463286
1.389429 -1.018399 -0.397713
1.402765 -1.028550 -0.338114
1.403282 -1.029305 -0.275638
1.419787 -1.041412 -0.216196
1.403941 -1.030166 -0.152348
1.421683 -1.043566 -0.092425
1.402258 -1.031191 -0.466392
1.384510 -1.018512 -0.396814
1.405711 -1.034487 -0.339258
1.404664 -1.034095 -0.276263
1.419566 -1.045066 -0.216440
1.402141 -1.032615 -0.152348
1.415036 -1.042492 -0.092111
1.400456 -1.033637 -0.466392
1.379595 -1.018612 -0.395914
1.403903 -1.036939 -0.339258
1.406035 -1.038893 -0.276889
1.409757 -1.041643 -0.215221
1.400337 -1.035061 -0.152348
1.413214 -1.044960 -0.092111
1.392440 -1.031480 -0.464321
1.396603 -1.034942 -0.401313
1.394206 -1.033542 -0.337350
1.404220 -1.041345 -0.276889
1.407937 -1.044102 -0.215221
1.398528 -1.037503 -0.152348
1.409784 -1.046235 -0.092007
1.384437 -1.029299 -0.462251
1.380722 -1.026911 -0.397264
1.393975 -1.037146 -0.337732
1.399231 -1.041436 -0.276263
1.409297 -1.048928 -0.215709
1.396715 -1.039942 -0.152348
1.412761 -1.052273 -0.092321
1.379542 -1.029403 -0.461216
1.397667 -1.043307 -0.402662
1.396882 -1.043101 -0.338877
1.391081 -1.039147 -0.275012
1.413826 -1.056138 -0.216684
1.391706 -1.039993 -0.152000
1.409323 -1.053541 -0.092216
1.383928 -1.036441 -0.463286
1.380248 -1.034061 -0.398163
1.388775 -1.040828 -0.337350
1.392426 -1.043944 -0.275638
1.402451 -1.051460 -0.215221
1.389889 -1.042421 -0.152000
1.401092 -1.051205 -0.091797
1.385205 -1.041176 -0.464321
1.378441 -1.036468 -0.398163
1.397939 -1.051511 -0.340022
1.393942 -1.048504 -0.276263
1.400614 -1.053906 -0.215221
1.392843 -1.048440 -0.152523
1.400850 -1.054850 -0.091902
1.374133 -1.036612 -0.461216
1.370588 -1.033938 -0.396364
1.372779 -1.035967 -0.334297
1.395263 -1.053316 -0.276889
1.398772 -1.056349 -0.215221
1.386425 -1.047024 -0.152000
1.403973 -1.060661 -0.092216
1.372503 -1.038769 -0.461216
1.384318 -1.048092 -0.400863
1.386619 -1.050214 -0.338114
1.390457 -1.053121 -0.276263
1.403440 -1.063340 -0.216196
1.379832 -1.045832 -0.151477
1.403711 -1.064316 -0.092321
1.379918 -1.048174 -0.464321
1.367152 -1.038477 -0.396364
1.391221 -1.057142 -0.339640
1.379181 -1.048374 -0.274386
1.401582 -1.065788 -0.216196
1.379773 -1.049204 -0.151651
1.394089 -1.060474 -0.091797
1.378086 -1.050581 -0.464321
1.362057 -1.038737 -0.395464
1.379823 -1.052667 -0.337350
1.383447 -1.055813 -0.275638
1.401298 -1.069437 -0.216440
1.380923 -1.054269 -0.152000
1.396812 -1.066785 -0.092111
1.379319 -1.055332 -0.465357
1.378812 -1.055326 -0.400863
1.381101 -1.057460 -0.338114
1.384739 -1.060629 -0.276263
1.388398 -1.063431 -0.214734
1.382244 -1.059101 -0.152348
1.391778 -1.066791 -0.091902
1.368282 -1.050679 -0.462251
1.367695 -1.050608 -0.398163
1.373027 -1.055084 -0.336587
1.389150 -1.067860 -0.277515
1.389687 -1.068272 -0.215221
1.377235 -1.059083 -0.152000
1.391497 -1.070437 -0.092007
1.363386 -1.050707 -0.461216
1.382836 -1.066081 -0.403112
1.372738 -1.058678 -0.336969
1.381028 -1.065456 -0.276263
1.390964 -1.073121 -0.215709
1.372230 -1.059050 -0.151651
1.392788 -1.075305 -0.092216
1.367662 -1.057812 -0.463286
1.364020 -1.055375 -0.398163
1.373993 -1.063476 -0.337732
1.372919 -1.063027 -0.275012
1.392228 -1.077978 -0.216196
1.373530 -1.063884 -0.152000
1.386173 -1.074064 -0.091902
1.365814 -1.060198 -0.463286
1.362175 -1.057754 -0.398163
1.372135 -1.065872 -0.337732
1.371061 -1.065422 -0.275012
1.380940 -1.073098 -0.214734
1.374817 -1.068725 -0.152348
1.377990 -1.071578 -0.091483
1.367009 -1.064954 -0.464321
1.352642 -1.054141 -0.395914
1.371821 -1.069472 -0.338114
1.372315 -1.070243 -0.275638
1.382195 -1.077948 -0.215221
1.374520 -1.072348 -0.152523
1.371394 -1.070294 -0.091169
1.368192 -1.069718 -0.465357
1.369220 -1.070907 -0.401313
1.365313 -1.068236 -0.336969
1.375112 -1.076289 -0.276576
1.381875 -1.081582 -0.215465
1.364803 -1.068604 -0.151651
1.380530 -1.081307 -0.091902
1.380002 -1.082838 -0.470015
1.382678 -1.085327 -0.405812
1.388153 -1.090016 -0.343075
1.398968 -1.099298 -0.155660
1.397484 -1.098527 -0.093158
1.999161 -0.463381 -0.179541
2.044823 -0.474341 -0.110010
1.999878 -0.466490 -0.399172
2.029392 -0.474121 -0.182330
1.981759 -0.463358 -0.106661
1.989505 -0.467733 -0.397264
1.994016 -0.469161 -0.324445
2.015417 -0.474197 -0.254219
1.993652 -0.469443 -0.179192
1.990667 -0.469107 -0.107184
1.990877 -0.470990 -0.548179
1.975383 -0.468781 -0.177623
2.020936 -0.479964 -0.108859
1.965623 -0.468640 -0.541449
1.973246 -0.470822 -0.468348
1.959217 -0.467835 -0.391540
1.975075 -0.471987 -0.321629
1.982858 -0.473846 -0.250320
1.972624 -0.471765 -0.177449
2.006499 -0.480236 -0.108126
1.959249 -0.470374 -0.539897
1.972504 -0.473921 -0.468348
1.977568 -0.475502 -0.395356
1.982013 -0.476937 -0.322881
1.989831 -0.478818 -0.251295
1.962196 -0.472531 -0.176578
2.011567 -0.484792 -0.108440
1.969691 -0.476518 -0.543002
1.960310 -0.474611 -0.465649
1.976735 -0.478953 -0.395356
1.971579 -0.478068 -0.321316
1.992851 -0.483226 -0.251782
1.963304 -0.476424 -0.176752
1.971901 -0.478875 -0.106347
1.961349 -0.478125 -0.540932
1.959479 -0.478032 -0.465649
1.956824 -0.477746 -0.391540
1.974579 -0.482446 -0.321942
1.972721 -0.481992 -0.249345
1.962470 -0.479850 -0.176752
1.974942 -0.483265 -0.106556
1.962388 -0.482009 -0.541449
1.962427 -0.482381 -0.466549
1.963613 -0.483036 -0.393067
1.971816 -0.485419 -0.321629
1.985370 -0.488756 -0.251051
1.951957 -0.480892 -0.175880
1.977974 -0.487668 -0.106765
1.948416 -0.482184 -0.537826
1.955907 -0.484400 -0.465199
1.958955 -0.485518 -0.392303
1.978635 -0.490762 -0.322881
1.984514 -0.492220 -0.251051
1.954982 -0.485258 -0.176229
1.977120 -0.491119 -0.106765
1.943823 -0.484649 -0.536791
1.956949 -0.488285 -0.465649
1.958105 -0.488936 -0.392303
1.956695 -0.488947 -0.319439
1.975948 -0.493758 -0.250076
1.952199 -0.488186 -0.176055
1.966572 -0.492145 -0.106242
1.946721 -0.488983 -0.537826
1.942864 -0.488374 -0.462499
1.961057 -0.493311 -0.393067
1.955838 -0.492361 -0.319439
1.975083 -0.497206 -0.250076
1.947480 -0.490619 -0.175706
1.973457 -0.497529 -0.106661
1.945865 -0.492379 -0.537826
1.936342 -0.490329 -0.461150
1.962096 -0.497215 -0.393448
1.954976 -0.495774 -0.319439
1.970364 -0.499677 -0.249588
1.952414 -0.495487 -0.176229
1.972586 -0.500973 -0.106661
1.937515 -0.493866 -0.535755
1.941148 -0.495153 -0.462499
1.932691 -0.493355 -0.387724
1.950367 -0.497867 -0.318813
1.969489 -0.503115 -0.249588
1.945755 -0.497414 -0.175706
1.975578 -0.505405 -0.106870
1.921680 -0.493404 -0.531614
1.940367 -0.498202 -0.462499
1.937618 -0.497856 -0.388869
1.951408 -0.501763 -0.319126
1.968608 -0.506551 -0.249588
1.935324 -0.497987 -0.174834
1.970913 -0.507511 -0.106661
1.930255 -0.498838 -0.534203
1.933835 -0.500124 -0.461150
1.946250 -0.503697 -0.390777
1.944793 -0.503682 -0.318188
1.987026 -0.514620 -0.252026
1.940238 -0.502864 -0.175357
1.950692 -0.505936 -0.105614
1.918164 -0.499287 -0.531097
1.917873 -0.499568 -0.457550
1.930169 -0.503131 -0.387724
1.930530 -0.503585 -0.315998
1.959234 -0.511073 -0.248613
1.927790 -0.503230 -0.174311
1.951738 -0.509845 -0.105719
1.917290 -0.502634 -0.531097
1.915113 -0.502420 -0.457101
1.925490 -0.505502 -0.386961
1.931559 -0.507456 -0.316311
1.954499 -0.513482 -0.248126
1.926909 -0.506594 -0.174311
1.948914 -0.512742 -0.105614
1.920145 -0.506966 -0.532132
1.906697 -0.503771 -0.455301
1.905625 -0.503844 -0.383144
1.932580 -0.511331 -0.316623
1.949762 -0.515877 -0.247639
1.922170 -0.508936 -0.173963
1.951877 -0.517166 -0.105823
1.908056 -0.507338 -0.529026
1.918997 -0.510606 -0.458450
1.910434 -0.508684 -0.384289
1.927957 -0.513350 -0.315998
1.958449 -0.521835 -0.248857
1.917428 -0.511263 -0.173614
1.947112 -0.519542 -0.105614
1.903435 -0.509668 -0.527991
1.908780 -0.511099 -0.456201
1.922907 -0.515241 -0.386961
1.919426 -0.514668 -0.314746
1.932611 -0.518565 -0.245689
1.916623 -0.514275 -0.173614
1.940507 -0.521046 -0.105300
1.911959 -0.515170 -0.530579
1.907886 -0.514430 -0.456201
1.914423 -0.516551 -0.385434
1.918525 -0.518017 -0.314746
1.931794 -0.521600 -0.245689
1.919569 -0.518659 -0.173963
1.928026 -0.521305 -0.104672
1.911057 -0.518506 -0.530579
1.903224 -0.516738 -0.455301
1.900257 -0.516288 -0.382763
1.917618 -0.521365 -0.314746
1.934711 -0.526012 -0.246176
1.918661 -0.522008 -0.173963
1.930968 -0.525718 -0.104881
1.902694 -0.519804 -0.528508
1.904198 -0.520572 -0.455751
1.899353 -0.519604 -0.382763
1.920516 -0.525754 -0.315372
1.931876 -0.528864 -0.245932
1.910061 -0.523250 -0.173266
1.933900 -0.530144 -0.105091
1.890608 -0.520050 -0.525403
1.905166 -0.524412 -0.456201
1.892764 -0.521354 -0.381618
1.913882 -0.527530 -0.314433
1.936691 -0.533817 -0.246664
1.905303 -0.525524 -0.172917
1.936822 -0.534581 -0.105300
1.893421 -0.524381 -0.526438
1.894858 -0.525134 -0.453951
1.920230 -0.532527 -0.387342
1.901538 -0.527700 -0.312556
1.924280 -0.534012 -0.245201
1.908223 -0.529914 -0.173266
1.932038 -0.536891 -0.105091
1.896225 -0.528722 -0.527473
1.888307 -0.526870 -0.452602
1.904170 -0.531654 -0.384289
1.906321 -0.532613 -0.313495
1.934816 -0.540574 -0.246664
1.907295 -0.533244 -0.173266
1.923404 -0.538110 -0.104672
1.899019 -0.533075 -0.528508
1.887385 -0.530165 -0.452602
1.888119 -0.530726 -0.381236
1.905389 -0.535940 -0.313495
1.910938 -0.537500 -0.243739
1.906361 -0.536572 -0.173266
1.922462 -0.541466 -0.104672
1.886932 -0.533237 -0.525403
1.884581 -0.532928 -0.452152
1.885301 -0.533486 -0.380855
1.908252 -0.540341 -0.314120
1.923367 -0.544621 -0.245445
1.897754 -0.537726 -0.172568
1.923435 -0.545365 -0.104777
1.882282 -0.535472 -0.524367
1.891146 -0.538350 -0.453951
1.880590 -0.535700 -0.380092
1.903601 -0.542255 -0.313495
1.905232 -0.543079 -0.243251
1.892981 -0.539944 -0.172220
1.928242 -0.550366 -0.105091
1.885059 -0.539820 -0.525403
1.882804 -0.539174 -0.452152
1.885408 -0.540276 -0.381236
1.891259 -0.542310 -0.311617
1.927179 -0.552974 -0.246176
1.886385 -0.541269 -0.171697
1.925455 -0.552843 -0.104986
1.880496 -0.541711 -0.524367
1.874370 -0.540300 -0.450352
1.882576 -0.543022 -0.380855
1.890309 -0.545610 -0.311617
1.899606 -0.548293 -0.242764
1.893094 -0.546771 -0.172394
1.911057 -0.552321 -0.104253
1.886969 -0.547144 -0.526438
1.879039 -0.545200 -0.451702
1.877855 -0.545212 -0.380092
1.889354 -0.548908 -0.311617
1.902459 -0.552715 -0.243251
1.894050 -0.550631 -0.172568
1.908172 -0.555098 -0.104149
1.874884 -0.547189 -0.523332
1.878085 -0.548479 -0.451702
1.871247 -0.546836 -0.378947
1.892185 -0.553314 -0.312243
1.911018 -0.558821 -0.244470
1.885438 -0.551698 -0.171871
1.912951 -0.560111 -0.104463
1.866513 -0.548283 -0.521262
1.871515 -0.550107 -0.450352
1.864639 -0.548440 -0.377802
1.883636 -0.554384 -0.310992
1.910040 -0.562155 -0.244470
1.873004 -0.551610 -0.170825
1.917717 -0.565142 -0.104777
1.872963 -0.553730 -0.523332
1.874290 -0.554478 -0.451252
1.865562 -0.552250 -0.378183
1.882666 -0.557671 -0.310992
1.909056 -0.565488 -0.244470
1.879680 -0.557143 -0.171522
1.897580 -0.562809 -0.103730
1.864587 -0.554795 -0.521262
1.863981 -0.554968 -0.449002
1.872121 -0.557748 -0.379710
1.877904 -0.559827 -0.310366
1.906164 -0.568252 -0.244226
1.874886 -0.559284 -0.171174
1.894681 -0.565549 -0.103625
1.874720 -0.561373 -0.524367
1.863009 -0.558221 -0.449002
1.871145 -0.561014 -0.379710
1.880708 -0.564239 -0.310992
1.889958 -0.567014 -0.242276
1.879632 -0.564274 -0.171697
1.893691 -0.568855 -0.103625
1.862639 -0.561300 -0.521262
1.862032 -0.561471 -0.449002
1.860765 -0.561444 -0.377802
1.883502 -0.568663 -0.311617
1.896567 -0.572607 -0.243251
1.872922 -0.565825 -0.171174
1.894607 -0.572737 -0.103730
1.854262 -0.562307 -0.519191
1.864779 -0.565852 -0.449902
1.863540 -0.565831 -0.378565
1.878826 -0.570473 -0.310992
1.895565 -0.575917 -0.243251
1.868119 -0.567934 -0.170825
1.906980 -0.580112 -0.104463
1.856973 -0.566671 -0.520226
1.860160 -0.567643 -0.449002
1.860771 -0.568184 -0.378183
1.866493 -0.570288 -0.309115
1.886963 -0.576902 -0.242276
1.869130 -0.571450 -0.171000
1.894607 -0.579601 -0.103835
1.859774 -0.570720 -0.521262
1.849852 -0.568029 -0.446753
1.865406 -0.573161 -0.379328
1.869271 -0.574706 -0.309740
1.891747 -0.581616 -0.243007
1.866226 -0.574126 -0.170825
1.884049 -0.579969 -0.103311
1.851392 -0.571685 -0.519191
1.848858 -0.571256 -0.446753
1.847522 -0.571197 -0.375894
1.870152 -0.578551 -0.310053
1.883143 -0.582570 -0.242033
1.865221 -0.577382 -0.170825
1.890665 -0.585620 -0.103730
1.850391 -0.574916 -0.519191
1.853440 -0.576218 -0.448103
1.844648 -0.573837 -0.375512
1.874798 -0.583576 -0.310992
1.872647 -0.582906 -0.240814
1.862308 -0.580044 -0.170651
1.885826 -0.587731 -0.103521
1.842010 -0.575839 -0.517120
1.852432 -0.579452 -0.448103
1.847391 -0.578229 -0.376275
1.862466 -0.583305 -0.309115
1.882993 -0.589733 -0.242276
1.851787 -0.580315 -0.169779
1.882892 -0.590423 -0.103416
1.844688 -0.580212 -0.518156
1.838406 -0.578589 -0.444953
1.846379 -0.581452 -0.376275
1.853909 -0.584180 -0.307863
1.885747 -0.594212 -0.242764
1.854571 -0.584744 -0.170128
1.885668 -0.594911 -0.103625
1.843672 -0.583431 -0.518156
1.831820 -0.580032 -0.443603
1.849104 -0.585860 -0.377039
1.864185 -0.590996 -0.309740
1.869569 -0.592703 -0.240814
1.847851 -0.586173 -0.169605
1.873205 -0.594575 -0.102997
1.846333 -0.587820 -0.519191
1.834518 -0.584411 -0.444503
1.836856 -0.585509 -0.374749
1.855623 -0.591848 -0.308489
1.872314 -0.597172 -0.241301
1.860111 -0.593637 -0.170825
1.872164 -0.597844 -0.102997
1.845304 -0.591042 -0.519191
1.837207 -0.588802 -0.445403
1.830222 -0.586915 -0.373604
1.858349 -0.596293 -0.309115
1.859928 -0.596799 -0.239839
1.847690 -0.593228 -0.169779
1.874921 -0.602332 -0.103207
1.829560 -0.589521 -0.515050
1.839886 -0.593203 -0.446303
1.834801 -0.591917 -0.374749
1.849890 -0.596785 -0.307863
1.873996 -0.604923 -0.241789
1.842860 -0.595228 -0.169431
1.873867 -0.605604 -0.103207
1.835879 -0.595097 -0.517120
1.831537 -0.593689 -0.444503
1.835736 -0.595404 -0.375131
1.845088 -0.598793 -0.307237
1.869162 -0.606967 -0.241301
1.834343 -0.595660 -0.168734
1.859617 -0.604226 -0.102474
1.831268 -0.596782 -0.516085
1.819381 -0.593260 -0.441804
1.840293 -0.600434 -0.376275
1.847901 -0.602916 -0.307863
1.866319 -0.609286 -0.241058
1.837088 -0.600098 -0.169082
1.862356 -0.608712 -0.102683
1.837567 -0.602385 -0.518156
1.822151 -0.597331 -0.442704
1.818828 -0.596593 -0.372078
1.843092 -0.604909 -0.307237
1.859595 -0.610684 -0.240326
1.843715 -0.605470 -0.169779
1.867090 -0.613507 -0.102997
1.829174 -0.603171 -0.516085
1.821001 -0.600828 -0.442704
1.825136 -0.602546 -0.373604
1.845678 -0.609685 -0.307863
1.849101 -0.610816 -0.239108
1.834983 -0.606507 -0.169082
1.862116 -0.615836 -0.102788
1.813449 -0.601497 -0.511944
1.831046 -0.607689 -0.445403
1.822219 -0.605112 -0.373222
1.840862 -0.611660 -0.307237
1.857452 -0.617172 -0.240326
1.833921 -0.609709 -0.169082
1.864829 -0.620346 -0.102997
1.819727 -0.607107 -0.514015
1.818892 -0.607181 -0.442704
1.819298 -0.607669 -0.372841
1.828551 -0.611115 -0.305360
1.862020 -0.622300 -0.241058
1.830965 -0.612277 -0.168908
1.854273 -0.620431 -0.102474
1.818665 -0.610282 -0.514015
1.806745 -0.606633 -0.440004
1.820095 -0.611469 -0.373222
1.831226 -0.615564 -0.305986
1.836470 -0.617327 -0.237889
1.828005 -0.614836 -0.168734
1.851294 -0.623029 -0.102369
1.813936 -0.612220 -0.512979
1.809376 -0.611033 -0.440904
1.815305 -0.613388 -0.372459
1.833892 -0.620025 -0.306612
1.842911 -0.623074 -0.238864
1.828816 -0.618664 -0.168908
1.850204 -0.626260 -0.102369
1.812865 -0.615385 -0.512979
1.811998 -0.615443 -0.441804
1.810514 -0.615292 -0.371696
1.832807 -0.623224 -0.306612
1.839942 -0.625651 -0.238620
1.831506 -0.623139 -0.169256
1.852890 -0.630775 -0.102578
1.808131 -0.617299 -0.511944
1.812765 -0.619235 -0.442254
1.809438 -0.618451 -0.371696
1.831716 -0.626422 -0.306612
1.844482 -0.630788 -0.239351
1.813450 -0.620529 -0.167688
1.851786 -0.634008 -0.102578
1.803397 -0.619200 -0.510909
1.802466 -0.619232 -0.440004
1.806499 -0.620970 -0.371314
1.819412 -0.625764 -0.304734
1.843378 -0.634006 -0.239351
1.821784 -0.626935 -0.168559
1.850677 -0.637239 -0.102578
1.805966 -0.623607 -0.511944
1.801383 -0.622377 -0.440004
1.822112 -0.629895 -0.374749
1.814584 -0.627647 -0.304109
1.836641 -0.635276 -0.238620
1.822570 -0.630765 -0.168734
1.834463 -0.635240 -0.101741
1.808524 -0.628026 -0.512979
1.802135 -0.626159 -0.440454
1.802466 -0.626627 -0.370933
1.817217 -0.632111 -0.304734
1.829904 -0.636524 -0.237889
1.823348 -0.634600 -0.168908
1.839010 -0.640411 -0.102055
1.800130 -0.628634 -0.510909
1.799199 -0.628661 -0.440004
1.801370 -0.629772 -0.370933
1.819951 -0.636268 -0.305360
1.825043 -0.638406 -0.237402
1.812835 -0.634490 -0.168036
1.839775 -0.644280 -0.102160
1.795385 -0.630494 -0.509874
1.801887 -0.632778 -0.440904
1.798526 -0.631950 -0.370551
1.815111 -0.638133 -0.304734
1.827672 -0.642908 -0.237889
1.809956 -0.636676 -0.167862
1.842528 -0.648495 -0.102369
1.790749 -0.632028 -0.508838
1.793430 -0.633326 -0.439104
1.801122 -0.636396 -0.371314
1.808407 -0.639325 -0.303796
1.830402 -0.647101 -0.238376
1.805086 -0.638505 -0.167513
1.828214 -0.647045 -0.101636
1.793284 -0.636445 -0.509874
1.788649 -0.635151 -0.438205
1.800009 -0.639539 -0.371314
1.805427 -0.641819 -0.303483
1.829270 -0.650295 -0.238376
1.803969 -0.641655 -0.167513
1.825200 -0.649566 -0.101532
1.795810 -0.640872 -0.510909
1.787537 -0.638272 -0.438205
1.793343 -0.640698 -0.370169
1.804304 -0.644969 -0.303483
1.816917 -0.649477 -0.236914
1.810350 -0.647486 -0.168211
1.829705 -0.654769 -0.101846
1.783778 -0.640090 -0.507803
1.784587 -0.640732 -0.437755
1.786680 -0.641836 -0.369025
1.810611 -0.650789 -0.304734
1.813913 -0.651976 -0.236670
1.801718 -0.647948 -0.167513
1.828560 -0.657961 -0.101846
1.779024 -0.641891 -0.506768
1.787131 -0.645169 -0.438655
1.783710 -0.644286 -0.368643
1.802042 -0.651263 -0.303483
1.809038 -0.653791 -0.236183
1.793090 -0.648381 -0.166816
1.825531 -0.660472 -0.101741
1.781533 -0.646313 -0.507803
1.782339 -0.646958 -0.437755
1.788119 -0.649409 -0.369788
1.784193 -0.648335 -0.300667
1.809760 -0.657626 -0.236427
1.788210 -0.650148 -0.166467
1.820621 -0.662292 -0.101532
1.780402 -0.649421 -0.507803
1.772054 -0.646727 -0.435505
1.785139 -0.651855 -0.369406
1.790480 -0.654160 -0.301919
1.816068 -0.663508 -0.237402
1.794558 -0.656005 -0.167165
1.810084 -0.662038 -0.101008
1.782894 -0.653858 -0.508838
1.774582 -0.651161 -0.436405
1.783998 -0.654970 -0.369406
1.791190 -0.657965 -0.302231
1.798137 -0.660517 -0.235208
1.797150 -0.660510 -0.167513
1.816424 -0.667954 -0.101427
1.774499 -0.654296 -0.506768
1.767958 -0.652234 -0.435055
1.779169 -0.656723 -0.368643
1.801274 -0.664882 -0.304109
1.798843 -0.664342 -0.235452
1.788519 -0.660884 -0.166816
1.813382 -0.670430 -0.101322
1.767921 -0.655377 -0.505215
1.776067 -0.658397 -0.437305
1.770772 -0.656786 -0.367117
1.787146 -0.663214 -0.301919
1.803264 -0.669553 -0.236183
1.780008 -0.660918 -0.166119
1.812326 -0.673278 -0.101322
1.765079 -0.657479 -0.504697
1.767611 -0.658774 -0.435505
1.771463 -0.660561 -0.367498
1.774997 -0.661879 -0.300041
1.807790 -0.674467 -0.236914
1.776985 -0.663327 -0.165945
1.809278 -0.675741 -0.101218
1.767547 -0.661914 -0.505732
1.759274 -0.658816 -0.433706
1.775938 -0.665410 -0.368643
1.779388 -0.667057 -0.300980
1.797316 -0.674135 -0.235695
1.785268 -0.669616 -0.166816
1.796994 -0.674372 -0.100590
1.771813 -0.667040 -0.507285
1.759830 -0.662879 -0.434156
1.767309 -0.666048 -0.367117
1.778105 -0.670471 -0.300980
1.790565 -0.675170 -0.234964
1.785844 -0.673746 -0.166990
1.805039 -0.681347 -0.101113
1.761612 -0.666712 -0.504697
1.764138 -0.668020 -0.435505
1.767980 -0.669828 -0.367498
1.780626 -0.674974 -0.301606
1.785671 -0.676887 -0.234477
1.771625 -0.671916 -0.165770
1.803847 -0.684497 -0.101113
1.746001 -0.664290 -0.500556
1.762969 -0.671098 -0.435505
1.764973 -0.672214 -0.367117
1.775753 -0.676674 -0.300980
1.790052 -0.682123 -0.235208
1.764864 -0.672877 -0.165247
1.798918 -0.686220 -0.100904
1.752056 -0.670097 -0.502627
1.756335 -0.672084 -0.434156
1.760130 -0.673889 -0.366353
1.769036 -0.677652 -0.300041
1.785151 -0.683826 -0.234720
1.769268 -0.678096 -0.165770
1.792122 -0.687214 -0.100590
1.756294 -0.675233 -0.504180
1.751521 -0.673749 -0.433256
1.762616 -0.678370 -0.367117
1.773381 -0.682869 -0.300980
1.778398 -0.684800 -0.233989
1.771801 -0.682615 -0.166119
1.789057 -0.689622 -0.100485
1.751508 -0.676905 -0.503144
1.752161 -0.677508 -0.433706
1.754105 -0.678612 -0.365590
1.768502 -0.684537 -0.300354
1.775348 -0.687187 -0.233745
1.770607 -0.685707 -0.166119
1.785988 -0.692022 -0.100380
1.746723 -0.678562 -0.502109
1.747343 -0.679153 -0.432806
1.751089 -0.680961 -0.365208
1.770986 -0.689055 -0.300980
1.766746 -0.687405 -0.232770
1.758267 -0.684459 -0.165073
1.792222 -0.698038 -0.100799
1.736538 -0.678096 -0.499521
1.757045 -0.686457 -0.435505
1.749897 -0.684016 -0.365208
1.766101 -0.690706 -0.300354
1.772939 -0.693380 -0.233745
1.757070 -0.687527 -0.165073
1.785421 -0.698980 -0.100485
1.744344 -0.684655 -0.502109
1.746775 -0.685961 -0.433256
1.754183 -0.689223 -0.366353
1.757539 -0.690896 -0.299103
1.775421 -0.697925 -0.234233
1.755867 -0.690593 -0.165073
1.778623 -0.699901 -0.100171
1.743146 -0.687698 -0.502109
1.732887 -0.684000 -0.430106
1.752977 -0.692284 -0.366353
1.752657 -0.692511 -0.298477
1.766815 -0.698105 -0.233258
1.754659 -0.693656 -0.165073
1.769970 -0.700066 -0.099752
1.745535 -0.692164 -0.503144
1.738936 -0.689898 -0.431906
1.744467 -0.692445 -0.364827
1.755239 -0.696720 -0.299103
1.750835 -0.695326 -0.231308
1.755297 -0.697453 -0.165247
1.770601 -0.703892 -0.099857
1.733557 -0.690918 -0.500038
1.739660 -0.693350 -0.432356
1.737906 -0.693003 -0.363682
1.759524 -0.701979 -0.300041
1.755149 -0.700589 -0.232039
1.741247 -0.695039 -0.164027
1.765784 -0.705191 -0.099648
1.719915 -0.688613 -0.496415
1.740257 -0.697110 -0.432806
1.743984 -0.698956 -0.365208
1.741795 -0.698432 -0.297226
1.770629 -0.709994 -0.234233
1.741880 -0.698819 -0.164201
1.777525 -0.713480 -0.100380
1.727672 -0.695220 -0.499003
1.735422 -0.698691 -0.431906
1.739119 -0.700532 -0.364445
1.733245 -0.698518 -0.295974
1.762022 -0.710115 -0.233258
1.746201 -0.704093 -0.164724
1.767016 -0.712845 -0.099857
1.730037 -0.699683 -0.500038
1.723361 -0.697333 -0.429207
1.743353 -0.705777 -0.365590
1.743008 -0.705991 -0.297851
1.753421 -0.710209 -0.232283
1.739430 -0.704895 -0.164201
1.765769 -0.715928 -0.099857
1.732393 -0.704156 -0.501074
1.723946 -0.701074 -0.429657
1.727571 -0.702899 -0.362537
1.741773 -0.709032 -0.297851
1.737470 -0.707280 -0.230333
1.749269 -0.712439 -0.165247
1.755269 -0.715240 -0.099334
1.720431 -0.702796 -0.497968
1.728132 -0.706293 -0.431006
1.722707 -0.704427 -0.361774
1.740533 -0.712071 -0.297851
1.743582 -0.713318 -0.231308
1.736959 -0.710963 -0.164201
1.752170 -0.717546 -0.099229
1.712053 -0.702863 -0.495897
1.730502 -0.710789 -0.431906
1.726922 -0.709671 -0.362919
1.731980 -0.712103 -0.296600
1.746006 -0.717870 -0.231796
1.717290 -0.706413 -0.162458
1.761996 -0.725163 -0.099857
1.714396 -0.707323 -0.496933
1.722053 -0.710834 -0.430106
1.736569 -0.717181 -0.365208
1.730735 -0.715125 -0.296600
1.755759 -0.725465 -0.233258
1.723419 -0.712454 -0.163156
1.747809 -0.722894 -0.099124
1.711374 -0.709574 -0.496415
1.713610 -0.710852 -0.428307
1.728061 -0.717200 -0.363682
1.716713 -0.712842 -0.294410
1.732490 -0.719393 -0.230333
1.731373 -0.719283 -0.164027
1.746544 -0.725943 -0.099124
1.711916 -0.713303 -0.496933
1.708769 -0.712342 -0.427407
1.715935 -0.715681 -0.361392
1.724707 -0.719339 -0.295974
1.725736 -0.720122 -0.229602
1.728276 -0.721536 -0.163853
1.739746 -0.726681 -0.098810
1.707105 -0.714798 -0.495897
1.709446 -0.715778 -0.427857
1.714809 -0.718375 -0.361392
1.723449 -0.722349 -0.295974
1.718984 -0.720830 -0.228871
1.725303 -0.723480 -0.163678
1.744127 -0.731731 -0.099124
1.691733 -0.711487 -0.491756
1.713583 -0.721028 -0.429207
1.715362 -0.722129 -0.361774
1.715030 -0.721989 -0.294723
1.736144 -0.731235 -0.231308
1.711186 -0.721074 -0.162458
1.733646 -0.730895 -0.098601
1.697607 -0.717447 -0.493827
1.708858 -0.722201 -0.428307
1.712417 -0.724058 -0.361392
1.710128 -0.723442 -0.294097
1.742178 -0.737358 -0.232283
1.710051 -0.723761 -0.162458
1.734335 -0.734396 -0.098706
1.698130 -0.721163 -0.494344
1.702088 -0.723194 -0.426957
1.720058 -0.731184 -0.363300
1.705101 -0.725178 -0.293471
1.715314 -0.729521 -0.228871
1.714158 -0.729383 -0.162981
1.725571 -0.734595 -0.098287
1.702200 -0.726401 -0.495897
1.700823 -0.726164 -0.426957
1.718779 -0.734185 -0.363300
1.711098 -0.731258 -0.294723
1.710387 -0.730954 -0.228383
1.723874 -0.737073 -0.164027
1.727959 -0.739177 -0.098496
1.688501 -0.724041 -0.492274
1.701344 -0.729900 -0.427407
1.697650 -0.728666 -0.359103
1.713450 -0.735802 -0.295348
1.723701 -0.740204 -0.230333
1.707940 -0.733789 -0.162633
1.734006 -0.745346 -0.098915
1.685460 -0.726223 -0.491756
1.705436 -0.735182 -0.428757
1.703587 -0.734738 -0.360629
1.701280 -0.734095 -0.293471
1.722407 -0.743211 -0.230333
1.690194 -0.729662 -0.161064
1.727201 -0.745996 -0.098601
1.689509 -0.731466 -0.493309
1.696997 -0.735060 -0.426957
1.704103 -0.738491 -0.361011
1.699996 -0.737064 -0.293471
1.717464 -0.744637 -0.229846
1.698057 -0.736575 -0.161935
1.724065 -0.748214 -0.098496
1.682915 -0.732102 -0.491756
1.684991 -0.733354 -0.424258
1.706412 -0.743031 -0.361774
1.691464 -0.736874 -0.292220
1.712522 -0.746048 -0.229358
1.711381 -0.745906 -0.163330
1.715433 -0.748029 -0.098078
1.699336 -0.742775 -0.496933
1.689065 -0.738636 -0.425607
1.694320 -0.741287 -0.359484
1.693794 -0.741409 -0.292845
1.693032 -0.741076 -0.226921
1.706426 -0.747293 -0.162981
1.710466 -0.749418 -0.097868
1.676812 -0.736418 -0.490721
1.684205 -0.740015 -0.424708
1.689429 -0.742663 -0.358721
1.703347 -0.749136 -0.294723
1.691736 -0.744029 -0.226921
1.690530 -0.743851 -0.161587
1.716467 -0.755621 -0.098287
1.671989 -0.737784 -0.489686
1.695390 -0.748463 -0.427857
1.693518 -0.747990 -0.359866
1.687712 -0.745426 -0.292220
1.694067 -0.748586 -0.227408
1.683762 -0.744384 -0.161064
1.724279 -0.762655 -0.098810
1.668933 -0.739918 -0.489168
1.683523 -0.746386 -0.425157
1.688752 -0.749057 -0.359103
1.682798 -0.746768 -0.291594
1.707272 -0.757985 -0.229358
1.695338 -0.752687 -0.162284
1.697525 -0.754012 -0.097345
1.674828 -0.745681 -0.491239
1.669757 -0.743773 -0.422008
1.691028 -0.753602 -0.359866
1.681492 -0.749704 -0.291594
1.700640 -0.758241 -0.228627
1.684924 -0.751586 -0.161412
1.688910 -0.753718 -0.096926
1.677051 -0.750181 -0.492274
1.670235 -0.747482 -0.422458
1.678959 -0.751738 -0.357576
1.683786 -0.754252 -0.292220
1.683009 -0.753904 -0.226433
1.690882 -0.757785 -0.162110
1.687592 -0.756665 -0.096926
1.666928 -0.749147 -0.489686
1.668928 -0.750396 -0.422458
1.672274 -0.752251 -0.356431
1.693275 -0.762054 -0.294097
1.679881 -0.756026 -0.226190
1.675023 -0.754191 -0.160715
1.709943 -0.770273 -0.098287
1.660336 -0.749671 -0.488133
1.676495 -0.757319 -0.424708
1.669169 -0.754360 -0.356050
1.677543 -0.758497 -0.291594
1.694838 -0.766317 -0.228383
1.677335 -0.758756 -0.161064
1.697678 -0.768315 -0.097659
1.657266 -0.751769 -0.487615
1.668073 -0.757022 -0.422908
1.671425 -0.758896 -0.356813
1.665426 -0.756522 -0.289717
1.700727 -0.772558 -0.229358
1.668753 -0.758385 -0.160367
1.703607 -0.774584 -0.098078
1.655951 -0.754661 -0.487615
1.657883 -0.755890 -0.420658
1.677243 -0.765071 -0.358339
1.660509 -0.757788 -0.289091
1.688541 -0.770580 -0.227896
1.680113 -0.767089 -0.161587
1.680452 -0.767598 -0.096822
1.663414 -0.761571 -0.490203
1.663648 -0.762029 -0.422458
1.666981 -0.763907 -0.356431
1.660979 -0.761508 -0.289404
1.672757 -0.766908 -0.225946
1.676961 -0.769189 -0.161412
1.695447 -0.778027 -0.097764
1.658572 -0.762858 -0.489168
1.658775 -0.763302 -0.421558
1.665645 -0.766816 -0.356431
1.672207 -0.770190 -0.291594
1.671416 -0.769826 -0.225946
1.662949 -0.766278 -0.160192
1.674135 -0.771787 -0.096612
1.643209 -0.759269 -0.485027
1.666285 -0.770285 -0.423808
1.662523 -0.768898 -0.356050
1.654725 -0.765642 -0.288778
1.688086 -0.781078 -0.228383
1.659801 -0.768342 -0.160018
1.699970 -0.787298 -0.098182
1.648890 -0.765389 -0.487097
1.650798 -0.766625 -0.420209
1.668300 -0.775107 -0.357576
1.653387 -0.768529 -0.288778
1.670519 -0.776493 -0.226190
1.660264 -0.772078 -0.160192
1.669620 -0.776783 -0.096508
1.645801 -0.767450 -0.486580
1.638862 -0.764562 -0.417509
1.666945 -0.778018 -0.357576
1.650253 -0.770578 -0.288465
1.678155 -0.783606 -0.227408
1.664330 -0.777505 -0.160715
1.684546 -0.787307 -0.097450
1.656705 -0.776057 -0.490203
1.644583 -0.770729 -0.419309
1.654919 -0.775925 -0.355286
1.652482 -0.775135 -0.289091
1.658812 -0.778104 -0.224971
1.662970 -0.780408 -0.160715
1.668706 -0.783455 -0.096612
1.641364 -0.772367 -0.486062
1.644998 -0.774428 -0.419759
1.644681 -0.774630 -0.353378
1.663635 -0.783912 -0.291281
1.659248 -0.781844 -0.225215
1.654397 -0.779911 -0.160018
1.665530 -0.785515 -0.096508
1.636521 -0.773580 -0.485027
1.652453 -0.781464 -0.422008
1.646876 -0.779178 -0.354142
1.644410 -0.778363 -0.288152
1.677617 -0.794081 -0.227896
1.644030 -0.778534 -0.159146
1.660546 -0.786710 -0.096298
1.636913 -0.777263 -0.485545
1.647566 -0.782674 -0.421108
1.647287 -0.782894 -0.354523
1.641401 -0.780097 -0.287839
1.661887 -0.790188 -0.225946
1.642668 -0.781402 -0.159146
1.680812 -0.799906 -0.097554
1.637298 -0.780951 -0.486062
1.632263 -0.778550 -0.417509
1.649599 -0.787172 -0.355286
1.643602 -0.784662 -0.288465
1.673044 -0.799076 -0.227652
1.650428 -0.788275 -0.160018
1.654324 -0.790490 -0.096089
1.636069 -0.783522 -0.486062
1.630902 -0.781397 -0.417509
1.635830 -0.784109 -0.352615
1.640449 -0.786676 -0.288152
1.648518 -0.790545 -0.224483
1.650846 -0.792016 -0.160192
1.649341 -0.791648 -0.095879
1.629476 -0.783864 -0.484509
1.638315 -0.788468 -0.419759
1.630921 -0.785260 -0.351852
1.651531 -0.795539 -0.290342
1.661443 -0.800313 -0.226433
1.645872 -0.793166 -0.159844
1.674943 -0.807536 -0.097450
1.615930 -0.780823 -0.480886
1.638691 -0.792174 -0.420209
1.631315 -0.788960 -0.352233
1.632359 -0.789816 -0.287214
1.642174 -0.794565 -0.223996
1.633725 -0.790829 -0.158798
1.653757 -0.800882 -0.096298
1.619778 -0.786173 -0.482439
1.630294 -0.791628 -0.418409
1.635234 -0.794380 -0.353378
1.627425 -0.790937 -0.286588
1.647926 -0.800901 -0.224971
1.639509 -0.797164 -0.159495
1.645173 -0.800273 -0.095879
1.621876 -0.790692 -0.483474
1.620152 -0.790201 -0.416159
1.628551 -0.794650 -0.352233
1.629731 -0.795225 -0.287214
1.641174 -0.801163 -0.224240
1.634535 -0.798276 -0.159146
1.661719 -0.811911 -0.096926
1.622229 -0.794371 -0.483992
1.622409 -0.794459 -0.417059
1.629064 -0.798070 -0.352615
1.633662 -0.800676 -0.288152
1.634427 -0.801405 -0.223508
1.636857 -0.802597 -0.159495
1.635338 -0.802206 -0.095461
1.617512 -0.795213 -0.482956
1.622769 -0.798150 -0.417509
1.617100 -0.795712 -0.350325
1.634034 -0.804399 -0.288465
1.656319 -0.815369 -0.226677
1.631879 -0.803692 -0.159146
1.657226 -0.816534 -0.096822
1.607461 -0.793758 -0.480368
1.628362 -0.804433 -0.419309
1.622749 -0.802012 -0.351852
1.625545 -0.803747 -0.287214
1.635319 -0.808580 -0.223996
1.625116 -0.803888 -0.158623
1.652218 -0.817654 -0.096612
1.606073 -0.796563 -0.480368
1.618227 -0.802943 -0.417059
1.626622 -0.807462 -0.352997
1.617062 -0.803069 -0.285962
1.637461 -0.813199 -0.224483
1.627279 -0.808497 -0.158972
1.652577 -0.821425 -0.096717
1.613326 -0.803672 -0.482956
1.609847 -0.802289 -0.415260
1.621696 -0.808548 -0.352233
1.615658 -0.805890 -0.285962
1.628934 -0.812512 -0.223508
1.622300 -0.809556 -0.158623
1.627911 -0.812711 -0.095356
1.610193 -0.805622 -0.482439
1.608444 -0.805098 -0.415260
1.615016 -0.808740 -0.351089
1.614249 -0.808708 -0.285962
1.638162 -0.820688 -0.224971
1.628009 -0.815957 -0.159321
1.637202 -0.820922 -0.095984
1.603606 -0.805829 -0.480886
1.608778 -0.808779 -0.415710
1.597817 -0.803618 -0.347654
1.619894 -0.815076 -0.287214
1.620768 -0.815516 -0.222777
1.619464 -0.815214 -0.158623
1.642902 -0.827372 -0.096403
1.593574 -0.804274 -0.478298
1.610843 -0.813342 -0.416609
1.598164 -0.807291 -0.348036
1.614943 -0.816120 -0.286588
1.640603 -0.829087 -0.225702
1.616261 -0.817140 -0.158449
1.625415 -0.822125 -0.095461
1.604230 -0.813168 -0.481921
1.605945 -0.814390 -0.415710
1.603756 -0.813632 -0.349562
1.604708 -0.814467 -0.285024
