# This PCD file was generated using the MATLAB® pcwrite function
# from Computer Vision System Toolbox®.
# .PCD v.7 - Point Cloud Data file format
VERSION .7
FIELDS x y z
SIZE 4 4 4
TYPE F F F
COUNT 1 1 1
WIDTH 1685
HEIGHT 1
VIEWPOINT 0 0 0 1 0 0 0
POINTS 1685
DATA ascii
1.272696 -0.819882 0.079341
1.264426 -0.814867 0.131605
1.232328 -0.794790 -0.128293
1.258697 -0.812108 -0.078504
1.256730 -0.811150 -0.026109
1.269598 -0.820712 0.026388
1.276294 -0.825356 0.079655
1.279730 -0.827894 0.133348
1.245992 -0.806685 -0.129862
1.245543 -0.806703 -0.077771
1.260347 -0.816604 -0.026214
1.268164 -0.822926 0.026388
1.268151 -0.823232 0.079237
1.274941 -0.827957 0.133000
1.276323 -0.829487 -0.133174
1.247482 -0.811053 -0.077981
1.265625 -0.823164 -0.026353
1.273428 -0.829504 0.026528
1.268385 -0.826535 0.079341
1.270156 -0.828004 0.132651
1.259445 -0.821962 -0.078818
1.254140 -0.818812 -0.026144
1.268631 -0.829537 0.026458
1.266941 -0.828747 0.079341
1.253705 -0.820401 0.131082
1.249655 -0.818686 -0.078295
1.259399 -0.825384 -0.026283
1.263838 -0.829555 0.026388
1.278849 -0.839727 0.080179
1.265593 -0.831339 0.132477
1.239881 -0.815379 -0.077771
1.254616 -0.825383 -0.026214
1.265728 -0.833960 0.026458
1.270711 -0.837561 0.079760
1.274120 -0.840127 0.133523
1.251791 -0.826344 -0.078609
1.264854 -0.835285 -0.026458
1.264270 -0.836168 0.026458
1.265916 -0.837574 0.079551
1.266006 -0.837951 0.132825
1.251727 -0.829757 -0.026214
1.271139 -0.843903 0.026632
1.267779 -0.841992 0.079760
1.266201 -0.841262 0.133000
1.253606 -0.834156 -0.026283
1.268000 -0.845012 0.026597
1.269632 -0.846419 0.079969
1.259758 -0.840154 0.132477
1.247160 -0.833011 -0.026179
1.261537 -0.843888 0.026493
1.278111 -0.855298 0.080597
1.261601 -0.844568 0.132825
1.250687 -0.838527 -0.026283
1.265043 -0.849433 0.026597
1.265011 -0.849732 0.079865
1.266740 -0.851214 0.133523
1.245904 -0.838476 -0.026214
1.263558 -0.851639 0.026597
1.265182 -0.853055 0.079969
1.270208 -0.856766 0.134046
1.251066 -0.845126 -0.026353
1.270351 -0.859446 0.026772
1.260383 -0.853023 0.079760
1.258960 -0.852060 0.133000
1.259073 -0.854702 0.026563
1.267303 -0.860612 0.080283
1.257471 -0.854256 0.133000
1.255926 -0.855772 0.026528
1.272401 -0.867322 0.080702
1.259421 -0.858474 0.133348
1.254431 -0.857962 0.026528
1.267588 -0.867286 0.080493
1.265991 -0.866517 0.134220
1.252901 -0.860452 0.079655
1.261192 -0.866469 0.133871
1.254687 -0.864904 0.079865
1.276080 -0.879980 0.135614
1.263030 -0.873911 0.080493
1.253245 -0.867465 0.133348
1.264783 -0.878393 0.080702
1.273001 -0.884429 0.135614
1.253418 -0.873746 0.080074
1.258381 -0.877532 0.134220
1.256800 -0.879367 0.080388
1.263377 -0.884297 0.134917
1.265092 -0.888792 0.135266
1.252141 -0.882961 0.134046
1.386098 0.200975 -0.375288
1.386447 0.198555 -0.375288
1.358099 0.192078 -0.367523
1.354606 0.189172 -0.366488
1.372158 0.189182 -0.371147
1.351397 0.184158 -0.365452
1.344058 0.180768 -0.363382
1.373223 0.184447 -0.319880
1.336711 0.177406 -0.361311
1.369679 0.181538 -0.318981
1.344681 0.176076 -0.363382
1.346806 0.176115 -0.313582
1.337322 0.172739 -0.361311
1.352909 0.174512 -0.314931
1.345287 0.171381 -0.363382
1.357078 0.172642 -0.315831
1.341751 0.168551 -0.362347
1.353510 0.169788 -0.314931
1.330540 0.164784 -0.359241
1.348003 0.166709 -0.313582
1.334661 0.162931 -0.360276
1.350226 0.164591 -0.314032
1.338779 0.161062 -0.361311
1.333098 0.160143 -0.309983
1.350569 0.160090 -0.364417
1.341116 0.158731 -0.311782
1.335495 0.155939 -0.360276
1.341391 0.156391 -0.311782
1.331927 0.153167 -0.359241
1.351342 0.155161 -0.314032
1.336032 0.151277 -0.360276
1.343839 0.152161 -0.312232
1.390940 0.157248 -0.272094
1.332428 0.148749 -0.359241
1.344102 0.149815 -0.312232
1.385359 0.154169 -0.270949
1.344207 0.147690 -0.362347
1.340462 0.147278 -0.311332
1.352423 0.148354 -0.264461
1.344488 0.145109 -0.362347
1.354330 0.145932 -0.314482
1.346875 0.144891 -0.263316
1.333213 0.141538 -0.359241
1.346806 0.142981 -0.312682
1.351005 0.143189 -0.264080
1.337276 0.139846 -0.360276
1.347054 0.140631 -0.312682
1.355158 0.141238 -0.264843
1.337519 0.137511 -0.360276
1.327911 0.136290 -0.308183
1.367121 0.140073 -0.267133
1.345445 0.135954 -0.362347
1.337842 0.134949 -0.310432
1.341970 0.135129 -0.262172
1.345680 0.133605 -0.362347
1.345832 0.133383 -0.312232
1.348065 0.133367 -0.263316
1.380001 0.136283 -0.219634
1.322838 0.129006 -0.356135
1.353821 0.131789 -0.314032
1.350249 0.131204 -0.263698
1.366474 0.132540 -0.217444
1.326908 0.127065 -0.357170
1.344350 0.128499 -0.311782
1.354385 0.129220 -0.264461
1.360804 0.129592 -0.216505
1.330974 0.125111 -0.358206
1.336811 0.125425 -0.309983
1.354608 0.126855 -0.264461
1.361028 0.127217 -0.216505
1.338885 0.123498 -0.360276
1.335087 0.122912 -0.309533
1.354828 0.124491 -0.264461
1.371084 0.125744 -0.218070
1.331403 0.120464 -0.358206
1.339182 0.120933 -0.310432
1.347222 0.121422 -0.262935
1.363431 0.122643 -0.216818
1.323914 0.117458 -0.356135
1.347155 0.119282 -0.312232
1.349387 0.119243 -0.263316
1.367579 0.120610 -0.217444
1.331815 0.115816 -0.358206
1.345420 0.116763 -0.311782
1.353505 0.117227 -0.264080
1.359915 0.117542 -0.216192
1.335865 0.113819 -0.359241
1.337855 0.113754 -0.309983
1.355664 0.115030 -0.264461
1.360118 0.115169 -0.216192
1.376698 0.116572 -0.169642
1.336061 0.111488 -0.359241
1.330283 0.110772 -0.308183
1.349993 0.112176 -0.263316
1.364254 0.113122 -0.216818
1.374921 0.114006 -0.169398
1.332403 0.108841 -0.358206
1.344070 0.109558 -0.311332
1.344316 0.109342 -0.262172
1.364450 0.110740 -0.216818
1.371160 0.111285 -0.168911
1.324888 0.105900 -0.356135
1.346202 0.107367 -0.311782
1.342548 0.106840 -0.261790
1.356745 0.107970 -0.215567
1.375310 0.109206 -0.169398
1.328923 0.103888 -0.357170
1.340541 0.104796 -0.310432
1.348586 0.105189 -0.262935
1.351023 0.105142 -0.214628
1.381436 0.107266 -0.170130
1.332937 0.102096 -0.358206
1.323234 0.101120 -0.306383
1.356598 0.103433 -0.264461
1.359084 0.103383 -0.215880
1.367747 0.104042 -0.168423
1.380740 0.104788 -0.121146
1.340819 0.100346 -0.360276
1.344785 0.100408 -0.311332
1.346987 0.100335 -0.262553
1.359262 0.101011 -0.215880
1.365947 0.101508 -0.168180
1.374960 0.101936 -0.120624
1.325578 0.096879 -0.356135
1.335240 0.097351 -0.309083
1.337370 0.097272 -0.260645
1.359436 0.098638 -0.215880
1.374042 0.099698 -0.169155
1.351290 0.097810 -0.118532
1.321892 0.094291 -0.355100
1.349015 0.095989 -0.312232
1.343413 0.095354 -0.261790
1.357636 0.096126 -0.215567
1.372234 0.097160 -0.168911
1.345496 0.095031 -0.118009
1.368724 0.096431 -0.071910
1.325909 0.092252 -0.356135
1.325852 0.092015 -0.306833
1.347494 0.093281 -0.262553
1.355831 0.093621 -0.215254
1.374381 0.094902 -0.169155
1.355598 0.093366 -0.118880
1.384831 0.095137 -0.072747
1.326068 0.089937 -0.356135
1.335732 0.090359 -0.309083
1.335902 0.090136 -0.260263
1.357963 0.091386 -0.215567
1.368603 0.092102 -0.168423
1.351783 0.090733 -0.118532
1.377024 0.092186 -0.072328
1.337788 0.088387 -0.359241
1.337832 0.088155 -0.309533
1.343894 0.088319 -0.261790
1.358121 0.089016 -0.215567
1.366781 0.089584 -0.168180
1.363868 0.089154 -0.119578
1.383162 0.090173 -0.072642
1.326373 0.085308 -0.356135
1.328260 0.085197 -0.307283
1.328372 0.084971 -0.258737
1.360245 0.086771 -0.215880
1.366935 0.087198 -0.168180
1.356068 0.086267 -0.118880
1.393283 0.088391 -0.073166
1.318808 0.082511 -0.354064
1.345911 0.083971 -0.311332
1.350072 0.083993 -0.262935
1.350537 0.083786 -0.214315
1.371048 0.085058 -0.168667
1.354228 0.083777 -0.118706
1.391442 0.085835 -0.073061
1.322807 0.080443 -0.355100
1.328549 0.080559 -0.307283
1.332579 0.080571 -0.259500
1.336878 0.080596 -0.212125
1.375157 0.082904 -0.169155
1.352384 0.081294 -0.118532
1.383615 0.082930 -0.072642
1.330659 0.078590 -0.357170
1.330633 0.078355 -0.307733
1.332718 0.078245 -0.259500
1.346877 0.078840 -0.213690
1.367373 0.080040 -0.168180
1.356502 0.079166 -0.118880
1.369800 0.079702 -0.071910
1.334651 0.076488 -0.358206
1.328822 0.075922 -0.307283
1.348533 0.076812 -0.262553
1.347013 0.076489 -0.213690
1.367511 0.077653 -0.168180
1.356638 0.076798 -0.118880
1.365949 0.077086 -0.071700
1.393584 0.078402 -0.024364
1.327067 0.073730 -0.356135
1.334790 0.073926 -0.308633
1.332983 0.073592 -0.259500
1.357006 0.074680 -0.215254
1.367644 0.075266 -0.168180
1.356770 0.074430 -0.118880
1.366082 0.074702 -0.071700
1.391722 0.075860 -0.024329
1.319478 0.070999 -0.354064
1.332971 0.071491 -0.308183
1.331149 0.071160 -0.259119
1.349244 0.071892 -0.214002
1.369756 0.072985 -0.168423
1.352918 0.071851 -0.118532
1.374188 0.072740 -0.072119
1.397843 0.073748 -0.024433
1.323458 0.068896 -0.355100
1.340878 0.069569 -0.309983
1.344996 0.069547 -0.261790
1.347394 0.069435 -0.213690
1.375828 0.070900 -0.169155
1.353042 0.069489 -0.118532
1.370323 0.070138 -0.071910
1.395972 0.071206 -0.024398
1.323576 0.066586 -0.355100
1.319589 0.066155 -0.305034
1.335311 0.066710 -0.259882
1.339622 0.066691 -0.212438
1.366037 0.068006 -0.167936
1.353161 0.067128 -0.118532
1.366454 0.067548 -0.071700
1.386108 0.068277 -0.024224
1.327550 0.064463 -0.356135
1.337220 0.064699 -0.309083
1.343269 0.064757 -0.261408
1.339725 0.064586 -0.212438
1.366153 0.065621 -0.167936
1.361236 0.065147 -0.119229
1.370560 0.065354 -0.071910
1.358261 0.064529 -0.023735
1.323801 0.061966 -0.355100
1.329534 0.062235 -0.307283
1.319836 0.061550 -0.256829
1.359568 0.063164 -0.215567
1.362300 0.063053 -0.167448
1.349396 0.062456 -0.118183
1.374651 0.063385 -0.072119
1.372344 0.063038 -0.023980
1.314247 0.059450 -0.352512
1.347161 0.060704 -0.311332
1.341515 0.060214 -0.261027
1.339942 0.059909 -0.212438
1.368357 0.060941 -0.168180
1.349502 0.060101 -0.118183
1.378750 0.061162 -0.072328
1.378445 0.060907 -0.024084
1.316289 0.057010 -0.353029
1.335584 0.057846 -0.308633
1.322004 0.057027 -0.257211
1.336098 0.057402 -0.211812
1.380361 0.059061 -0.169642
1.349615 0.057510 -0.118183
1.366892 0.058008 -0.071700
1.378559 0.058261 -0.024084
1.324107 0.055034 -0.355100
1.331798 0.055120 -0.307733
1.349573 0.055620 -0.262553
1.344091 0.055394 -0.213064
1.358645 0.055757 -0.166961
1.353695 0.055316 -0.118532
1.363000 0.055459 -0.071491
1.386651 0.056179 -0.024224
1.331923 0.053030 -0.357170
1.327989 0.052873 -0.306833
1.332004 0.052801 -0.259119
1.348133 0.053204 -0.213690
1.360723 0.053463 -0.167205
1.361744 0.053503 -0.119229
1.367077 0.053474 -0.071700
1.374749 0.053534 -0.024015
1.324282 0.050642 -0.355100
1.396766 0.053414 0.024398
1.347552 0.051297 -0.311332
1.336017 0.050625 -0.259882
1.348224 0.050851 -0.213690
1.358822 0.051251 -0.166961
1.343916 0.050453 -0.117660
1.371160 0.051237 -0.071910
1.366847 0.050837 -0.023875
1.312785 0.047908 -0.351994
1.382869 0.050466 0.024154
1.337903 0.048592 -0.309083
1.322370 0.047796 -0.257211
1.344362 0.048356 -0.213064
1.360893 0.048950 -0.167205
1.342011 0.048037 -0.117486
1.375239 0.048986 -0.072119
1.374927 0.048734 -0.024015
1.320590 0.045886 -0.354064
1.372962 0.047706 0.023980
1.337985 0.046256 -0.309083
1.345997 0.046298 -0.261790
1.336548 0.045739 -0.211812
1.372880 0.046983 -0.168667
1.342093 0.045695 -0.117486
1.367338 0.046315 -0.071700
1.373012 0.046267 -0.023980
1.328391 0.043835 -0.356135
1.385035 0.045705 0.024189
1.320535 0.043345 -0.305034
1.403317 0.046063 0.073584
1.326453 0.043307 -0.257974
1.340574 0.043535 -0.212438
1.359072 0.044136 -0.166961
1.348145 0.043545 -0.118009
1.367417 0.043928 -0.071700
1.387081 0.044318 -0.024224
1.328465 0.041517 -0.356135
1.373120 0.042913 0.023980
1.334243 0.041464 -0.308183
1.391418 0.043241 0.072956
1.344188 0.041539 -0.261408
1.344597 0.041317 -0.213064
1.361131 0.041825 -0.167205
1.348219 0.041192 -0.118009
1.367492 0.041542 -0.071700
1.369167 0.041354 -0.023910
1.320812 0.038970 -0.354064
1.383187 0.040810 0.024154
1.320678 0.038736 -0.305034
1.395484 0.040930 0.073166
1.322671 0.038563 -0.257211
1.352565 0.039198 -0.214315
1.363186 0.039506 -0.167448
1.342314 0.038667 -0.117486
1.371555 0.039270 -0.071910
1.369237 0.038964 -0.023910
1.317016 0.036558 -0.353029
1.379259 0.038285 0.024084
1.346068 0.037129 -0.310882
1.340399 0.036738 -0.260645
1.340784 0.036515 -0.212438
1.361269 0.037073 -0.167205
1.344371 0.036378 -0.117660
1.371621 0.036876 -0.071910
1.369303 0.036574 -0.023910
1.320940 0.034360 -0.354064
1.371327 0.035670 0.023945
1.324701 0.034226 -0.305933
1.328686 0.034097 -0.258355
1.340845 0.034175 -0.212438
1.375222 0.035051 -0.168911
1.346424 0.034082 -0.117835
1.367690 0.034381 -0.071700
1.379360 0.034434 -0.024084
1.330654 0.032288 -0.356653
1.373387 0.033325 0.023980
1.330604 0.032055 -0.307283
1.381702 0.033286 0.072433
1.348370 0.032247 -0.262172
1.340903 0.031835 -0.212438
1.359405 0.032274 -0.166961
1.344490 0.031685 -0.117660
1.361758 0.031854 -0.071386
1.381417 0.032073 -0.024119
1.321052 0.029749 -0.354064
1.373443 0.030928 0.023980
1.320916 0.029514 -0.305034
1.357797 0.030338 0.071177
1.324871 0.029372 -0.257592
1.374411 0.030470 0.120275
1.340956 0.029494 -0.212438
1.353506 0.029770 -0.166230
1.356494 0.029599 -0.118706
1.365805 0.029564 -0.071596
1.373474 0.029490 -0.023980
1.317239 0.027362 -0.353029
1.383491 0.028738 0.024154
1.342397 0.027651 -0.309983
1.367832 0.028175 0.071700
1.330809 0.027179 -0.258737
1.344956 0.027234 -0.213064
1.361494 0.027568 -0.167205
1.344592 0.026991 -0.117660
1.359864 0.027061 -0.071282
1.353531 0.026698 -0.023631
1.309559 0.024916 -0.350959
1.367544 0.026020 0.023875
1.328805 0.025051 -0.306833
1.367880 0.025787 0.071700
1.321040 0.024673 -0.256829
1.386461 0.025895 0.121321
1.341051 0.024813 -0.212438
1.361540 0.025192 -0.167205
1.336669 0.024499 -0.116963
1.371891 0.024905 -0.071910
1.373569 0.024695 -0.023980
1.309600 0.022631 -0.350959
1.367588 0.023633 0.023875
1.330795 0.022765 -0.307283
1.367922 0.023400 0.071700
1.336785 0.022634 -0.259882
1.350646 0.022869 0.118183
1.333188 0.022573 -0.211187
1.363567 0.022849 -0.167448
1.336710 0.022166 -0.116963
1.363944 0.022379 -0.071491
1.361613 0.022103 -0.023770
1.317364 0.020465 -0.353029
1.367627 0.021246 0.023875
1.330829 0.020674 -0.307283
1.359973 0.020889 0.071282
1.330930 0.020443 -0.258737
1.370602 0.021052 0.119926
1.333226 0.020246 -0.211187
1.359635 0.020410 -0.166961
1.340727 0.020126 -0.117312
1.365975 0.020266 -0.071596
1.387640 0.020345 -0.024224
1.334780 0.018639 -0.357688
1.371657 0.019154 0.023945
1.323069 0.018244 -0.305484
1.360004 0.018753 0.071282
1.336852 0.018200 -0.259882
1.384582 0.018850 0.121146
1.341160 0.018026 -0.212438
1.351726 0.018168 -0.165986
1.348729 0.017891 -0.118009
1.364011 0.017856 -0.071491
1.369677 0.017692 -0.023910
1.317425 0.016096 -0.353029
1.371689 0.016759 0.023945
1.338687 0.016122 -0.309083
1.358038 0.016355 0.071177
1.319214 0.015658 -0.256447
1.376644 0.016340 0.120449
1.341189 0.015684 -0.212438
1.357710 0.015877 -0.166717
1.346766 0.015514 -0.117835
1.364040 0.015475 -0.071491
1.361708 0.015211 -0.023770
1.313587 0.013757 -0.351994
1.367717 0.014323 0.023875
1.328970 0.013686 -0.306833
1.362059 0.014026 0.071386
1.331018 0.013474 -0.258737
1.386632 0.014037 0.121321
1.333313 0.013265 -0.211187
1.363691 0.013567 -0.167448
1.334837 0.013047 -0.116789
1.368060 0.013133 -0.071700
1.365731 0.012872 -0.023840
1.317473 0.011497 -0.353029
1.367740 0.011936 0.023875
1.332890 0.011400 -0.307733
1.370070 0.011718 0.071805
1.323187 0.011086 -0.257211
1.384662 0.011601 0.121146
1.333334 0.010937 -0.211187
1.365698 0.011203 -0.167692
1.344820 0.010798 -0.117660
1.364086 0.010714 -0.071491
1.369751 0.010519 -0.023910
1.321354 0.009225 -0.354064
1.367758 0.009549 0.023875
1.323164 0.009007 -0.305484
1.362099 0.009272 0.071386
1.350689 0.008958 -0.262553
1.374719 0.009117 0.120275
1.341253 0.008661 -0.212438
1.405416 0.009076 0.172567
1.355790 0.008755 -0.166474
1.344836 0.008451 -0.117660
1.356114 0.008284 -0.071072
1.365768 0.008105 -0.023840
1.325232 0.006940 -0.355100
1.371772 0.007183 0.023945
1.323178 0.006697 -0.305484
1.354124 0.006854 0.070968
1.319291 0.006447 -0.256447
1.392664 0.006806 0.121844
1.337315 0.006303 -0.211812
1.389549 0.006549 0.170617
1.355803 0.006390 -0.166474
1.342857 0.006094 -0.117486
1.356126 0.005917 -0.071072
1.353782 0.005671 -0.023631
1.317515 0.004599 -0.353029
1.375782 0.004803 0.024015
1.330982 0.004414 -0.307283
1.358129 0.004504 0.071177
1.327153 0.004170 -0.257974
1.370757 0.004307 0.119926
1.345226 0.003992 -0.213064
1.355812 0.004023 -0.166474
1.338881 0.003739 -0.117137
1.366121 0.003576 -0.071596
1.353790 0.003308 -0.023631
1.317521 0.002300 -0.353029
1.363790 0.002381 0.023805
1.329039 0.002087 -0.306833
1.370118 0.002152 0.071805
1.319306 0.001842 -0.256447
1.364786 0.001906 0.119403
1.337329 0.001634 -0.211812
1.391549 0.001700 0.170861
1.359787 0.001662 -0.166961
1.332908 0.001396 -0.116614
1.364128 0.001191 -0.071491
1.357793 0.000948 -0.023700
1.317523 -0.000000 -0.353029
1.361793 -0.000000 0.023770
1.334887 -0.000233 -0.308183
1.370120 -0.000239 0.071805
1.333050 -0.000465 -0.259119
1.368772 -0.000478 0.119752
1.333379 -0.000465 -0.211187
1.383609 -0.000724 0.169886
1.367728 -0.000716 -0.167936
1.332908 -0.000931 -0.116614
1.364128 -0.001190 -0.071491
1.361792 -0.001426 -0.023770
1.321385 -0.002306 -0.354064
1.357791 -0.002370 0.023700
1.325141 -0.002544 -0.305933
1.366123 -0.002623 0.071596
1.344826 -0.002817 -0.261408
1.376738 -0.002883 0.120449
1.333376 -0.003025 -0.211187
1.381621 -0.003135 0.169642
1.359785 -0.003085 -0.166961
1.342866 -0.003281 -0.117486
1.360129 -0.003561 -0.071282
1.361787 -0.003803 -0.023770
1.325242 -0.004626 -0.355100
1.371783 -0.004788 0.023945
1.321237 -0.004843 -0.305034
1.350138 -0.004949 0.070758
1.319297 -0.005066 -0.256447
1.376731 -0.005286 0.120449
1.337319 -0.005368 -0.211812
1.375658 -0.005522 0.168911
1.353822 -0.005435 -0.166230
1.390653 -0.005825 0.220260
1.342859 -0.005625 -0.117486
1.362118 -0.005943 -0.071386
1.353780 -0.006143 -0.023631
1.313641 -0.006878 -0.351994
1.373772 -0.007193 0.023980
1.325124 -0.007170 -0.305933
1.362111 -0.007370 0.071386
1.327139 -0.007412 -0.257974
1.374727 -0.007678 0.120275
1.341259 -0.007725 -0.212438
1.389542 -0.008003 0.170617
1.357781 -0.007820 -0.166717
1.394591 -0.008276 0.220885
1.334877 -0.007921 -0.116789
1.360108 -0.008309 -0.071282
1.341769 -0.008431 -0.023421
1.309764 -0.009144 -0.350959
1.359760 -0.009493 0.023735
1.334853 -0.009552 -0.308183
1.362096 -0.009747 0.071386
1.329087 -0.009743 -0.258355
1.360765 -0.009975 0.119055
1.341243 -0.010066 -0.212438
1.397466 -0.010488 0.171592
1.363720 -0.010235 -0.167448
1.390624 -0.010679 0.220260
1.334862 -0.010251 -0.116789
1.364086 -0.010714 -0.071491
1.353750 -0.010869 -0.023631
1.309746 -0.011430 -0.350959
1.357741 -0.011849 0.023700
1.321194 -0.011760 -0.305034
1.364074 -0.012142 0.071491
1.323179 -0.012009 -0.257211
1.362738 -0.012368 0.119229
1.333322 -0.012334 -0.211187
1.389505 -0.012854 0.170617
1.365685 -0.012633 -0.167692
1.392579 -0.013125 0.220573
1.338826 -0.012619 -0.117137
1.364065 -0.013094 -0.071491
1.353729 -0.013232 -0.023631
1.317451 -0.013797 -0.353029
1.355719 -0.014198 0.023665
1.319222 -0.014046 -0.304584
1.354065 -0.014417 0.070968
1.340824 -0.014510 -0.260645
1.372676 -0.014854 0.120101
1.329351 -0.014386 -0.210561
1.385511 -0.015235 0.170130
1.361691 -0.014973 -0.167205
1.338802 -0.014955 -0.117137
1.356052 -0.015385 -0.071072
1.357703 -0.015640 -0.023700
1.321288 -0.016143 -0.354064
1.363690 -0.016661 0.023805
1.323096 -0.016165 -0.305484
1.350044 -0.016730 0.070758
1.323132 -0.016397 -0.257211
1.380620 -0.017109 0.120798
1.341175 -0.016855 -0.212438
1.377545 -0.017312 0.169155
1.353723 -0.017249 -0.166230
1.388577 -0.017693 0.219947
1.342762 -0.017109 -0.117486
1.352569 -0.017470 0.262935
1.362017 -0.017592 -0.071386
1.349679 -0.017668 -0.023561
1.317398 -0.018166 -0.353029
1.365662 -0.018831 0.023840
1.319169 -0.018420 -0.304584
1.350016 -0.018851 0.070758
1.328990 -0.018789 -0.258355
1.368635 -0.019350 0.119752
1.341147 -0.018961 -0.212438
1.383468 -0.019801 0.169886
1.353694 -0.019375 -0.166230
1.392495 -0.020173 0.220573
1.338745 -0.019395 -0.117137
1.355993 -0.019881 -0.071072
1.345647 -0.019965 -0.023491
1.305774 -0.020285 -0.349923
1.355630 -0.021059 0.023665
1.334726 -0.020735 -0.308183
1.357969 -0.021333 0.071177
1.317181 -0.020692 -0.256066
1.382548 -0.021719 0.120972
1.337161 -0.021239 -0.211812
1.393359 -0.022132 0.171105
1.357628 -0.021801 -0.166717
1.396411 -0.022424 0.221198
1.332737 -0.021402 -0.116614
1.356430 -0.022019 0.263698
1.369939 -0.022238 -0.071805
1.349613 -0.022144 -0.023561
1.313463 -0.022697 -0.351994
1.355591 -0.023425 0.023665
1.319096 -0.023025 -0.304584
1.353935 -0.023633 0.070968
1.328917 -0.023428 -0.258355
1.364575 -0.024057 0.119403
1.329218 -0.023666 -0.210561
1.377436 -0.024524 0.169155
1.361558 -0.024241 -0.167205
1.398341 -0.025141 0.221511
1.342654 -0.024139 -0.117486
1.372089 -0.024908 0.266751
1.357912 -0.024651 -0.071177
1.349568 -0.024735 -0.023561
1.317284 -0.025063 -0.353029
1.355548 -0.025791 0.023665
1.319054 -0.025327 -0.304584
1.353892 -0.025996 0.070968
1.319059 -0.025558 -0.256447
1.378475 -0.026709 0.120624
1.333125 -0.026063 -0.211187
1.385330 -0.027083 0.170130
1.353574 -0.026463 -0.166230
1.400270 -0.027620 0.221824
1.332649 -0.026286 -0.116614
1.389709 -0.027654 0.270186
1.357867 -0.027021 -0.071177
1.361518 -0.027331 -0.023770
1.313376 -0.027282 -0.351994
1.359500 -0.028240 0.023735
1.315111 -0.027548 -0.303684
1.345857 -0.028192 0.070549
1.336678 -0.028233 -0.259882
1.362491 -0.028778 0.119229
1.329127 -0.028305 -0.210561
1.381311 -0.029417 0.169642
1.349557 -0.028740 -0.165742
1.398245 -0.030021 0.221511
1.338577 -0.028740 -0.117137
1.397510 -0.030250 0.271712
1.355821 -0.029347 -0.071072
1.353472 -0.029533 -0.023631
1.309464 -0.029487 -0.350959
1.365446 -0.030748 0.023840
1.311165 -0.029754 -0.302784
1.353793 -0.030722 0.070968
1.311111 -0.029982 -0.254921
1.378373 -0.031520 0.120624
1.336975 -0.030807 -0.211812
1.389196 -0.032010 0.170617
1.351489 -0.031142 -0.165986
1.396215 -0.032416 0.221198
1.334541 -0.030984 -0.116789
1.401380 -0.032781 0.272475
1.357765 -0.031760 -0.071177
1.341423 -0.031612 -0.023421
1.309410 -0.031773 -0.350959
1.355395 -0.032888 0.023665
1.316955 -0.032186 -0.304134
1.349744 -0.032987 0.070758
1.332646 -0.032802 -0.259119
1.356407 -0.033387 0.118706
1.332976 -0.032810 -0.211187
1.397076 -0.034632 0.171592
1.357386 -0.033648 -0.166717
1.392207 -0.034754 0.220573
1.324526 -0.033065 -0.115917
1.387589 -0.034639 0.269804
1.361701 -0.034230 -0.071386
1.345364 -0.034055 -0.023491
1.313215 -0.034158 -0.351994
1.353336 -0.035202 0.023631
1.313007 -0.034153 -0.303234
1.355674 -0.035500 0.071072
1.334556 -0.034947 -0.259500
1.358344 -0.035569 0.118880
1.328967 -0.035032 -0.210561
1.381145 -0.036408 0.169642
1.355341 -0.035964 -0.166474
1.392151 -0.036941 0.220573
1.336423 -0.035462 -0.116963
1.375751 -0.036746 0.267514
1.355655 -0.036209 -0.071072
1.361301 -0.036598 -0.023770
1.317022 -0.036328 -0.353029
1.357277 -0.037438 0.023700
1.301257 -0.036120 -0.300535
1.353620 -0.037574 0.070968
1.322718 -0.036947 -0.257211
1.360271 -0.037996 0.119055
1.332853 -0.037463 -0.211187
1.377110 -0.038707 0.169155
1.353299 -0.038037 -0.166230
1.396033 -0.039482 0.221198
1.342334 -0.037964 -0.117486
1.381572 -0.039315 0.268659
1.355590 -0.038575 -0.071072
1.359236 -0.038917 -0.023735
1.324681 -0.038853 -0.355100
1.361207 -0.039924 0.023770
1.305088 -0.038506 -0.301434
1.341574 -0.039583 0.070340
1.332463 -0.039547 -0.259119
1.372152 -0.040725 0.120101
1.332785 -0.039789 -0.211187
1.377041 -0.041110 0.169155
1.351246 -0.040340 -0.165986
1.393988 -0.041860 0.220885
1.342265 -0.040306 -0.117486
1.395238 -0.042141 0.271330
1.347535 -0.040700 -0.070654
1.402453 -0.042359 0.323930
1.355168 -0.041167 -0.023665
1.316887 -0.040925 -0.353029
1.361135 -0.042300 0.023770
1.314758 -0.041088 -0.303684
1.353481 -0.042298 0.070968
1.316694 -0.041379 -0.256066
1.356148 -0.042619 0.118706
1.336663 -0.042240 -0.211812
1.382919 -0.043702 0.169886
1.349189 -0.042636 -0.165742
1.386015 -0.044042 0.219634
1.336219 -0.042459 -0.116963
1.377502 -0.044012 0.267896
1.359440 -0.043435 -0.071282
1.343102 -0.043147 -0.023456
1.305229 -0.042843 -0.349923
1.357062 -0.044544 0.023700
1.312736 -0.043319 -0.303234
1.349413 -0.044529 0.070758
1.326430 -0.044002 -0.257974
1.352089 -0.044853 0.118357
1.328690 -0.044309 -0.210561
1.392761 -0.046446 0.171105
1.355065 -0.045189 -0.166474
1.389885 -0.046593 0.220260
1.334152 -0.044725 -0.116789
1.383309 -0.046614 0.269041
1.357366 -0.045740 -0.071177
1.347022 -0.045627 -0.023526
1.305152 -0.045121 -0.349923
1.354984 -0.046844 0.023665
1.312659 -0.045610 -0.303234
1.349333 -0.046884 0.070758
1.328314 -0.046386 -0.258355
1.357982 -0.047422 0.118880
1.328611 -0.046628 -0.210561
1.372839 -0.048180 0.168667
1.362919 -0.047832 -0.167448
1.389801 -0.049019 0.220260
1.326107 -0.046772 -0.116091
1.377340 -0.048820 0.267896
1.359280 -0.048180 -0.071282
1.390527 -0.049287 0.321230
1.350937 -0.048120 -0.023596
1.312793 -0.047679 -0.351994
1.356899 -0.049281 0.023700
1.304787 -0.047616 -0.301434
1.355237 -0.049457 0.071072
1.322345 -0.048488 -0.257211
1.361879 -0.049938 0.119229
1.328527 -0.048947 -0.210561
1.372753 -0.050576 0.168667
1.354899 -0.049919 -0.166474
1.399584 -0.051810 0.221824
1.339960 -0.049602 -0.117312
1.385100 -0.051516 0.269422
1.351210 -0.050255 -0.070863
1.374860 -0.051135 0.317631
1.358845 -0.050777 -0.023735
1.316569 -0.050117 -0.353029
1.356811 -0.051649 0.023700
1.308597 -0.050042 -0.302334
1.347165 -0.051517 0.070654
1.328144 -0.051022 -0.258355
1.359799 -0.052238 0.119055
1.328440 -0.051266 -0.210561
1.368695 -0.052819 0.168180
1.346875 -0.051977 -0.165499
1.391595 -0.053946 0.220573
1.341863 -0.052018 -0.117486
1.383046 -0.053857 0.269041
1.357108 -0.052846 -0.071177
1.366980 -0.053231 0.315831
1.354758 -0.052992 -0.023665
1.312619 -0.052261 -0.351994
1.364711 -0.054335 0.023840
1.308508 -0.052326 -0.302334
1.347073 -0.053869 0.070654
1.316282 -0.052867 -0.256066
1.351743 -0.054292 0.118357
1.328348 -0.053584 -0.210561
1.372568 -0.055368 0.168667
1.344799 -0.054248 -0.165255
1.383604 -0.056055 0.219321
1.333807 -0.054038 -0.116789
1.380988 -0.056190 0.268659
1.357013 -0.055215 -0.071177
1.374673 -0.055934 0.317631
1.338679 -0.054703 -0.023386
1.403285 -0.057343 0.376323
1.297085 -0.053910 -0.347853
1.356622 -0.056385 0.023700
1.316203 -0.054935 -0.304134
1.348973 -0.056303 0.070758
1.327957 -0.055658 -0.258355
1.347665 -0.056484 0.118009
1.328253 -0.055903 -0.210561
1.382386 -0.058181 0.169886
1.356602 -0.057096 -0.166717
1.395346 -0.058970 0.221198
1.327739 -0.056113 -0.116266
1.384811 -0.058767 0.269422
1.358910 -0.057668 -0.071282
1.394043 -0.059159 0.322130
1.346573 -0.057380 -0.023526
1.391602 -0.059299 0.373217
1.304709 -0.056509 -0.349923
1.352526 -0.058580 0.023631
1.308317 -0.056894 -0.302334
1.354859 -0.058917 0.071072
1.329820 -0.058061 -0.258737
1.353535 -0.059097 0.118532
1.328153 -0.058221 -0.210561
1.366416 -0.059898 0.167936
1.360467 -0.059637 -0.167205
1.391294 -0.061232 0.220573
1.329629 -0.058518 -0.116440
1.380784 -0.061011 0.268659
1.348831 -0.059599 -0.070758
1.399778 -0.061850 0.323480
1.346471 -0.059730 -0.023526
1.406936 -0.062412 0.377358
1.304608 -0.058786 -0.349923
1.356417 -0.061120 0.023700
1.300429 -0.058825 -0.300535
1.352758 -0.061192 0.070968
1.319910 -0.059937 -0.256829
1.355421 -0.061549 0.118706
1.324103 -0.060359 -0.209935
1.362344 -0.062102 0.167448
1.354412 -0.061740 -0.166474
1.397105 -0.063931 0.221511
1.337486 -0.061203 -0.117137
1.380675 -0.063421 0.268659
1.346730 -0.061861 -0.070654
1.389935 -0.063846 0.321230
1.354355 -0.062448 -0.023665
1.316082 -0.061604 -0.353029
1.356308 -0.063487 0.023700
1.308110 -0.061460 -0.302334
1.346664 -0.063272 0.070654
1.321764 -0.062333 -0.257211
1.367252 -0.064478 0.119752
1.323995 -0.062670 -0.209935
1.370165 -0.064855 0.168423
1.344388 -0.063635 -0.165255
1.385152 -0.065807 0.219634
1.335387 -0.063442 -0.116963
1.386446 -0.066111 0.269804
1.354600 -0.064592 -0.071072
1.382035 -0.065900 0.319431
1.346254 -0.064430 -0.023526
1.408639 -0.067415 0.377876
1.321761 -0.064182 -0.354582
1.368179 -0.066436 0.023910
1.308001 -0.063743 -0.302334
1.350542 -0.065816 0.070863
1.325575 -0.064831 -0.257974
1.355197 -0.066280 0.118706
1.335734 -0.065328 -0.211812
1.370049 -0.067246 0.168423
1.346257 -0.066078 -0.165499
1.383062 -0.068127 0.219321
1.335274 -0.065773 -0.116963
1.382418 -0.068095 0.269041
1.354485 -0.066956 -0.071072
1.389704 -0.068697 0.321230
1.342145 -0.066581 -0.023456
1.402731 -0.069587 0.376323
1.302353 -0.065519 -0.349406
1.356078 -0.068221 0.023700
1.307899 -0.065798 -0.302334
1.352419 -0.068274 0.070968
1.311747 -0.066221 -0.255302
1.351112 -0.068208 0.118357
1.319835 -0.066860 -0.209309
1.375890 -0.069700 0.169155
1.350105 -0.068630 -0.165986
1.380981 -0.070199 0.219008
1.323231 -0.067263 -0.115917
1.380337 -0.070408 0.268659
1.352383 -0.068982 -0.070968
1.383743 -0.070824 0.319880
1.342039 -0.068689 -0.023456
1.389115 -0.071099 0.372699
1.302248 -0.067564 -0.349406
1.345984 -0.069833 0.023526
1.303890 -0.067878 -0.301434
1.354305 -0.070502 0.071072
1.323393 -0.069124 -0.257592
1.345022 -0.070254 0.117835
1.319716 -0.069163 -0.209309
1.365854 -0.071581 0.167936
1.357925 -0.071166 -0.166961
1.380856 -0.072609 0.219008
1.323111 -0.069573 -0.115917
1.378251 -0.072714 0.268277
1.352261 -0.071342 -0.070968
1.393360 -0.073511 0.322130
1.341917 -0.071031 -0.023456
1.394776 -0.073829 0.374252
1.317561 -0.070665 -0.353547
1.343864 -0.072075 0.023491
1.303770 -0.070153 -0.301434
1.350191 -0.072651 0.070863
1.319349 -0.071222 -0.256829
1.358824 -0.073353 0.119055
1.323538 -0.071680 -0.209935
1.357798 -0.073536 0.166961
1.347888 -0.072999 -0.165742
1.394535 -0.075769 0.221198
1.334924 -0.072531 -0.116963
1.380083 -0.075226 0.268659
1.354129 -0.073811 -0.071072
1.377663 -0.075094 0.318531
1.357764 -0.074247 -0.023735
1.396574 -0.076369 0.374770
1.309720 -0.072537 -0.351476
1.351722 -0.074863 0.023631
1.303645 -0.072429 -0.301434
1.342086 -0.074564 0.070444
1.311382 -0.073088 -0.255302
1.358693 -0.075725 0.119055
1.327356 -0.074211 -0.210561
1.361632 -0.076127 0.167448
1.351722 -0.075573 -0.166230
1.382567 -0.077540 0.219321
1.336785 -0.074972 -0.117137
1.377989 -0.077524 0.268277
1.348016 -0.075838 -0.070758
1.377530 -0.077498 0.318531
1.341661 -0.075715 -0.023456
1.396439 -0.078807 0.374770
1.313449 -0.075043 -0.352512
1.363568 -0.077907 0.023840
1.303517 -0.074704 -0.301434
1.339960 -0.076792 0.070340
1.311252 -0.075377 -0.255302
1.352592 -0.077753 0.118532
1.335113 -0.076982 -0.211812
1.365461 -0.078732 0.167936
1.349606 -0.077818 -0.165986
1.386373 -0.080181 0.219947
1.334663 -0.077190 -0.116963
1.387651 -0.080497 0.270186
1.359845 -0.078884 -0.071386
1.383229 -0.080241 0.319880
1.341526 -0.078057 -0.023456
1.384728 -0.080570 0.371664
1.305602 -0.076881 -0.350441
1.349457 -0.079463 0.023596
1.311166 -0.077438 -0.303234
1.353780 -0.079955 0.071072
1.318958 -0.078130 -0.256829
1.348476 -0.079878 0.118183
1.327088 -0.078844 -0.210561
1.369284 -0.081350 0.168423
1.349468 -0.080173 -0.165986
1.382287 -0.082365 0.219321
1.318616 -0.078571 -0.115569
1.383589 -0.082685 0.269422
1.361699 -0.081377 -0.071491
1.388923 -0.083004 0.321230
1.337396 -0.080159 -0.023386
1.390370 -0.083334 0.373217
1.305466 -0.079160 -0.350441
1.351312 -0.081940 0.023631
1.307139 -0.079490 -0.302334
1.355632 -0.082439 0.071177
1.314901 -0.080192 -0.256066
1.344358 -0.081989 0.117835
1.319062 -0.080677 -0.209309
1.363196 -0.083377 0.167692
1.349326 -0.082528 -0.165986
1.386085 -0.085019 0.219947
1.326431 -0.081360 -0.116266
1.373645 -0.084497 0.267514
1.351587 -0.083140 -0.070968
1.380995 -0.084949 0.319431
1.361205 -0.083970 -0.023805
1.382510 -0.085285 0.371147
1.309182 -0.081679 -0.351476
1.351167 -0.084298 0.023631
1.299218 -0.081285 -0.300535
1.349506 -0.084431 0.070863
1.324556 -0.083102 -0.257974
1.356143 -0.085084 0.118880
1.322862 -0.083227 -0.209935
1.365030 -0.085880 0.167936
1.351161 -0.085008 -0.166230
1.389877 -0.087687 0.220573
1.330264 -0.083926 -0.116614
1.373495 -0.086894 0.267514
1.345460 -0.085121 -0.070654
1.378900 -0.087236 0.318981
1.349082 -0.085586 -0.023596
1.397782 -0.088676 0.375288
1.312893 -0.084211 -0.352512
1.353013 -0.086784 0.023665
1.299074 -0.083552 -0.300535
1.341384 -0.086273 0.070444
1.310694 -0.084529 -0.255302
1.363946 -0.087963 0.119578
1.322715 -0.085536 -0.209935
1.362897 -0.088135 0.167692
1.343087 -0.086854 -0.165255
1.381837 -0.089602 0.219321
1.338068 -0.086763 -0.117312
1.369424 -0.089037 0.266751
1.357268 -0.088246 -0.071282
1.376801 -0.089516 0.318531
1.336958 -0.087160 -0.023386
1.397626 -0.091115 0.375288
1.308889 -0.086248 -0.351476
1.358846 -0.089540 0.023770
1.306705 -0.086333 -0.302334
1.343224 -0.088746 0.070549
1.312504 -0.086946 -0.255684
1.345898 -0.089158 0.118009
1.334390 -0.088630 -0.211812
1.372645 -0.091171 0.168911
1.342934 -0.089198 -0.165255
1.377737 -0.091751 0.218695
1.325987 -0.088304 -0.116266
1.377102 -0.091950 0.268277
1.351133 -0.090216 -0.070968
1.378587 -0.092049 0.318981
1.336804 -0.089493 -0.023386
1.385899 -0.092780 0.372182
1.297172 -0.087750 -0.348370
1.354697 -0.091641 0.023700
1.302663 -0.088350 -0.301434
1.349045 -0.091496 0.070863
1.312350 -0.089237 -0.255684
1.343753 -0.091372 0.117835
1.326350 -0.090421 -0.210561
1.366542 -0.093161 0.168180
1.338815 -0.091271 -0.164767
1.385458 -0.094694 0.219947
1.321855 -0.090347 -0.115917
1.371063 -0.093951 0.267133
1.356951 -0.092984 -0.071282
1.376480 -0.094322 0.318531
1.340636 -0.092101 -0.023456
1.393445 -0.095729 0.374252
1.304725 -0.090549 -0.350441
1.350545 -0.093729 0.023631
1.306395 -0.090894 -0.302334
1.356853 -0.094404 0.071282
1.314151 -0.091664 -0.256066
1.349553 -0.094133 0.118357
1.322265 -0.092230 -0.209935
1.358456 -0.094993 0.167205
1.350535 -0.094439 -0.166230
1.389231 -0.097388 0.220573
1.321695 -0.092654 -0.115917
1.363080 -0.095555 0.265606
1.350810 -0.094932 -0.070968
1.386033 -0.097407 0.320780
1.340473 -0.094440 -0.023456
1.385567 -0.097617 0.372182
1.308419 -0.093100 -0.351476
1.348385 -0.095944 0.023596
1.298476 -0.092393 -0.300535
1.344733 -0.095920 0.070654
1.325755 -0.094566 -0.258355
1.361328 -0.097104 0.119403
1.318162 -0.094256 -0.209309
1.356325 -0.096985 0.166961
1.342448 -0.096228 -0.165255
1.389077 -0.099570 0.220573
1.329497 -0.095300 -0.116614
1.372702 -0.098637 0.267514
1.352651 -0.097197 -0.071072
1.380030 -0.099406 0.319431
1.344312 -0.096833 -0.023526
1.385412 -0.099794 0.372182
1.319832 -0.095996 -0.354582
1.354216 -0.098497 0.023700
1.298312 -0.094659 -0.300535
1.342589 -0.097887 0.070549
1.309923 -0.095735 -0.255302
1.357182 -0.099189 0.119055
1.321935 -0.096845 -0.209935
1.362093 -0.099787 0.167692
1.342295 -0.098336 -0.165255
1.381020 -0.101416 0.219321
1.333303 -0.097912 -0.116963
1.366654 -0.100601 0.266369
1.352480 -0.099557 -0.071072
1.374042 -0.101144 0.318081
1.336164 -0.098591 -0.023386
1.392942 -0.102780 0.374252
1.304250 -0.097151 -0.350441
1.354042 -0.100860 0.023700
1.298145 -0.096924 -0.300535
1.342416 -0.100230 0.070549
1.315628 -0.098461 -0.256447
1.351046 -0.101111 0.118532
1.327674 -0.099595 -0.210874
1.363896 -0.102313 0.167936
1.334204 -0.100085 -0.164280
1.372962 -0.103234 0.218070
1.325183 -0.099641 -0.116266
1.380180 -0.104019 0.269041
1.352304 -0.101918 -0.071072
1.381636 -0.104128 0.319880
1.335989 -0.100923 -0.023386
1.388908 -0.104920 0.373217
1.300226 -0.099134 -0.349406
1.345888 -0.102615 0.023561
1.305746 -0.099784 -0.302334
1.342239 -0.102573 0.070549
1.315454 -0.100757 -0.256447
1.344908 -0.103013 0.118009
1.313711 -0.100854 -0.208684
1.365695 -0.104845 0.168180
1.345903 -0.103325 -0.165742
1.380658 -0.106236 0.219321
1.321034 -0.101648 -0.115917
1.370209 -0.105672 0.267133
1.352124 -0.104278 -0.071072
1.377566 -0.106240 0.318981
1.339799 -0.103562 -0.023456
1.384870 -0.107046 0.372182
1.307755 -0.102004 -0.351476
1.341720 -0.104653 0.023491
1.301684 -0.101759 -0.301434
1.350023 -0.105538 0.070968
1.313319 -0.102899 -0.256066
1.352672 -0.105982 0.118706
1.317471 -0.103456 -0.209309
1.361552 -0.106917 0.167692
1.349678 -0.105985 -0.166230
1.384409 -0.108955 0.219947
1.320855 -0.103954 -0.115917
1.368066 -0.107909 0.266751
1.349949 -0.106480 -0.070968
1.377379 -0.108644 0.318981
1.339616 -0.105901 -0.023456
1.384681 -0.109463 0.372182
1.307575 -0.104286 -0.351476
1.345522 -0.107313 0.023561
1.297620 -0.103720 -0.300535
1.339882 -0.107098 0.070444
1.328793 -0.106445 -0.259119
1.350499 -0.108184 0.118532
1.321227 -0.106071 -0.209935
1.349491 -0.108340 0.166230
1.341576 -0.107705 -0.165255
1.388155 -0.111688 0.220573
1.328615 -0.106898 -0.116614
1.365918 -0.110139 0.266369
1.347770 -0.108676 -0.070863
1.365532 -0.110108 0.316281
1.347402 -0.108883 -0.023596
1.388339 -0.112191 0.373217
1.315093 -0.107196 -0.353547
1.349319 -0.109986 0.023631
1.301321 -0.106302 -0.301434
1.339693 -0.109437 0.070444
1.307081 -0.107002 -0.254921
1.356265 -0.111029 0.119055
1.317102 -0.108054 -0.209309
1.353257 -0.111020 0.166717
1.335451 -0.109559 -0.164524
1.384020 -0.113787 0.219947
1.332398 -0.109543 -0.116963
1.369637 -0.112845 0.267133
1.347578 -0.111028 -0.070863
1.367280 -0.112651 0.316731
1.347210 -0.111234 -0.023596
1.386216 -0.114455 0.372699
1.303353 -0.108529 -0.350441
1.357096 -0.113004 0.023770
1.301134 -0.108573 -0.301434
1.333529 -0.111276 0.070130
1.306893 -0.109283 -0.254921
1.342171 -0.112233 0.117835
1.320849 -0.110683 -0.209935
1.370864 -0.114874 0.168911
1.339214 -0.112222 -0.165011
1.375946 -0.115541 0.218695
1.324263 -0.111201 -0.116266
1.371395 -0.115400 0.267514
1.349373 -0.113547 -0.070968
1.380675 -0.116181 0.319880
1.327087 -0.111905 -0.023247
1.376389 -0.116062 0.370111
1.295462 -0.110149 -0.348370
1.348927 -0.114695 0.023631
1.304826 -0.111175 -0.302334
1.343283 -0.114451 0.070654
1.304744 -0.111397 -0.254539
1.353884 -0.115593 0.118880
1.316717 -0.112651 -0.209309
1.358795 -0.116251 0.167448
1.340994 -0.114728 -0.165255
1.379678 -0.118280 0.219321
1.320097 -0.113172 -0.115917
1.369235 -0.117626 0.267133
1.355142 -0.116415 -0.071282
1.378528 -0.118424 0.319431
1.326890 -0.114221 -0.023247
1.380034 -0.118796 0.371147
1.306815 -0.113412 -0.351476
1.340755 -0.116358 0.023491
1.300747 -0.113114 -0.301434
1.353030 -0.117661 0.071177
1.314327 -0.114526 -0.256447
1.351695 -0.117783 0.118706
1.312583 -0.114605 -0.208684
1.356612 -0.118450 0.167205
1.342769 -0.117241 -0.165499
1.379470 -0.120688 0.219321
1.323867 -0.115823 -0.116266
1.361205 -0.119329 0.265606
1.348968 -0.118257 -0.070968
1.384143 -0.121340 0.320780
1.342625 -0.117937 -0.023526
1.383673 -0.121542 0.372182
1.302767 -0.115352 -0.350441
1.348518 -0.119403 0.023631
1.296665 -0.115040 -0.300535
1.348844 -0.119669 0.070968
1.306303 -0.116125 -0.254921
1.351488 -0.120142 0.118706
1.308445 -0.116545 -0.208058
1.356403 -0.120817 0.167205
1.352449 -0.120465 -0.166717
1.383192 -0.123447 0.219947
1.323663 -0.118134 -0.116266
1.364905 -0.122055 0.266369
1.350749 -0.120789 -0.071072
1.374225 -0.122888 0.318531
1.350384 -0.120994 -0.023665
1.383459 -0.123957 0.372182
1.314107 -0.118668 -0.353547
1.348307 -0.121757 0.023631
1.296463 -0.117303 -0.300535
1.338687 -0.121123 0.070444
1.308053 -0.118582 -0.255302
1.361197 -0.123400 0.119578
1.316109 -0.119544 -0.209309
1.352236 -0.122825 0.166717
1.346306 -0.122286 -0.165986
1.382975 -0.125861 0.219947
1.331391 -0.121166 -0.116963
1.372511 -0.125150 0.267896
1.346558 -0.122783 -0.070863
1.362364 -0.124225 0.315831
1.338222 -0.122259 -0.023456
1.389012 -0.126899 0.373735
1.306203 -0.120253 -0.351476
1.352075 -0.124476 0.023700
1.296256 -0.119565 -0.300535
1.340462 -0.123643 0.070549
1.307844 -0.120865 -0.255302
1.357012 -0.125408 0.119229
1.315899 -0.121841 -0.209309
1.363880 -0.126283 0.168180
1.344113 -0.124453 -0.165742
1.370951 -0.127179 0.218070
1.319274 -0.122385 -0.115917
1.372290 -0.127545 0.267896
1.350319 -0.125503 -0.071072
1.377668 -0.128045 0.319431
1.330042 -0.123853 -0.023316
1.386865 -0.129144 0.373217
1.298298 -0.121811 -0.349406
1.351856 -0.126836 0.023700
1.299926 -0.122192 -0.301434
1.342233 -0.126169 0.070654
1.305677 -0.122963 -0.254921
1.344889 -0.126656 0.118183
1.305851 -0.123209 -0.207745
1.367610 -0.129036 0.168667
1.339942 -0.126426 -0.165255
1.378594 -0.130315 0.219321
1.319059 -0.124688 -0.115917
1.364247 -0.129200 0.266369
1.352086 -0.128048 -0.071177
1.377442 -0.130449 0.319431
1.333806 -0.126552 -0.023386
1.378945 -0.130834 0.371147
1.301930 -0.124444 -0.350441
1.337698 -0.127863 0.023456
1.299710 -0.124461 -0.301434
1.347975 -0.129083 0.070968
1.307414 -0.125429 -0.255302
1.344666 -0.129003 0.118183
1.313499 -0.126244 -0.208996
1.355527 -0.130284 0.167205
1.333791 -0.128195 -0.164524
1.378364 -0.132721 0.219321
1.314873 -0.126608 -0.115569
1.360111 -0.131203 0.265606
1.347885 -0.130024 -0.070968
1.381092 -0.133227 0.320330
1.337564 -0.129264 -0.023456
1.384483 -0.133798 0.372699
1.301710 -0.126716 -0.350441
1.347425 -0.131166 0.023631
1.295612 -0.126351 -0.300535
1.339797 -0.130660 0.070549
1.313055 -0.128283 -0.256447
1.352371 -0.132125 0.118880
1.309344 -0.128152 -0.208371
1.347395 -0.131876 0.166230
1.327638 -0.129942 -0.163792
1.385994 -0.135898 0.220573
1.318616 -0.129291 -0.115917
1.363788 -0.133961 0.266369
1.341693 -0.131791 -0.070654
1.376979 -0.135257 0.319431
1.349277 -0.132773 -0.023665
1.382325 -0.136025 0.372182
1.313022 -0.130131 -0.353547
1.343214 -0.133124 0.023561
1.297329 -0.128805 -0.300985
1.337579 -0.132801 0.070444
1.310876 -0.130381 -0.256066
1.362051 -0.135471 0.119752
1.316981 -0.131220 -0.209622
1.347162 -0.134227 0.166230
1.319508 -0.131472 -0.162817
1.377892 -0.137532 0.219321
1.326318 -0.132384 -0.116614
1.363552 -0.136341 0.266369
1.343448 -0.134331 -0.070758
1.370923 -0.137078 0.318081
1.333125 -0.133534 -0.023386
1.389774 -0.139208 0.374252
1.308972 -0.131807 -0.352512
1.354941 -0.136435 0.023770
1.299064 -0.131038 -0.301434
1.339356 -0.135102 0.070549
1.306763 -0.132045 -0.255302
1.353908 -0.136809 0.119055
1.324635 -0.134084 -0.210874
1.358800 -0.137543 0.167692
1.337075 -0.135344 -0.165011
1.377675 -0.139696 0.219321
1.318180 -0.133663 -0.115917
1.371149 -0.139276 0.267896
1.347209 -0.136845 -0.070968
1.364890 -0.138640 0.316731
1.328935 -0.135223 -0.023316
1.374178 -0.139826 0.370111
1.293365 -0.132516 -0.348370
1.344754 -0.137781 0.023596
1.302710 -0.133703 -0.302334
1.343092 -0.137847 0.070758
1.304577 -0.134125 -0.254921
1.351685 -0.138968 0.118880
1.326364 -0.136598 -0.211187
1.350659 -0.139101 0.166717
1.323014 -0.136253 -0.163305
1.381359 -0.142506 0.219947
1.310017 -0.135146 -0.115220
1.366998 -0.141266 0.267133
1.350942 -0.139606 -0.071177
1.384030 -0.143026 0.321230
1.332675 -0.137954 -0.023386
1.373932 -0.142224 0.370111
1.300818 -0.135574 -0.350441
1.342523 -0.139920 0.023561
1.294722 -0.135167 -0.300535
1.344836 -0.140399 0.070863
1.312152 -0.137218 -0.256447
1.345495 -0.140705 0.118357
1.314336 -0.137678 -0.209309
1.352389 -0.141665 0.166961
1.338569 -0.140217 -0.165255
1.381108 -0.144917 0.219947
1.313742 -0.137848 -0.115569
1.362845 -0.143241 0.266369
1.344737 -0.141338 -0.070863
1.383778 -0.145441 0.321230
1.340387 -0.141117 -0.023526
1.381367 -0.145431 0.372182
1.300579 -0.137844 -0.350441
1.354208 -0.143528 0.023770
1.292546 -0.137221 -0.300085
1.344589 -0.142746 0.070863
1.306054 -0.138885 -0.255302
1.353173 -0.143896 0.119055
1.321951 -0.140809 -0.210561
1.346218 -0.143394 0.166230
1.356087 -0.144445 -0.167448
1.384781 -0.147746 0.220573
1.313499 -0.140141 -0.115569
1.362592 -0.145619 0.266369
1.334559 -0.142623 -0.070340
1.375772 -0.147028 0.319431
1.340138 -0.143456 -0.023526
1.381111 -0.147842 0.372182
1.311861 -0.141355 -0.353547
1.346003 -0.145034 0.023631
1.294242 -0.139686 -0.300535
1.340366 -0.144664 0.070654
1.301905 -0.140743 -0.254539
1.350939 -0.146043 0.118880
1.321703 -0.143116 -0.210561
1.351886 -0.146384 0.166961
1.330177 -0.144034 -0.164280
1.376666 -0.149311 0.219321
1.321176 -0.143292 -0.116266
1.366240 -0.148421 0.267133
1.348207 -0.146462 -0.071072
1.369701 -0.148797 0.318081
1.325970 -0.144281 -0.023282
1.384692 -0.150670 0.373217
1.296249 -0.141962 -0.349406
1.345747 -0.147383 0.023631
1.297871 -0.142369 -0.301434
1.336141 -0.146567 0.070444
1.301658 -0.143015 -0.254539
1.342760 -0.147530 0.118183
1.329305 -0.146287 -0.211812
1.349655 -0.148526 0.166717
1.347682 -0.148309 -0.166474
1.368549 -0.150847 0.218070
1.313002 -0.144725 -0.115569
1.369882 -0.151236 0.267896
1.345964 -0.148596 -0.070968
1.377187 -0.152043 0.319880
1.331679 -0.147254 -0.023386
1.380587 -0.152662 0.372182
1.284480 -0.142943 -0.346300
1.345488 -0.149732 0.023631
1.305367 -0.145498 -0.303234
1.339853 -0.149341 0.070654
1.309211 -0.146157 -0.256066
1.336560 -0.149211 0.117660
1.317269 -0.147290 -0.209935
1.369122 -0.153088 0.169155
1.341503 -0.149999 -0.165742
1.380062 -0.154555 0.219947
1.308787 -0.146573 -0.115220
1.365713 -0.153189 0.267133
1.353642 -0.151835 -0.071386
1.371110 -0.153795 0.318531
1.333407 -0.149801 -0.023421
1.376478 -0.154640 0.371147
1.295746 -0.146486 -0.349406
1.337277 -0.151181 0.023491
1.297366 -0.146899 -0.301434
1.345544 -0.152354 0.070968
1.301151 -0.147557 -0.254539
1.344216 -0.152441 0.118357
1.317010 -0.149589 -0.209935
1.355046 -0.153909 0.167448
1.351101 -0.153461 -0.166961
1.379791 -0.156963 0.219947
1.308530 -0.148857 -0.115220
1.361543 -0.155128 0.266369
1.341468 -0.152841 -0.070758
1.382457 -0.157511 0.321230
1.333144 -0.152128 -0.023421
1.378126 -0.157261 0.371664
1.301246 -0.149409 -0.350959
1.340984 -0.153971 0.023561
1.285492 -0.147827 -0.298735
1.337339 -0.153789 0.070549
1.320395 -0.152074 -0.258355
1.345927 -0.155015 0.118532
1.324596 -0.152792 -0.211187
1.346887 -0.155364 0.166474
1.331111 -0.153544 -0.164524
1.383439 -0.159825 0.220573
1.314206 -0.151826 -0.115743
1.361270 -0.157504 0.266369
1.337231 -0.154723 -0.070549
1.370564 -0.158580 0.318531
1.334863 -0.154685 -0.023456
1.395120 -0.161668 0.376323
1.304821 -0.152127 -0.351994
1.344686 -0.156775 0.023631
1.292974 -0.150974 -0.300535
1.337069 -0.156123 0.070549
1.300628 -0.152098 -0.254539
1.349613 -0.157827 0.118880
1.320403 -0.154645 -0.210561
1.348585 -0.157945 0.166717
1.328869 -0.155636 -0.164280
1.375310 -0.161319 0.219321
1.319875 -0.154816 -0.116266
1.364893 -0.160338 0.267133
1.338943 -0.157290 -0.070654
1.358673 -0.159607 0.315831
1.326647 -0.156080 -0.023316
1.381406 -0.162522 0.372699
1.293043 -0.153042 -0.348888
1.348382 -0.159591 0.023700
1.292709 -0.153231 -0.300535
1.338778 -0.158692 0.070654
1.300360 -0.154368 -0.254539
1.347357 -0.159947 0.118706
1.327978 -0.157882 -0.211812
1.356193 -0.161236 0.167692
1.310855 -0.155846 -0.162086
1.373065 -0.163485 0.219008
1.319603 -0.157120 -0.116266
1.364611 -0.162720 0.267133
1.340650 -0.159863 -0.070758
1.366132 -0.162901 0.317631
1.326372 -0.158395 -0.023316
1.379202 -0.164704 0.372182
1.292774 -0.155298 -0.348888
1.344130 -0.161468 0.023631
1.296309 -0.155952 -0.301434
1.342464 -0.161505 0.070863
1.309834 -0.157812 -0.256447
1.339163 -0.161345 0.118009
1.319856 -0.159253 -0.210561
1.367734 -0.165030 0.169155
1.320435 -0.159323 -0.163305
1.366894 -0.165170 0.218070
1.317349 -0.159183 -0.116091
1.356528 -0.164158 0.265606
1.350283 -0.163402 -0.071282
1.373585 -0.166222 0.319431
1.330064 -0.161191 -0.023386
1.371241 -0.166181 0.370111
1.292500 -0.157554 -0.348888
1.335906 -0.162845 0.023491
1.288297 -0.157270 -0.299635
1.346146 -0.164332 0.071072
1.305660 -0.159621 -0.255684
1.344812 -0.164407 0.118532
1.301929 -0.159396 -0.207745
1.351681 -0.165487 0.167205
1.322125 -0.161868 -0.163549
1.378368 -0.168998 0.219947
1.319046 -0.161725 -0.116266
1.362086 -0.167243 0.266751
1.342066 -0.164785 -0.070863
1.381029 -0.169569 0.321230
1.333750 -0.164000 -0.023456
1.370949 -0.168574 0.370111
1.299893 -0.160758 -0.350959
1.335620 -0.165177 0.023491
1.288021 -0.159518 -0.299635
1.341892 -0.166190 0.070863
1.307327 -0.162141 -0.256066
1.348478 -0.167245 0.118880
1.313411 -0.163128 -0.209622
1.341540 -0.166622 0.165986
1.327750 -0.164909 -0.164280
1.378071 -0.171404 0.219947
1.318762 -0.164027 -0.116266
1.363740 -0.169863 0.267133
1.335830 -0.166386 -0.070549
