# This PCD file was generated using the MATLAB® pcwrite function
# from Computer Vision System Toolbox®.
# .PCD v.7 - Point Cloud Data file format
VERSION .7
FIELDS x y z
SIZE 4 4 4
TYPE F F F
COUNT 1 1 1
WIDTH 1668
HEIGHT 1
VIEWPOINT 0 0 0 1 0 0 0
POINTS 1668
DATA ascii
1.578757 -1.011211 0.164027
1.586723 -1.016704 -0.298477
1.576141 -1.009923 0.229846
1.604555 -1.028130 -0.233989
1.578230 -1.011651 0.296913
1.575049 -1.009611 -0.163678
1.587128 -1.017745 -0.098810
1.580471 -1.013865 -0.032776
1.589553 -1.021258 -0.506250
1.584810 -1.018211 0.032880
1.578679 -1.014662 -0.433256
1.569260 -1.008608 0.097764
1.590259 -1.022496 -0.367498
1.573638 -1.011810 0.163678
1.588269 -1.021609 -0.299103
1.569368 -1.009451 0.229114
1.592741 -1.024486 -0.232527
1.583107 -1.018679 0.298164
1.574960 -1.013437 -0.163853
1.587029 -1.021595 -0.098915
1.583742 -1.019870 -0.032880
1.584521 -1.021937 -0.505215
1.586391 -1.023143 0.032950
1.576906 -1.017415 -0.433256
1.564141 -1.009179 0.097554
1.578575 -1.018882 -0.365208
1.581913 -1.021037 0.164724
1.589802 -1.026522 -0.299728
1.575942 -1.017573 0.230333
1.590951 -1.027264 -0.232527
1.576349 -1.018225 0.297226
1.583230 -1.022670 -0.164899
1.581888 -1.022195 -0.098706
1.578601 -1.020462 -0.032811
1.582735 -1.024701 -0.505215
1.587960 -1.028084 0.033020
1.581670 -1.024404 -0.435055
1.559024 -1.009736 0.097345
1.576794 -1.021636 -0.365208
1.573440 -1.019463 0.164027
1.584693 -1.027147 -0.299103
1.577495 -1.022481 0.230821
1.594153 -1.033278 -0.233258
1.571254 -1.018826 0.296600
1.564726 -1.014592 -0.163156
1.586804 -1.029302 -0.099124
1.573463 -1.021038 -0.032741
1.574465 -1.023251 -0.503144
1.586163 -1.030854 0.033020
1.581514 -1.028225 -0.435505
1.563957 -1.016811 0.097764
1.578300 -1.026527 -0.365972
1.568318 -1.020035 0.163678
1.582898 -1.029911 -0.299103
1.569052 -1.020902 0.229846
1.594011 -1.037142 -0.233502
1.576096 -1.025877 0.297851
1.562953 -1.017322 -0.163156
1.595048 -1.038609 -0.099752
1.576705 -1.027057 -0.032845
1.575912 -1.028108 -0.504180
1.577663 -1.029250 0.032880
1.581349 -1.032048 -0.435955
1.565526 -1.021722 0.097973
1.581438 -1.032500 -0.367117
1.566536 -1.022771 0.163678
1.577790 -1.030512 -0.298477
1.567268 -1.023639 0.229846
1.595522 -1.042093 -0.233989
1.572649 -1.027546 0.297538
1.564510 -1.022228 -0.163504
1.574843 -1.029371 -0.098601
1.576584 -1.030902 -0.032880
1.580580 -1.035091 -0.506250
1.579210 -1.034193 0.032950
1.569764 -1.028399 -0.433256
1.562069 -1.023358 0.097868
1.579633 -1.035259 -0.367117
1.573080 -1.030964 0.164550
1.574337 -1.032181 -0.298164
1.562159 -1.024196 0.229358
1.590381 -1.042699 -0.233502
1.574157 -1.032455 0.298164
1.562724 -1.024957 -0.163504
1.569704 -1.029927 -0.098392
1.571439 -1.031457 -0.032811
1.582000 -1.039970 -0.507285
1.580744 -1.039145 0.033020
1.571224 -1.033279 -0.434156
1.548599 -1.018401 0.097136
1.572904 -1.034777 -0.365972
1.569614 -1.032613 0.164376
1.579134 -1.039271 -0.299416
1.560369 -1.026921 0.229358
1.583584 -1.042199 -0.232770
1.565753 -1.030856 0.296913
1.570917 -1.034256 -0.164550
1.582916 -1.042552 -0.099334
1.569636 -1.034198 -0.032811
1.576957 -1.040602 -0.506250
1.578928 -1.041902 0.033020
1.574297 -1.039240 -0.435505
1.553487 -1.025503 0.097554
1.569457 -1.036439 -0.365590
1.567809 -1.035351 0.164376
1.582262 -1.045292 -0.300354
1.565200 -1.034020 0.230333
1.583419 -1.046056 -0.233014
1.560655 -1.031409 0.296287
1.562461 -1.032603 -0.163853
1.572764 -1.039806 -0.098810
1.564493 -1.034730 -0.032741
1.571918 -1.041219 -0.505215
1.573773 -1.042448 0.032950
1.577354 -1.045216 -0.436855
1.550030 -1.027110 0.097450
1.567645 -1.039177 -0.365590
1.559357 -1.033682 0.163678
1.577143 -1.045868 -0.299728
1.563393 -1.036750 0.230333
1.584900 -1.051012 -0.233502
1.562145 -1.036315 0.296913
1.554016 -1.030922 -0.163156
1.575939 -1.045862 -0.099124
1.569348 -1.041883 -0.032880
1.573316 -1.046100 -0.506250
1.566956 -1.041871 0.032845
1.567414 -1.042571 -0.434605
1.568191 -1.043087 0.098706
1.570733 -1.045174 -0.366735
1.552574 -1.033091 0.163156
1.572026 -1.046430 -0.299103
1.563233 -1.040577 0.230577
1.592978 -1.060377 -0.234964
1.566911 -1.043420 0.298164
1.552214 -1.033633 -0.163156
1.565800 -1.043075 -0.098601
1.564200 -1.042403 -0.032811
1.571487 -1.048844 -0.506250
1.568461 -1.046825 0.032915
1.563972 -1.044223 -0.434156
1.544774 -1.031405 0.097345
1.572171 -1.050094 -0.367498
1.562367 -1.043545 0.164376
1.576767 -1.053562 -0.300354
1.558114 -1.041098 0.230089
1.572968 -1.051024 -0.232283
1.561803 -1.043957 0.297538
1.562002 -1.044091 -0.164376
1.568958 -1.049136 -0.098915
1.565702 -1.047355 -0.032880
1.579284 -1.058037 -0.509356
1.569955 -1.051787 0.032985
1.562147 -1.046951 -0.434156
1.547949 -1.037436 0.097659
1.565444 -1.049557 -0.366353
1.562198 -1.047380 0.164550
1.574926 -1.056312 -0.300354
1.562889 -1.048239 0.231064
1.571132 -1.053768 -0.232283
1.556698 -1.044481 0.296913
1.561832 -1.047926 -0.164550
1.557174 -1.045195 -0.098287
1.560551 -1.047857 -0.032811
1.571023 -1.056480 -0.507285
1.566457 -1.053409 0.032950
1.561934 -1.050764 -0.434605
1.546136 -1.040136 0.097659
1.561981 -1.051191 -0.365972
1.550450 -1.043431 0.163504
1.581273 -1.064576 -0.301919
1.561057 -1.050965 0.231064
1.577523 -1.062051 -0.233502
1.549957 -1.043885 0.295974
1.546780 -1.041746 -0.163156
1.578537 -1.063535 -0.099752
1.555404 -1.048343 -0.032741
1.562772 -1.054897 -0.505215
1.567931 -1.058379 0.033020
1.569788 -1.060032 -0.437305
1.549284 -1.046186 0.097973
1.560144 -1.053916 -0.365972
1.542022 -1.041674 0.162807
1.569592 -1.060698 -0.300041
1.559220 -1.053688 0.231064
1.575668 -1.064803 -0.233502
1.549769 -1.047695 0.296287
1.544960 -1.044444 -0.163156
1.570061 -1.061813 -0.099334
1.553572 -1.051056 -0.032741
1.567325 -1.061957 -0.507285
1.559459 -1.056627 0.032880
1.559870 -1.057303 -0.435055
1.549109 -1.050009 0.098078
1.563177 -1.059943 -0.367117
1.543500 -1.046600 0.163156
1.562835 -1.060109 -0.299103
1.550807 -1.051950 0.230089
1.578735 -1.070894 -0.234233
1.554477 -1.054835 0.297538
1.546432 -1.049376 -0.163504
1.556638 -1.056699 -0.098601
1.558352 -1.058260 -0.032880
1.565470 -1.064691 -0.507285
1.560920 -1.061597 0.032950
1.554800 -1.057831 -0.434156
1.542320 -1.049340 0.097764
1.561325 -1.062669 -0.367117
1.549906 -1.054898 0.164027
1.562615 -1.063946 -0.299416
1.548969 -1.054656 0.230089
1.571941 -1.070297 -0.233502
1.559164 -1.061995 0.298790
1.551185 -1.056560 -0.164201
1.564694 -1.066162 -0.099229
1.559807 -1.063231 -0.032950
1.566987 -1.069327 -0.508321
1.562554 -1.066302 0.033020
1.553136 -1.060272 -0.434156
1.537371 -1.049510 0.097554
1.559654 -1.065121 -0.367117
1.551538 -1.059578 0.164376
1.557679 -1.064171 -0.298790
1.550589 -1.059327 0.230577
1.562063 -1.067165 -0.232283
1.550970 -1.059984 0.297538
1.559393 -1.065741 -0.165247
1.566315 -1.070873 -0.099438
1.553184 -1.062293 -0.032845
1.565118 -1.072060 -0.508321
1.570589 -1.075808 0.033229
1.556106 -1.066286 -0.435505
1.538832 -1.054449 0.097764
1.551315 -1.063401 -0.365590
1.541470 -1.056652 0.163504
1.567224 -1.074708 -0.300980
1.553649 -1.065400 0.231308
1.563472 -1.072135 -0.232770
1.545860 -1.060455 0.296913
1.537815 -1.054936 -0.163156
1.562797 -1.072475 -0.099334
1.548030 -1.062739 -0.032776
1.556877 -1.070412 -0.506250
1.558822 -1.071749 0.033020
1.555848 -1.070105 -0.435955
1.541926 -1.060529 0.098078
1.552691 -1.068333 -0.366353
1.542906 -1.061600 0.163853
1.558837 -1.072962 -0.299728
1.550152 -1.066984 0.231064
1.573044 -1.082741 -0.234477
1.547261 -1.065392 0.297538
1.535971 -1.057618 -0.163156
1.572436 -1.083132 -0.100066
1.542880 -1.063169 -0.032706
1.555006 -1.073128 -0.506250
1.550366 -1.069925 0.032880
1.553978 -1.072818 -0.435955
1.546647 -1.067757 0.098496
1.549209 -1.069925 -0.365972
1.544330 -1.066556 0.164201
1.552086 -1.072312 -0.298790
1.545021 -1.067431 0.230577
1.566253 -1.082100 -0.233745
1.545399 -1.068091 0.297538
1.537401 -1.062563 -0.163504
1.563972 -1.081331 -0.099648
1.545956 -1.069273 -0.032811
1.559483 -1.080240 -0.508321
1.551784 -1.074907 0.032950
1.544095 -1.069979 -0.433706
1.541498 -1.068180 0.098287
1.553793 -1.077101 -0.367498
1.539191 -1.066979 0.163853
1.553459 -1.077271 -0.299416
1.538262 -1.066732 0.229846
1.561099 -1.082569 -0.233258
1.553271 -1.077542 0.299416
1.545367 -1.072059 -0.164550
1.547315 -1.073811 -0.098706
1.553943 -1.078812 -0.033020
1.560768 -1.085166 -0.509356
1.556473 -1.082180 0.033090
1.540625 -1.071560 -0.433256
1.529793 -1.064026 0.097659
1.547076 -1.076448 -0.366353
1.547139 -1.076491 0.164899
1.554819 -1.082238 -0.300041
1.536398 -1.069416 0.229846
1.555949 -1.083024 -0.232770
1.538419 -1.071221 0.296913
1.550033 -1.079308 -0.165247
1.556911 -1.084501 -0.099438
1.542214 -1.074663 -0.032811
1.552534 -1.083466 -0.507285
1.549662 -1.081462 0.032985
1.548340 -1.080940 -0.435955
1.531209 -1.068981 0.097868
1.545195 -1.079146 -0.366353
1.530557 -1.068923 0.163330
1.556166 -1.087212 -0.300667
1.542665 -1.077780 0.231064
1.560565 -1.090286 -0.233745
1.536547 -1.073905 0.296913
1.535083 -1.072881 -0.163853
1.548468 -1.082639 -0.099020
1.533781 -1.072769 -0.032671
1.544312 -1.081741 -0.505215
1.549410 -1.085312 0.033020
1.549643 -1.085878 -0.436855
1.532612 -1.073944 0.098078
1.543310 -1.081842 -0.366353
1.533583 -1.075024 0.163853
1.552649 -1.088793 -0.300354
1.544032 -1.082750 0.231552
1.561911 -1.095287 -0.234233
1.541139 -1.081123 0.298164
1.529946 -1.073270 -0.163504
1.561290 -1.095665 -0.099962
1.536816 -1.078891 -0.032776
1.548743 -1.088879 -0.507285
1.547514 -1.088014 0.033020
1.547745 -1.088581 -0.436855
1.538904 -1.082363 0.098601
1.543025 -1.085663 -0.366735
1.528445 -1.075406 0.163504
1.544285 -1.086953 -0.299103
1.537270 -1.082016 0.230821
1.563243 -1.100297 -0.234720
1.536019 -1.081536 0.297538
1.531328 -1.078233 -0.163853
1.549578 -1.091488 -0.099334
1.536566 -1.082723 -0.032811
1.546840 -1.091580 -0.507285
1.545612 -1.090714 0.033020
1.531515 -1.081165 -0.432806
1.525591 -1.076984 0.097868
1.544335 -1.090620 -0.367498
1.529821 -1.080370 0.163853
1.548839 -1.094206 -0.300354
1.528894 -1.080116 0.229846
1.554835 -1.098442 -0.233745
1.537356 -1.086496 0.298164
1.535952 -1.085504 -0.164550
1.541147 -1.089579 -0.098915
1.544469 -1.092332 -0.033020
1.551239 -1.098745 -0.509356
1.537179 -1.088786 0.032880
1.534395 -1.087217 -0.434156
1.530228 -1.084264 0.098287
1.540827 -1.092178 -0.367117
1.540937 -1.092256 0.165247
1.545315 -1.095765 -0.300041
1.530245 -1.085079 0.230333
1.546438 -1.096561 -0.232770
1.535457 -1.089177 0.298164
1.537305 -1.090488 -0.164899
1.544130 -1.095734 -0.099229
1.536038 -1.090395 -0.032880
1.543020 -1.096973 -0.507285
1.540166 -1.094944 0.032985
1.542024 -1.096670 -0.436855
1.518567 -1.079987 0.097659
1.535719 -1.092590 -0.366353
1.527664 -1.086859 0.164027
1.549838 -1.103042 -0.301293
1.531584 -1.090050 0.230821
1.554226 -1.106165 -0.234233
1.527117 -1.087272 0.296913
1.528908 -1.088547 -0.164201
1.548722 -1.103062 -0.099648
1.527618 -1.088433 -0.032741
1.537958 -1.097420 -0.506250
1.546391 -1.103438 0.033160
1.540107 -1.099359 -0.436855
1.534561 -1.095400 0.098810
1.537005 -1.097550 -0.367117
1.522522 -1.087208 0.163678
1.539874 -1.100004 -0.299728
1.532910 -1.095029 0.231308
1.552293 -1.108876 -0.234233
1.531646 -1.094530 0.298164
1.527006 -1.091214 -0.164201
1.553294 -1.110410 -0.100066
1.530596 -1.094587 -0.032845
1.539182 -1.102352 -0.507285
1.526580 -1.093327 0.032776
1.538186 -1.102046 -0.436855
1.531024 -1.096914 0.098706
1.541470 -1.104806 -0.368643
1.523861 -1.092185 0.164027
1.541162 -1.104992 -0.300354
1.524543 -1.093076 0.230333
1.560035 -1.118524 -0.235695
1.532943 -1.099504 0.298790
1.528337 -1.096200 -0.164550
1.543239 -1.107297 -0.099543
1.530308 -1.098423 -0.032880
1.540393 -1.107292 -0.508321
1.536035 -1.104160 0.033020
1.525186 -1.096765 -0.433706
1.532350 -1.101916 0.098915
1.534759 -1.104055 -0.367498
1.518718 -1.092516 0.163678
1.539231 -1.107680 -0.300354
1.522633 -1.095735 0.230333
1.551636 -1.116606 -0.234720
1.537435 -1.106795 0.300041
1.526421 -1.098866 -0.164550
1.536443 -1.106488 -0.099229
1.534878 -1.105768 -0.033020
1.544725 -1.114500 -0.510391
1.534106 -1.106839 0.033020
1.529590 -1.103987 -0.435505
1.507752 -1.088225 0.097450
1.529646 -1.104433 -0.366735
1.521655 -1.098663 0.164201
1.540498 -1.112678 -0.300980
1.523937 -1.100716 0.230821
1.538419 -1.111177 -0.233014
1.525894 -1.102535 0.298164
1.530961 -1.106196 -0.165247
1.539365 -1.112677 -0.099543
1.526464 -1.103758 -0.032880
1.533389 -1.110396 -0.507285
1.541890 -1.116552 0.033229
1.526083 -1.105512 -0.435055
1.522024 -1.102572 0.098496
1.530895 -1.109406 -0.367498
1.516508 -1.098980 0.163853
1.543352 -1.118843 -0.301919
1.522013 -1.103374 0.230821
1.547728 -1.122016 -0.234720
1.520769 -1.102877 0.297538
1.525802 -1.106527 -0.164899
1.545504 -1.121227 -0.100066
1.522917 -1.105246 -0.032845
1.531449 -1.113071 -0.507285
1.536703 -1.116890 0.033160
1.536760 -1.117341 -0.438655
1.513636 -1.100528 0.098078
1.525781 -1.109766 -0.366735
1.514588 -1.101624 0.163853
1.542994 -1.122698 -0.302231
1.529716 -1.113036 0.232283
1.545768 -1.124716 -0.234720
1.525230 -1.110179 0.298790
1.514203 -1.102153 -0.163853
1.546774 -1.126274 -0.100276
1.522602 -1.109080 -0.032880
1.535746 -1.120296 -0.509356
1.531521 -1.117214 0.033090
1.528511 -1.115427 -0.436855
1.527846 -1.114942 0.099124
1.527014 -1.114743 -0.367498
1.515881 -1.106616 0.164201
1.528270 -1.116069 -0.299728
1.516549 -1.107509 0.230577
1.553421 -1.134436 -0.236183
1.526480 -1.115170 0.299416
1.518713 -1.109496 -0.164550
1.533518 -1.120722 -0.099543
1.520664 -1.111735 -0.032880
1.530671 -1.120692 -0.508321
1.529568 -1.119885 0.033090
1.520273 -1.113487 -0.435055
1.517842 -1.111706 0.098601
1.531400 -1.122047 -0.369025
1.513947 -1.109260 0.164201
1.531100 -1.122238 -0.300667
1.516215 -1.111328 0.230821
1.541832 -1.130104 -0.234720
1.530904 -1.122505 0.300667
1.523201 -1.116857 -0.165247
1.526728 -1.119853 -0.099229
1.525170 -1.119120 -0.033020
1.534940 -1.127938 -0.510391
1.527612 -1.122553 0.033090
1.524608 -1.120755 -0.436855
1.517508 -1.115536 0.098706
1.526276 -1.122392 -0.368261
1.512009 -1.111900 0.164201
1.530926 -1.125812 -0.300980
1.514273 -1.113973 0.230821
1.539857 -1.132794 -0.234720
1.519396 -1.118150 0.298790
1.524459 -1.121876 -0.165596
1.531205 -1.127252 -0.099648
1.521605 -1.120595 -0.032985
1.526750 -1.126029 -0.508321
1.532087 -1.129965 0.033229
1.524414 -1.124306 -0.437305
1.505916 -1.111069 0.098078
1.515033 -1.117795 -0.365972
1.508657 -1.113091 0.164027
1.530549 -1.129655 -0.301293
1.515716 -1.118708 0.231308
1.537878 -1.135480 -0.234720
1.511281 -1.115842 0.297538
1.509872 -1.114801 -0.164201
1.534252 -1.133216 -0.099962
1.511801 -1.117041 -0.032811
1.521873 -1.126127 -0.507285
1.520666 -1.125233 0.033020
1.525582 -1.129283 -0.438205
1.513801 -1.120562 0.098706
1.516235 -1.122774 -0.366735
1.506713 -1.115723 0.164027
1.525597 -1.129707 -0.300667
1.516951 -1.123714 0.231796
1.540878 -1.141439 -0.235452
1.518854 -1.125535 0.299416
1.511125 -1.119807 -0.164550
1.540294 -1.141839 -0.100485
1.516274 -1.124443 -0.032950
1.526109 -1.133389 -0.509356
1.515489 -1.125501 0.032950
1.515984 -1.125869 -0.435955
1.508636 -1.120821 0.098496
1.520773 -1.129838 -0.368261
1.506557 -1.119276 0.164201
1.525209 -1.133546 -0.300980
1.510404 -1.122544 0.231064
1.542069 -1.146495 -0.235939
1.517084 -1.127919 0.299416
1.515760 -1.126935 -0.165247
1.535294 -1.141873 -0.100276
1.520923 -1.131598 -0.033090
1.524129 -1.136051 -0.509356
1.510315 -1.125754 0.032880
1.509133 -1.125283 -0.434605
1.509880 -1.125840 0.098706
1.521749 -1.135103 -0.369025
1.510794 -1.126932 0.164899
1.523030 -1.136472 -0.300980
1.505065 -1.123067 0.230577
1.533702 -1.144436 -0.234964
1.521248 -1.135556 0.300667
1.507207 -1.125075 -0.164550
1.528297 -1.141234 -0.099962
1.512340 -1.129729 -0.032950
1.531425 -1.145653 -0.512462
1.519557 -1.136774 0.033125
1.508727 -1.129082 -0.435055
1.498319 -1.121293 0.098078
1.519765 -1.137757 -0.369025
1.510420 -1.130761 0.165073
1.521044 -1.139129 -0.300980
1.509458 -1.130452 0.231552
1.531702 -1.147111 -0.234964
1.516102 -1.135841 0.300041
1.511619 -1.132483 -0.165247
1.529500 -1.146295 -0.100171
1.507166 -1.129968 -0.032880
1.517065 -1.139044 -0.508321
1.525566 -1.145427 0.033299
1.514545 -1.137566 -0.437305
1.505941 -1.131104 0.098706
1.505221 -1.130973 -0.365972
1.500480 -1.127411 0.164201
1.528527 -1.148903 -0.302857
1.504309 -1.130699 0.231064
1.526524 -1.147397 -0.234477
1.510960 -1.136111 0.299416
1.503271 -1.130330 -0.164550
1.525901 -1.147762 -0.100066
1.508387 -1.135001 -0.032950
1.518160 -1.144015 -0.509356
1.509191 -1.137257 0.032985
1.512557 -1.140207 -0.437305
1.503965 -1.133730 0.098706
1.504812 -1.134781 -0.366353
1.492146 -1.125230 0.163504
1.520212 -1.146810 -0.301606
1.508672 -1.138105 0.232039
1.527689 -1.152451 -0.234964
1.508974 -1.138746 0.299416
1.504476 -1.135352 -0.164899
1.520707 -1.148017 -0.099857
1.506404 -1.137632 -0.032950
1.516161 -1.146663 -0.509356
1.511989 -1.143508 0.033090
1.510565 -1.142846 -0.437305
1.508355 -1.141173 0.099124
1.513787 -1.145699 -0.369025
1.499712 -1.135047 0.164550
1.513483 -1.145885 -0.300667
1.503518 -1.138340 0.231552
1.533588 -1.161107 -0.236183
1.510134 -1.143764 0.300041
1.499316 -1.135570 -0.164550
1.521885 -1.153082 -0.100066
1.504416 -1.140259 -0.032950
1.517235 -1.151644 -0.510391
1.513176 -1.148564 0.033160
1.507016 -1.144302 -0.436855
1.507951 -1.145012 0.099229
1.511785 -1.148339 -0.369025
1.502489 -1.141278 0.165073
1.513054 -1.149720 -0.300980
1.498368 -1.138560 0.231064
1.523657 -1.157776 -0.234964
1.514426 -1.151179 0.301293
1.503677 -1.143008 -0.165247
1.510331 -1.148483 -0.099438
1.505607 -1.145305 -0.033020
1.515223 -1.154290 -0.510391
1.504807 -1.146356 0.033020
1.505016 -1.146930 -0.436855
1.494831 -1.139168 0.098496
1.509779 -1.150976 -0.369025
1.497326 -1.141483 0.164724
1.514187 -1.154754 -0.301606
1.496378 -1.141174 0.231064
1.518477 -1.158026 -0.234477
1.502991 -1.146632 0.299416
1.508015 -1.150464 -0.165945
1.517851 -1.158387 -0.100066
1.497248 -1.143077 -0.032880
1.513206 -1.156933 -0.510391
1.510747 -1.155053 0.033194
1.504560 -1.150739 -0.437305
1.494427 -1.142989 0.098601
1.498412 -1.146451 -0.366735
1.493749 -1.142884 0.164550
1.515306 -1.159797 -0.302231
1.497537 -1.146197 0.231552
1.518030 -1.161881 -0.234720
1.500988 -1.149253 0.299416
1.499678 -1.148250 -0.165247
1.518998 -1.163463 -0.100276
1.495250 -1.145688 -0.032880
1.505053 -1.154868 -0.508321
1.507142 -1.156471 0.033160
1.510278 -1.159296 -0.439554
1.494014 -1.146811 0.098706
1.501080 -1.152652 -0.367880
1.491752 -1.145489 0.164550
1.507013 -1.157626 -0.300980
1.500257 -1.152436 0.232283
1.511277 -1.160901 -0.233989
1.495847 -1.149464 0.298790
1.494511 -1.148438 -0.164899
1.521715 -1.169764 -0.100590
1.499589 -1.153172 -0.033020
1.506097 -1.159851 -0.509356
1.505121 -1.159099 0.033160
1.502078 -1.157173 -0.437755
1.501503 -1.156731 0.099334
1.511507 -1.164858 -0.370933
1.489750 -1.148091 0.164550
1.508119 -1.162667 -0.301606
1.496671 -1.153841 0.232039
1.528114 -1.178081 -0.236914
1.506352 -1.161724 0.301293
1.492505 -1.151044 -0.164899
1.513346 -1.167538 -0.100171
1.494408 -1.153344 -0.032950
1.504070 -1.162477 -0.509356
1.499931 -1.159279 0.033090
1.495431 -1.156217 -0.436405
1.491582 -1.153241 0.098810
1.501707 -1.161488 -0.369025
1.490896 -1.153127 0.164899
1.509213 -1.167715 -0.302231
1.485235 -1.149163 0.230577
1.521345 -1.177102 -0.236183
1.507447 -1.166769 0.301919
1.493645 -1.156086 -0.165247
1.509727 -1.168955 -0.100066
1.503459 -1.164522 -0.033194
1.508145 -1.169837 -0.511426
1.499486 -1.163121 0.033125
1.494950 -1.160020 -0.436855
1.483255 -1.150945 0.098392
1.496575 -1.161700 -0.368261
1.493603 -1.159392 0.165422
1.504052 -1.167924 -0.301606
1.492635 -1.159058 0.232039
1.508314 -1.171233 -0.234477
1.499168 -1.164551 0.300667
1.504212 -1.168469 -0.166642
1.507684 -1.171588 -0.100066
1.490373 -1.158554 -0.032950
1.500003 -1.167721 -0.509356
1.503765 -1.170649 0.033264
1.497536 -1.166219 -0.438205
1.489123 -1.159668 0.098915
1.492997 -1.163103 -0.367880
1.486862 -1.158324 0.164899
1.511360 -1.177833 -0.303483
1.493741 -1.164102 0.232527
1.518793 -1.183626 -0.236427
1.490902 -1.162308 0.299416
1.486457 -1.158843 -0.164899
1.510362 -1.177903 -0.100380
1.491502 -1.163613 -0.033020
1.494918 -1.167958 -0.508321
1.493841 -1.167117 0.033090
1.503175 -1.174832 -0.440454
1.488670 -1.163495 0.099020
1.494058 -1.168126 -0.368643
1.480129 -1.157236 0.164376
1.499966 -1.173167 -0.301606
1.488580 -1.164261 0.232039
1.513598 -1.183829 -0.235939
1.495094 -1.169777 0.300667
1.487571 -1.163891 -0.165247
1.513022 -1.184230 -0.100694
1.489469 -1.166214 -0.033020
1.501999 -1.177718 -0.511426
1.488654 -1.167254 0.033020
1.491922 -1.170237 -0.437755
1.492923 -1.171022 0.099438
1.507462 -1.182851 -0.372459
1.478107 -1.159817 0.164376
1.501229 -1.177961 -0.302231
1.484984 -1.165632 0.231796
1.517775 -1.191372 -0.236914
1.493050 -1.172385 0.300667
1.491805 -1.171407 -0.165945
1.506241 -1.183168 -0.100380
1.487431 -1.168812 -0.033020
1.502977 -1.182727 -0.512462
1.486615 -1.169851 0.033020
1.488551 -1.171374 -0.437305
1.486169 -1.169920 0.099124
1.494804 -1.176717 -0.369788
1.477849 -1.163370 0.164550
1.502275 -1.183023 -0.302857
1.478472 -1.164279 0.231064
1.512575 -1.191562 -0.236427
1.491207 -1.174729 0.300667
1.493094 -1.176215 -0.166293
1.498106 -1.180588 -0.099962
1.488734 -1.173623 -0.033090
1.507183 -1.189874 -0.514532
1.489484 -1.175902 0.033125
1.483446 -1.171555 -0.436405
1.476493 -1.166063 0.098601
1.486586 -1.174456 -0.368261
1.485196 -1.173358 0.165596
1.500208 -1.185643 -0.302857
1.474880 -1.165627 0.230821
1.504264 -1.189275 -0.235452
1.489154 -1.177329 0.300667
1.494164 -1.181291 -0.166642
1.499176 -1.185678 -0.100171
1.486684 -1.176220 -0.033090
1.498840 -1.187966 -0.512462
1.490358 -1.181243 0.033194
1.485980 -1.177773 -0.437755
1.480511 -1.173859 0.099020
1.478380 -1.172170 -0.366735
1.476697 -1.171255 0.164899
1.504327 -1.193170 -0.304109
1.483525 -1.177093 0.232527
1.508406 -1.196835 -0.236427
1.476265 -1.171332 0.298477
1.482530 -1.176725 -0.165596
1.506282 -1.196006 -0.100799
1.475028 -1.171609 -0.032880
1.493740 -1.188175 -0.511426
1.483599 -1.180108 0.033090
1.486766 -1.183051 -0.438655
1.483149 -1.180172 0.099334
1.482271 -1.179897 -0.368261
1.466856 -1.167627 0.164027
1.499151 -1.193333 -0.303483
1.484575 -1.182154 0.233014
1.509421 -1.201939 -0.236914
1.491009 -1.187703 0.301919
1.471124 -1.171863 -0.164550
1.507316 -1.201123 -0.101008
1.476108 -1.176675 -0.032950
1.494684 -1.193190 -0.512462
1.479974 -1.181448 0.033055
1.483383 -1.184169 -0.438205
1.484208 -1.185252 0.099543
1.481950 -1.183449 -0.368643
1.469691 -1.173659 0.164550
1.484719 -1.186085 -0.300980
1.474961 -1.178289 0.231796
1.507321 -1.204571 -0.236914
1.489142 -1.190043 0.301919
1.478620 -1.181635 -0.165596
1.491387 -1.192265 -0.100066
1.480505 -1.183988 -0.033090
1.489792 -1.193122 -0.511426
1.481238 -1.186271 0.033125
1.482835 -1.187975 -0.438655
1.476109 -1.182587 0.099124
1.495202 -1.198311 -0.372459
1.472305 -1.179960 0.165073
1.494977 -1.198559 -0.303483
1.469805 -1.178378 0.231308
1.496134 -1.199487 -0.235452
1.487062 -1.192640 0.301919
1.476555 -1.184214 -0.165596
1.483073 -1.189866 -0.099648
1.478436 -1.186570 -0.033090
1.498248 -1.204192 -0.515050
1.482283 -1.191360 0.033194
1.480759 -1.190561 -0.438655
1.470930 -1.182658 0.098915
1.476280 -1.187384 -0.368261
1.478006 -1.188772 0.165945
1.495961 -1.203643 -0.304109
1.470839 -1.183431 0.231796
1.494038 -1.202097 -0.235452
1.478823 -1.190280 0.300667
1.480695 -1.191786 -0.166293
1.490328 -1.199968 -0.100276
1.479477 -1.191658 -0.033160
1.485618 -1.198315 -0.511426
1.489540 -1.201478 0.033404
1.478679 -1.193143 -0.438655
1.470418 -1.186478 0.099020
1.474205 -1.189959 -0.368261
1.466626 -1.183841 0.164899
1.496931 -1.208734 -0.304734
1.474949 -1.190984 0.232770
1.498116 -1.209691 -0.236427
1.476743 -1.192859 0.300667
1.475513 -1.191865 -0.165945
1.495999 -1.208844 -0.100799
1.468064 -1.186695 -0.032950
1.483524 -1.200906 -0.511426
1.481224 -1.199044 0.033264
1.482652 -1.200628 -0.440454
1.468345 -1.189042 0.099020
1.475178 -1.195001 -0.369025
1.458365 -1.181382 0.164201
1.485611 -1.203883 -0.302857
1.475953 -1.196056 0.233258
1.496002 -1.212304 -0.236427
1.477728 -1.197922 0.301293
1.470335 -1.191929 -0.165596
1.496989 -1.213969 -0.101008
1.462885 -1.186736 -0.032880
1.484425 -1.205929 -0.512462
1.476025 -1.199105 0.033194
1.477530 -1.200756 -0.439554
1.475567 -1.199161 0.099648
1.471566 -1.196336 -0.368643
1.462485 -1.188953 0.164899
1.483718 -1.206215 -0.302857
1.470783 -1.196125 0.232770
1.500044 -1.219923 -0.237402
1.481765 -1.205486 0.302544
1.468252 -1.194493 -0.165596
1.485574 -1.209016 -0.100380
1.473218 -1.199388 -0.033160
1.482318 -1.208518 -0.512462
1.473930 -1.201679 0.033194
1.469600 -1.198150 -0.437755
1.468829 -1.197948 0.099334
1.471207 -1.199887 -0.369025
1.457528 -1.188731 0.164550
1.481611 -1.208803 -0.302857
1.459673 -1.190905 0.231308
1.497913 -1.222539 -0.237402
1.479869 -1.207812 0.302544
1.472548 -1.201837 -0.166293
1.479031 -1.207559 -0.100066
1.471332 -1.201700 -0.033160
1.489390 -1.218184 -0.515568
1.478232 -1.209057 0.033334
1.472031 -1.204415 -0.439104
1.462308 -1.196459 0.099020
1.485822 -1.216131 -0.373222
1.463160 -1.197582 0.165422
1.482556 -1.213890 -0.303483
1.466808 -1.200996 0.232770
1.489847 -1.219860 -0.236427
1.471646 -1.205387 0.301293
1.476614 -1.209455 -0.166990
1.476921 -1.210138 -0.100066
1.466139 -1.201731 -0.033090
1.481289 -1.215879 -0.513497
1.479211 -1.214173 0.033404
1.468421 -1.205745 -0.438655
1.464848 -1.202812 0.099334
1.467009 -1.205015 -0.369025
1.459528 -1.198870 0.165247
1.486539 -1.221492 -0.304734
1.464710 -1.203554 0.232770
1.487716 -1.222458 -0.236427
1.466488 -1.205444 0.300667
1.471422 -1.209500 -0.166642
1.487149 -1.222862 -0.100904
1.460951 -1.201748 -0.033020
1.477673 -1.217234 -0.512979
1.470916 -1.211667 0.033264
1.476842 -1.216982 -0.441804
1.465830 -1.207907 0.099543
1.467934 -1.210071 -0.369788
1.452821 -1.197613 0.164724
1.481357 -1.221571 -0.304109
1.464139 -1.207372 0.233014
1.488643 -1.227579 -0.236914
1.470477 -1.213030 0.301919
1.460088 -1.204460 -0.165596
1.485012 -1.225456 -0.100904
1.465020 -1.209388 -0.033160
1.475547 -1.219811 -0.512979
1.462634 -1.209136 0.033125
1.467207 -1.213348 -0.439554
1.465258 -1.211736 0.099648
1.470358 -1.216386 -0.370933
1.458404 -1.206497 0.165596
1.473135 -1.219117 -0.302857
1.455912 -1.204863 0.232039
1.492615 -1.235238 -0.237889
1.471401 -1.218114 0.302544
1.461053 -1.209547 -0.165945
1.481333 -1.226772 -0.100799
1.465986 -1.214494 -0.033229
1.474902 -1.223618 -0.513497
1.466677 -1.216794 0.033264
1.462088 -1.213418 -0.438655
1.463141 -1.214292 0.099648
1.468232 -1.218950 -0.370933
1.453231 -1.206495 0.165247
1.474045 -1.224210 -0.303483
1.453807 -1.207402 0.232039
1.484349 -1.232768 -0.236914
1.472312 -1.223205 0.303170
1.468134 -1.219735 -0.166990
1.471509 -1.222973 -0.100276
1.470015 -1.222165 -0.033369
1.475734 -1.228662 -0.514532
1.466088 -1.220632 0.033299
1.464460 -1.219709 -0.440004
1.451811 -1.209175 0.099020
1.476661 -1.230308 -0.373604
1.454184 -1.211581 0.165596
1.474941 -1.229310 -0.304109
1.454747 -1.212480 0.232527
1.476096 -1.230273 -0.235939
1.470175 -1.225773 0.303170
1.469064 -1.224847 -0.167339
1.470906 -1.226818 -0.100380
1.458667 -1.217042 -0.033160
1.469140 -1.227520 -0.512979
1.468559 -1.227035 0.033404
1.466815 -1.226012 -0.441354
1.457361 -1.218111 0.099543
1.451919 -1.213993 -0.367880
1.450539 -1.212839 0.165422
1.475823 -1.234418 -0.304734
1.454151 -1.216290 0.232770
1.480037 -1.237942 -0.236914
1.461973 -1.223266 0.301919
1.460812 -1.222295 -0.166642
1.479484 -1.238357 -0.101113
1.453474 -1.217018 -0.033090
1.468475 -1.231324 -0.513497
1.466415 -1.229596 0.033404
1.463179 -1.227318 -0.440904
1.456763 -1.221936 0.099648
1.467846 -1.231669 -0.372459
1.443841 -1.211526 0.164899
1.470641 -1.234452 -0.304109
1.461149 -1.226484 0.234233
1.483956 -1.245628 -0.237889
1.465887 -1.230897 0.303170
1.452573 -1.219718 -0.165945
1.475791 -1.239653 -0.101008
1.451348 -1.219553 -0.033090
1.467802 -1.235129 -0.514015
1.453556 -1.223141 0.033160
1.461035 -1.229870 -0.440904
1.460740 -1.229622 0.100066
1.462690 -1.231699 -0.371696
1.444772 -1.216611 0.165247
1.462441 -1.231926 -0.302857
1.452933 -1.223917 0.233258
1.480261 -1.246937 -0.237645
1.460715 -1.230908 0.302544
1.453489 -1.224819 -0.166293
1.470571 -1.239652 -0.100799
1.455332 -1.227241 -0.033229
1.470072 -1.241428 -0.515568
1.456003 -1.229547 0.033264
1.449954 -1.224873 -0.438205
1.450963 -1.225725 0.099543
1.469535 -1.241854 -0.373986
1.445690 -1.221703 0.165596
1.469340 -1.242128 -0.304734
1.447763 -1.223888 0.232770
1.475050 -1.246956 -0.237158
1.469123 -1.242384 0.304734
1.451349 -1.227354 -0.166293
1.462306 -1.237057 -0.100380
1.456241 -1.232363 -0.033299
1.467903 -1.243992 -0.515568
1.461483 -1.238551 0.033439
1.452274 -1.231182 -0.439554
1.444251 -1.224381 0.099229
1.455387 -1.234258 -0.370933
1.451154 -1.230667 0.166467
1.464157 -1.242135 -0.304109
1.448652 -1.228981 0.233258
1.465303 -1.243107 -0.235939
1.460928 -1.239834 0.303483
1.458319 -1.237620 -0.167339
1.466235 -1.244778 -0.100799
1.451040 -1.232314 -0.033229
1.464258 -1.245300 -0.515050
1.457795 -1.239804 0.033404
1.457544 -1.240029 -0.441804
1.449718 -1.233371 0.099752
1.456221 -1.239341 -0.371696
1.441417 -1.226742 0.165596
1.464995 -1.247249 -0.304734
1.451039 -1.235368 0.233989
1.472200 -1.253384 -0.237402
1.452746 -1.237259 0.302231
1.453123 -1.237580 -0.166990
1.465580 -1.248630 -0.100904
1.445843 -1.232250 -0.033160
1.457674 -1.244091 -0.513497
1.460192 -1.246241 0.033509
1.453896 -1.241305 -0.441354
1.446044 -1.234602 0.099648
1.451070 -1.239331 -0.370933
1.436244 -1.226668 0.165247
1.462816 -1.249804 -0.304734
1.453409 -1.241767 0.234720
1.474538 -1.259820 -0.238133
1.456591 -1.244926 0.303483
1.444903 -1.234936 -0.166293
1.467953 -1.255080 -0.101218
1.448249 -1.238671 -0.033264
1.459902 -1.250404 -0.515050
1.444346 -1.237080 0.033194
1.451727 -1.243841 -0.441354
1.448437 -1.241023 0.099962
1.463811 -1.254638 -0.374749
1.437126 -1.231766 0.165596
1.463632 -1.254927 -0.305360
1.443704 -1.237841 0.233502
1.472337 -1.262391 -0.238133
1.457415 -1.250038 0.304109
1.448794 -1.242644 -0.166990
1.465760 -1.257640 -0.101218
1.444567 -1.239894 -0.033229
1.462113 -1.256728 -0.516603
1.448251 -1.244813 0.033334
1.449554 -1.246373 -0.441354
1.437183 -1.235736 0.099334
1.448223 -1.245669 -0.371314
1.437995 -1.236871 0.165945
1.455450 -1.252326 -0.304109
1.440037 -1.239064 0.233258
1.468627 -1.263665 -0.237889
1.461220 -1.257735 0.305360
1.449644 -1.247771 -0.167339
1.462049 -1.258893 -0.101113
1.451492 -1.250244 -0.033439
1.461380 -1.260539 -0.517120
1.449104 -1.249951 0.033404
1.444425 -1.246355 -0.440454
1.439560 -1.242157 0.099648
1.449020 -1.250760 -0.372078
1.438851 -1.241982 0.166293
1.456252 -1.257447 -0.304734
1.437872 -1.241576 0.233258
1.460409 -1.261036 -0.236914
1.456032 -1.257701 0.304734
1.450479 -1.252904 -0.167688
1.458339 -1.260137 -0.101008
1.437205 -1.242314 -0.033160
1.459178 -1.263088 -0.517120
1.781463 -0.608542 0.298164
1.822737 -0.632961 0.236914
1.810738 -0.632693 0.303796
1.789830 -0.627842 0.165945
1.798151 -0.631113 0.233989
1.809742 -0.635536 0.303796
1.817701 -0.640827 0.101008
1.788732 -0.630965 0.165945
1.802662 -0.636232 0.234720
1.805285 -0.639994 0.100380
1.798895 -0.638082 0.166990
1.798205 -0.638544 0.302231
1.823432 -0.649654 0.033788
1.811691 -0.645827 0.100799
1.802300 -0.643188 0.234964
1.808250 -0.645668 0.304109
1.803921 -0.644832 -0.033439
1.812441 -0.649662 0.100904
1.781653 -0.638977 0.165596
1.801175 -0.646333 0.234964
1.810839 -0.650158 0.304734
1.818933 -0.653064 -0.169082
1.825145 -0.655654 -0.101636
1.815965 -0.652714 -0.033683
1.802340 -0.649238 0.033439
1.798152 -0.648084 0.100171
1.826525 -0.658670 -0.377420
1.814271 -0.654251 0.168734
1.785106 -0.644086 0.233014
1.809701 -0.653317 0.304734
1.825287 -0.658944 -0.169779
1.818362 -0.656802 -0.101322
1.804964 -0.653744 0.033509
1.781996 -0.645777 0.099334
1.799533 -0.652488 -0.372078
1.788777 -0.648588 0.166467
1.787711 -0.648554 0.233502
1.804845 -0.655127 0.304109
1.802195 -0.654521 -0.100485
1.796761 -0.652902 -0.033369
1.805699 -0.657578 0.033544
1.792125 -0.652989 0.099962
1.809458 -0.659662 -0.374367
1.778283 -0.648297 0.165596
1.792171 -0.653714 0.234233
1.816415 -0.662557 -0.237402
1.799987 -0.656921 0.303483
1.789286 -0.653016 -0.166642
1.812306 -0.661776 -0.101113
1.795619 -0.656037 -0.033369
1.804549 -0.660728 0.033544
1.794734 -0.657490 0.100171
1.777149 -0.651399 0.165596
1.804517 -0.661788 -0.304422
1.789164 -0.656158 0.233989
1.818983 -0.667094 -0.237889
1.802547 -0.661423 0.304109
1.784403 -0.654765 -0.166293
1.813023 -0.665626 -0.101218
1.788840 -0.657102 -0.033264
1.788381 -0.658350 0.033264
1.797332 -0.662002 0.100380
1.807145 -0.665974 -0.374367
1.779748 -0.655878 0.165945
1.792238 -0.660836 -0.302544
1.784291 -0.657906 0.233502
1.801390 -0.664568 0.304109
1.781388 -0.657189 -0.166119
1.811859 -0.668789 -0.101218
1.808325 -0.667843 -0.033648
1.808122 -0.669203 -0.516603
1.794730 -0.664247 0.033404
1.778124 -0.658454 -0.437755
1.783063 -0.660283 0.099648
1.791252 -0.663671 -0.371314
1.789810 -0.663136 0.166990
1.798491 -0.666710 -0.303796
1.775694 -0.658259 0.232527
1.814782 -0.672749 -0.237645
1.800227 -0.667711 0.304109
1.793315 -0.665147 -0.167339
1.801326 -0.668476 -0.100694
1.801532 -0.668910 -0.033544
1.801519 -0.670337 -0.515050
1.797316 -0.668773 0.033474
1.797061 -0.669035 -0.442704
1.772549 -0.659909 0.099124
1.799290 -0.670222 -0.373222
1.784916 -0.664868 0.166642
1.797325 -0.669848 -0.303796
1.774543 -0.661357 0.232527
1.811745 -0.675222 -0.237402
1.797208 -0.670161 0.303796
1.795885 -0.669668 -0.167688
1.805771 -0.673713 -0.101008
1.783501 -0.665760 -0.033229
1.793109 -0.670773 -0.512979
1.803638 -0.674712 0.033613
1.786765 -0.668755 -0.440454
1.778877 -0.665803 0.099543
1.792601 -0.671296 -0.372078
1.778155 -0.665886 0.166119
1.807252 -0.677142 -0.305673
1.784539 -0.668632 0.233989
1.810564 -0.678383 -0.237402
1.781238 -0.667750 0.301293
1.783520 -0.668605 -0.166642
1.804592 -0.676864 -0.101008
1.786081 -0.670277 -0.033299
1.781087 -0.669821 -0.509874
1.791228 -0.673635 0.033404
1.792891 -0.674618 -0.442254
1.775843 -0.668203 0.099438
1.784078 -0.671657 -0.370551
1.773261 -0.667585 0.165770
1.800521 -0.678206 -0.304734
1.779654 -0.670346 0.233502
1.807519 -0.680842 -0.237158
1.785615 -0.672948 0.302231
1.782350 -0.671717 -0.166642
1.779295 -0.671275 -0.033194
1.787143 -0.675661 -0.511944
1.782567 -0.673932 0.033264
1.786243 -0.675678 -0.440904
1.785882 -0.675541 0.100066
1.797592 -0.680329 -0.373604
1.777683 -0.672795 0.166293
1.799335 -0.681348 -0.304734
1.778481 -0.673451 0.233502
1.810041 -0.685402 -0.237645
1.788133 -0.677463 0.302857
1.786764 -0.676944 -0.167165
1.802218 -0.683159 -0.101008
1.789340 -0.678634 -0.033404
1.785961 -0.678780 -0.511944
1.779519 -0.676331 0.033229
1.774132 -0.674638 -0.438205
1.780967 -0.677237 0.099857
1.785392 -0.679277 -0.371314
1.774644 -0.675188 0.166119
1.798262 -0.684173 -0.304734
1.771738 -0.674436 0.232770
1.803277 -0.686441 -0.236914
1.786947 -0.680583 0.302857
1.785580 -0.680062 -0.167165
1.791692 -0.682748 -0.100485
1.780678 -0.678907 -0.033264
1.788383 -0.683275 -0.512979
1.778336 -0.679436 0.033229
1.774891 -0.678120 -0.438655
1.770454 -0.676779 0.099334
1.793492 -0.685585 -0.373222
1.777304 -0.679397 0.166467
1.797066 -0.687311 -0.304734
1.772530 -0.677927 0.233014
1.796514 -0.687459 -0.236183
1.785876 -0.683389 0.302857
1.793814 -0.686426 -0.168036
1.799943 -0.689132 -0.101008
1.779610 -0.681703 -0.033264
1.778289 -0.682621 -0.510391
1.786601 -0.685812 0.033404
1.777343 -0.682614 -0.439554
1.767524 -0.678843 0.099229
1.775799 -0.682377 -0.369788
1.776115 -0.682498 0.166467
1.795863 -0.690446 -0.304734
1.773197 -0.681732 0.233258
1.806549 -0.694555 -0.237645
1.771775 -0.681540 0.300667
1.779596 -0.684549 -0.166816
1.796874 -0.691555 -0.100904
1.770953 -0.681934 -0.033125
1.787909 -0.689897 -0.513497
1.781670 -0.687489 0.033334
1.776149 -0.685715 -0.439554
1.773790 -0.684804 0.099648
1.798414 -0.694671 -0.374749
1.765629 -0.682007 0.165596
1.787285 -0.690731 -0.303483
1.779411 -0.687688 0.234233
1.807186 -0.698422 -0.237889
1.768740 -0.683919 0.300354
1.774682 -0.686217 -0.166467
1.803115 -0.697572 -0.101322
1.762300 -0.682136 -0.032985
1.774095 -0.688126 -0.509874
1.774874 -0.688428 0.033229
1.771316 -0.687404 -0.438655
1.772592 -0.687899 0.099648
1.773407 -0.688571 -0.369788
1.768150 -0.686530 0.165945
1.776870 -0.690273 -0.301919
1.767106 -0.686480 0.232770
1.802263 -0.700138 -0.237402
1.782274 -0.692730 0.302857
1.777196 -0.690756 -0.166816
1.790726 -0.696375 -0.100694
1.777880 -0.691737 -0.033299
1.772891 -0.691221 -0.509874
1.771807 -0.690799 0.033194
1.766482 -0.689078 -0.437755
1.775110 -0.692443 0.099857
1.795978 -0.700945 -0.374749
1.766949 -0.689615 0.165945
1.779343 -0.694810 -0.302544
1.762207 -0.688119 0.232283
1.799189 -0.702560 -0.237158
1.786582 -0.697996 0.303796
1.775987 -0.693857 -0.166816
1.772766 -0.692955 -0.099752
1.778532 -0.695567 -0.033334
1.777078 -0.696429 -0.511426
1.772460 -0.694620 0.033229
1.763463 -0.691449 -0.437305
1.766461 -0.692624 0.099438
1.774647 -0.696191 -0.370551
1.769453 -0.694153 0.166293
1.785483 -0.700802 -0.303796
1.770242 -0.694820 0.233502
1.796113 -0.704974 -0.236914
1.778006 -0.698225 0.302544
1.782192 -0.699869 -0.167513
1.784566 -0.701161 -0.100485
1.771732 -0.696475 -0.033229
1.770467 -0.697406 -0.509874
1.778688 -0.700644 0.033369
1.773131 -0.698812 -0.440004
1.765249 -0.695706 0.099438
1.778909 -0.701448 -0.371696
1.766385 -0.696510 0.166119
1.784257 -0.703917 -0.303796
1.765334 -0.696451 0.233014
1.794879 -0.708108 -0.236914
1.765760 -0.696976 0.300667
1.769848 -0.698589 -0.166467
1.788913 -0.706475 -0.100799
1.761215 -0.695892 -0.033055
1.765655 -0.699072 -0.508838
1.775603 -0.703011 0.033334
1.777344 -0.704059 -0.441354
1.764032 -0.698786 0.099438
1.772207 -0.702382 -0.370551
1.761462 -0.698123 0.165770
1.779353 -0.705574 -0.303170
1.762270 -0.698800 0.232770
1.795486 -0.711971 -0.237158
1.771885 -0.702970 0.301919
1.766774 -0.700943 -0.166293
1.789533 -0.710333 -0.100904
1.765573 -0.701179 -0.033160
1.760842 -0.700724 -0.507803
1.770657 -0.704630 0.033264
1.768870 -0.704277 -0.439554
1.764666 -0.702603 0.099543
1.780097 -0.709107 -0.372459
1.762092 -0.701934 0.165945
1.770779 -0.705753 -0.301919
1.759204 -0.701140 0.232527
1.797929 -0.716573 -0.237645
1.770656 -0.706062 0.301919
1.767399 -0.704763 -0.166467
1.782726 -0.711235 -0.100590
1.768061 -0.705743 -0.033229
1.764998 -0.705949 -0.509356
1.763855 -0.705491 0.033160
1.756783 -0.703019 -0.436855
1.761582 -0.704939 0.099438
1.767921 -0.707834 -0.370169
1.759014 -0.704268 0.165770
1.769545 -0.708842 -0.301919
1.754292 -0.702733 0.232039
1.787462 -0.716020 -0.236427
1.776755 -0.712091 0.303170
1.771714 -0.710070 -0.166990
1.779628 -0.713602 -0.100485
1.779818 -0.714039 -0.033474
1.769140 -0.711190 -0.510909
1.768187 -0.710806 0.033264
1.759169 -0.707538 -0.437755
1.758497 -0.707268 0.099334
1.777611 -0.715316 -0.372459
1.763328 -0.709568 0.166293
1.771970 -0.713405 -0.302544
1.753063 -0.705793 0.232039
1.788051 -0.719880 -0.236670
1.764516 -0.710762 0.301293
1.779713 -0.716883 -0.167862
1.782084 -0.718201 -0.100694
1.760023 -0.709666 -0.033125
1.764314 -0.712829 -0.509874
1.770652 -0.715390 0.033334
1.761545 -0.712068 -0.438655
1.753556 -0.708839 0.099124
1.763620 -0.713265 -0.369788
1.756545 -0.710404 0.165770
1.774384 -0.717979 -0.303170
1.759189 -0.711830 0.233014
1.788632 -0.723744 -0.236914
1.752286 -0.709393 0.299416
1.759991 -0.712512 -0.166119
1.784531 -0.722809 -0.100904
1.756928 -0.711986 -0.033090
1.764857 -0.716634 -0.510391
1.763842 -0.716222 0.033229
1.767521 -0.718075 -0.440454
1.757867 -0.714153 0.099438
1.760553 -0.715603 -0.369406
1.742383 -0.708217 0.164550
1.769469 -0.719586 -0.302544
1.768977 -0.719386 0.234477
1.787366 -0.726864 -0.236914
1.762024 -0.716917 0.301293
1.756899 -0.714832 -0.165945
1.785116 -0.726676 -0.101008
1.759387 -0.716560 -0.033160
1.758238 -0.717523 -0.508838
1.757035 -0.717033 0.033125
1.762657 -0.719686 -0.439554
1.762165 -0.719485 0.099752
1.773842 -0.724614 -0.372459
1.748522 -0.714271 0.165247
1.768210 -0.722673 -0.302544
1.749344 -0.714963 0.232039
1.789769 -0.731485 -0.237402
1.771741 -0.724477 0.303170
1.751961 -0.716389 -0.165596
1.772754 -0.725253 -0.100380
1.759984 -0.720387 -0.033194
1.756983 -0.720591 -0.508838
1.761331 -0.722374 0.033229
1.750581 -0.718323 -0.436855
1.757211 -0.721043 0.099543
1.758045 -0.721744 -0.369406
1.750958 -0.718835 0.165596
1.759637 -0.722756 -0.301293
1.744421 -0.716506 0.231552
1.775637 -0.729328 -0.235695
1.766819 -0.726067 0.302544
1.761765 -0.723989 -0.166642
1.769638 -0.727586 -0.100276
1.760574 -0.724219 -0.033229
1.762994 -0.726294 -0.510909
1.763892 -0.726664 0.033299
1.753054 -0.722557 -0.437755
1.741304 -0.717714 0.098706
1.771429 -0.730492 -0.372459
1.759037 -0.725382 0.166467
1.760326 -0.726273 -0.301606
1.746963 -0.720760 0.232039
1.774489 -0.732116 -0.235695
1.754721 -0.724319 0.300667
1.760625 -0.726756 -0.166642
1.774031 -0.732652 -0.100590
1.748345 -0.722401 -0.033020
1.763508 -0.730108 -0.511426
1.766316 -0.731271 0.033369
1.755391 -0.727107 -0.438655
1.745585 -0.723045 0.099020
1.746573 -0.723812 -0.367498
1.748565 -0.724637 0.165596
1.768179 -0.733127 -0.303170
1.753037 -0.726849 0.233014
1.782377 -0.739014 -0.236914
1.749805 -0.725867 0.300041
1.751993 -0.726774 -0.165945
1.770905 -0.734982 -0.100485
1.745235 -0.724685 -0.032985
1.758664 -0.731701 -0.510391
1.753960 -0.729744 0.033160
1.754119 -0.730169 -0.438655
1.749852 -0.728393 0.099334
1.759806 -0.732897 -0.370551
1.738101 -0.723858 0.164724
1.759603 -0.733173 -0.301919
1.753598 -0.730671 0.233258
1.781084 -0.742123 -0.236914
1.755829 -0.731960 0.301293
1.747043 -0.728298 -0.165596
1.778836 -0.741916 -0.101008
1.751349 -0.730810 -0.033125
1.753820 -0.733279 -0.509356
1.752684 -0.732804 0.033160
1.745651 -0.730222 -0.436855
1.757790 -0.735300 0.099857
1.754902 -0.734451 -0.369788
1.738673 -0.727659 0.164899
1.754677 -0.734717 -0.301293
1.743165 -0.729897 0.232039
1.747261 -0.731970 0.300041
1.749445 -0.732885 -0.165945
1.757277 -0.736527 -0.099857
1.748227 -0.733092 -0.033090
1.756099 -0.737835 -0.510391
1.751402 -0.735862 0.033160
1.740781 -0.731757 -0.435955
1.739934 -0.731401 0.098915
1.753618 -0.737513 -0.369788
1.741074 -0.732238 0.165247
1.753392 -0.737778 -0.301293
1.743718 -0.733708 0.232283
1.767505 -0.743717 -0.235452
1.753263 -0.738084 0.301293
1.751836 -0.737484 -0.166293
1.759670 -0.741143 -0.100066
1.754316 -0.739249 -0.033229
1.761928 -0.743905 -0.512462
1.757484 -0.742029 0.033299
1.746682 -0.737827 -0.437755
1.734975 -0.732882 0.098706
1.746903 -0.738280 -0.368643
1.745299 -0.737602 0.165770
1.755740 -0.742376 -0.301919
1.742435 -0.736750 0.232283
1.766204 -0.746800 -0.235452
1.748333 -0.739604 0.300667
1.746876 -0.738988 -0.165945
1.762052 -0.745770 -0.100276
1.747499 -0.739970 -0.033125
1.757070 -0.745470 -0.511426
1.756186 -0.745095 0.033299
1.745392 -0.740875 -0.437755
1.730016 -0.734348 0.098496
1.752840 -0.744397 -0.370169
1.736673 -0.737532 0.165073
1.758208 -0.746677 -0.302544
1.744801 -0.741343 0.232770
1.757590 -0.746777 -0.234477
1.743404 -0.741109 0.300041
1.745584 -0.742035 -0.165945
1.768100 -0.751971 -0.100694
1.740684 -0.740670 -0.033020
1.748657 -0.745505 -0.509356
1.747525 -0.745022 0.033160
1.747811 -0.745144 -0.438655
1.741592 -0.742852 0.099229
1.740833 -0.742528 -0.367880
1.726349 -0.736350 0.164201
1.746001 -0.745093 -0.300667
1.747285 -0.745641 0.233258
1.770889 -0.756079 -0.236427
1.742238 -0.743846 0.300041
1.737087 -0.741647 -0.165247
1.770590 -0.756316 -0.100904
1.741358 -0.744189 -0.033055
1.754588 -0.751292 -0.511426
1.746352 -0.747766 0.033160
1.744717 -0.747426 -0.438205
1.736751 -0.744013 0.099020
1.757580 -0.753300 -0.371696
1.728724 -0.740932 0.164550
1.744698 -0.748139 -0.300667
1.735035 -0.743995 0.231796
1.769699 -0.758860 -0.236427
1.740937 -0.746886 0.300041
1.743113 -0.747820 -0.165945
1.760090 -0.755467 -0.100380
1.745568 -0.749595 -0.033160
1.753274 -0.754354 -0.511426
1.745045 -0.750813 0.033160
1.734460 -0.746617 -0.435955
1.735450 -0.747044 0.099020
1.741837 -0.750153 -0.368643
1.734748 -0.747101 0.165247
1.743390 -0.751183 -0.300667
1.724618 -0.743095 0.230577
1.764726 -0.760376 -0.235939
1.750515 -0.754615 0.301919
1.741806 -0.750861 -0.165945
1.751433 -0.755374 -0.099962
1.744257 -0.752640 -0.033160
1.755501 -0.758946 -0.512462
1.743732 -0.753857 0.033160
1.733154 -0.749644 -0.435955
1.726811 -0.746900 0.098601
1.747732 -0.756311 -0.370169
1.740755 -0.753292 0.165945
1.745702 -0.755794 -0.301293
1.732427 -0.750047 0.231796
1.754287 -0.759512 -0.234720
1.738319 -0.752958 0.300041
1.744149 -0.755484 -0.166293
1.753777 -0.760018 -0.100171
1.742941 -0.755683 -0.033160
1.750630 -0.760469 -0.511426
1.746081 -0.758493 0.033229
1.735417 -0.754221 -0.436855
1.716346 -0.745932 0.098078
1.737407 -0.755446 -0.368261
1.735784 -0.754740 0.165596
1.748003 -0.760416 -0.301919
1.734756 -0.754654 0.232283
1.760241 -0.765740 -0.235695
1.737002 -0.755991 0.300041
1.742828 -0.758527 -0.166293
1.754279 -0.763875 -0.100276
1.732453 -0.754731 -0.032985
1.735136 -0.757341 -0.507285
1.741089 -0.759940 0.033160
1.739456 -0.759588 -0.438205
1.733345 -0.756919 0.099124
1.743283 -0.761621 -0.369788
1.719858 -0.751387 0.164201
1.748483 -0.764257 -0.302231
1.737074 -0.759270 0.232770
1.760720 -0.769606 -0.235939
1.735680 -0.759022 0.300041
1.730549 -0.756777 -0.165247
1.756603 -0.768537 -0.100485
1.734797 -0.759357 -0.033055
1.740888 -0.763472 -0.509356
1.736098 -0.761371 0.033090
1.736343 -0.761840 -0.437755
1.726534 -0.757536 0.098810
1.740153 -0.763874 -0.369406
1.722193 -0.755990 0.164550
1.739912 -0.764130 -0.300980
1.732111 -0.760704 0.232283
1.757557 -0.771879 -0.235695
1.745204 -0.766818 0.301919
1.727401 -0.758995 -0.165073
1.744289 -0.766779 -0.099857
1.735300 -0.763189 -0.033090
1.746624 -0.769625 -0.511426
1.742086 -0.767625 0.033229
1.729661 -0.762511 -0.436405
1.721554 -0.758937 0.098601
1.744206 -0.769287 -0.370551
1.726339 -0.761406 0.165073
1.749419 -0.771950 -0.302857
1.723517 -0.760521 0.231308
1.759839 -0.776549 -0.236183
1.743863 -0.769862 0.301919
1.735187 -0.766032 -0.165945
1.744775 -0.770629 -0.099962
1.739452 -0.768641 -0.033194
1.745278 -0.772672 -0.511426
1.733430 -0.767426 0.033090
1.726546 -0.764739 -0.435955
1.712922 -0.758705 0.098182
1.741066 -0.771534 -0.370169
1.728651 -0.766033 0.165422
1.744457 -0.773401 -0.302231
1.729446 -0.766746 0.232283
1.751222 -0.776401 -0.235208
1.728071 -0.766497 0.299416
1.737490 -0.770675 -0.166293
1.748904 -0.776103 -0.100276
1.728970 -0.767618 -0.033020
1.728041 -0.768651 -0.506768
1.739396 -0.773702 0.033229
1.728770 -0.769336 -0.436855
1.715245 -0.763318 0.098392
1.725368 -0.768183 -0.367117
1.721851 -0.766617 0.164899
1.739496 -0.774837 -0.301606
1.720851 -0.766532 0.231308
1.749865 -0.779456 -0.235208
1.723122 -0.767904 0.298790
1.725223 -0.768840 -0.165247
1.745723 -0.778341 -0.100171
1.720322 -0.767376 -0.032880
1.716115 -0.766936 -0.503662
1.732566 -0.774288 0.033125
1.734540 -0.775534 -0.438655
1.717557 -0.767941 0.098601
1.732986 -0.775202 -0.369025
1.711417 -0.765554 0.164027
1.738141 -0.777872 -0.301606
1.721323 -0.770345 0.231552
1.744878 -0.780887 -0.234720
1.725385 -0.772525 0.299416
1.723879 -0.771850 -0.165247
1.744361 -0.781387 -0.100171
1.728104 -0.774467 -0.033055
1.720061 -0.772304 -0.505215
1.725739 -0.774854 0.033020
1.726074 -0.775366 -0.436855
1.718036 -0.771755 0.098706
1.740584 -0.782249 -0.370933
1.719164 -0.772623 0.164899
1.733177 -0.779284 -0.300980
1.719976 -0.773349 0.231552
1.757996 -0.790444 -0.236670
1.731240 -0.778776 0.300667
1.726163 -0.776493 -0.165596
1.737531 -0.781971 -0.099857
1.728574 -0.778303 -0.033090
1.736320 -0.783249 -0.510391
1.724384 -0.777865 0.033020
1.730046 -0.780782 -0.438205
1.718507 -0.775574 0.098810
1.730269 -0.781246 -0.369025
