# This PCD file was generated using the MATLAB® pcwrite function
# from Computer Vision System Toolbox®.
# .PCD v.7 - Point Cloud Data file format
VERSION .7
FIELDS x y z
SIZE 4 4 4
TYPE F F F
COUNT 1 1 1
WIDTH 1669
HEIGHT 1
VIEWPOINT 0 0 0 1 0 0 0
POINTS 1669
DATA ascii
1.731003 -0.804239 0.166990
1.750118 -0.813492 -0.305673
1.735324 -0.806615 0.234964
1.756925 -0.816656 -0.237889
1.746393 -0.812131 0.305047
1.737948 -0.808204 -0.167688
1.752920 -0.815538 -0.101322
1.734973 -0.807557 -0.033404
1.738596 -0.810721 -0.514015
1.741658 -0.812149 0.033544
1.739524 -0.811523 -0.443154
1.735775 -0.809774 0.100380
1.729210 -0.807079 -0.370933
1.722375 -0.803889 0.166293
1.737956 -0.811530 -0.303796
1.744705 -0.814682 0.236427
1.755497 -0.819721 -0.237889
1.746763 -0.816014 0.305360
1.732925 -0.809549 -0.167339
1.756922 -0.821133 -0.101636
1.729938 -0.808890 -0.033334
1.740677 -0.815393 -0.515050
1.736616 -0.813491 0.033474
1.734576 -0.812904 -0.442254
1.741593 -0.816192 0.100799
1.733132 -0.812596 -0.372078
1.722773 -0.807739 0.166467
1.727595 -0.810368 -0.302231
1.732497 -0.812668 0.234964
1.761253 -0.826156 -0.238864
1.748913 -0.820740 0.305986
1.735116 -0.814266 -0.167688
1.750062 -0.821652 -0.101322
1.728524 -0.811908 -0.033334
1.742748 -0.820075 -0.516085
1.738813 -0.818223 0.033544
1.727865 -0.813440 -0.440904
1.732938 -0.815828 0.100380
1.729935 -0.814783 -0.371696
1.723163 -0.811594 0.166642
1.733326 -0.816750 -0.303483
1.729281 -0.814844 0.234720
1.752625 -0.825844 -0.237889
1.758198 -0.828845 0.307863
1.726484 -0.813894 -0.166990
1.743206 -0.822149 -0.101008
1.736147 -0.819190 -0.033509
1.741314 -0.823115 -0.516085
1.731958 -0.818693 0.033439
1.724681 -0.815621 -0.440454
1.720678 -0.813728 0.099752
1.721412 -0.814443 -0.370169
1.737953 -0.822269 0.168211
1.730255 -0.818627 -0.303170
1.727856 -0.817861 0.234720
1.744004 -0.825505 -0.236914
1.749608 -0.828531 0.306612
1.728662 -0.818612 -0.167339
1.739964 -0.824336 -0.100904
1.723872 -0.817080 -0.033299
1.729404 -0.821181 -0.512979
1.737753 -0.825146 0.033578
1.723398 -0.818330 -0.440454
1.722863 -0.818444 0.099962
1.730770 -0.822200 -0.372459
1.716863 -0.815594 0.166293
1.735960 -0.825037 -0.304422
1.724776 -0.819722 0.234477
1.742561 -0.828547 -0.236914
1.741168 -0.827885 0.305360
1.727374 -0.821326 -0.167339
1.738667 -0.827068 -0.100904
1.717170 -0.817209 -0.033194
1.724624 -0.822234 -0.511944
1.727429 -0.823571 0.033404
1.721967 -0.821336 -0.440454
1.725181 -0.822869 0.100171
1.711614 -0.816765 -0.368643
1.719033 -0.820305 0.166642
1.725604 -0.823811 -0.302857
1.725134 -0.823586 0.234720
1.741257 -0.831283 -0.236914
1.739720 -0.830922 0.305360
1.711555 -0.817470 -0.165945
1.744429 -0.833545 -0.101322
1.715741 -0.820205 -0.033194
1.723186 -0.825243 -0.511944
1.718775 -0.823130 0.033264
1.715259 -0.821814 -0.439104
1.727344 -0.827605 0.100380
1.711956 -0.820599 -0.369025
1.710412 -0.819859 0.165945
1.722383 -0.825967 -0.302544
1.721904 -0.825737 0.234477
1.748753 -0.838613 -0.238133
1.731144 -0.830540 0.304109
1.717311 -0.823904 -0.166642
1.737570 -0.833996 -0.101008
1.714307 -0.823198 -0.033194
1.728707 -0.831599 -0.514015
1.722742 -0.828729 0.033369
1.710310 -0.823117 -0.438205
1.716899 -0.826288 0.099857
1.715828 -0.826141 -0.370169
1.712569 -0.824572 0.166293
1.726277 -0.831544 -0.303483
1.709730 -0.823573 0.233014
1.732980 -0.834772 -0.236183
1.736809 -0.836990 0.305360
1.719460 -0.828629 -0.166990
1.727116 -0.832690 -0.100485
1.721873 -0.830533 -0.033369
1.723774 -0.832934 -0.512979
1.728495 -0.835215 0.033509
1.708871 -0.826100 -0.438205
1.711858 -0.827544 0.099648
1.710849 -0.827425 -0.369406
1.712921 -0.828427 0.166467
1.723045 -0.833695 -0.303170
1.713651 -0.829149 0.233745
1.731520 -0.837795 -0.236183
1.731790 -0.838299 0.304734
1.721598 -0.833365 -0.167339
1.720267 -0.833092 -0.100171
1.713222 -0.830049 -0.033229
1.722318 -0.835941 -0.512979
1.725235 -0.837357 0.033474
1.707426 -0.829082 -0.438205
1.710411 -0.830531 0.099648
1.698807 -0.825263 -0.367117
1.709680 -0.830545 0.166293
1.725141 -0.838428 -0.303796
1.713986 -0.833007 0.233989
1.731840 -0.841684 -0.236427
1.719665 -0.836138 0.302857
1.709390 -0.831142 -0.166293
1.731383 -0.842209 -0.100904
1.702780 -0.828663 -0.033055
1.710437 -0.833867 -0.509874
1.720176 -0.838614 0.033404
1.712983 -0.835478 -0.440004
1.707164 -0.832639 0.099543
1.695599 -0.827365 -0.366735
1.699275 -0.829159 0.165422
1.714799 -0.837104 -0.302231
1.712530 -0.835997 0.233989
1.728585 -0.843834 -0.236183
1.721753 -0.840871 0.303483
1.700776 -0.830626 -0.165596
1.729910 -0.845229 -0.100904
1.703128 -0.832512 -0.033090
1.708979 -0.836851 -0.509874
1.704342 -0.834580 0.033125
1.697522 -0.831607 -0.436405
1.712882 -0.839132 0.099962
1.702967 -0.834643 -0.368643
1.699614 -0.833000 0.165596
1.711562 -0.839226 -0.301919
1.707503 -0.837237 0.233502
1.728892 -0.847724 -0.236427
1.725603 -0.846485 0.304422
1.706479 -0.837103 -0.166293
1.724847 -0.846487 -0.100694
1.708853 -0.839008 -0.033229
1.714450 -0.843242 -0.511944
1.711855 -0.841966 0.033299
1.694319 -0.833708 -0.435955
1.702455 -0.837712 0.099438
1.703269 -0.838482 -0.369025
1.696370 -0.835085 0.165422
1.703006 -0.838722 -0.300667
1.695355 -0.834953 0.232039
1.722067 -0.848109 -0.235695
1.720580 -0.847749 0.303796
1.701440 -0.838319 -0.165945
1.719784 -0.847730 -0.100485
1.710973 -0.843758 -0.033299
1.716440 -0.847945 -0.512979
1.712176 -0.845838 0.033334
1.694609 -0.837528 -0.436405
1.688456 -0.834487 0.098706
1.693004 -0.837102 -0.367117
1.702054 -0.841577 0.166119
1.712311 -0.846649 -0.302544
1.702791 -0.842312 0.233258
1.717026 -0.849353 -0.235208
1.715556 -0.848999 0.303170
1.703546 -0.843055 -0.166293
1.714722 -0.848958 -0.100276
1.695162 -0.839643 -0.033020
1.708035 -0.847505 -0.510909
1.710697 -0.848825 0.033334
1.695037 -0.841055 -0.436855
1.692364 -0.840097 0.099020
1.691687 -0.839761 -0.367117
1.691807 -0.839820 0.165247
1.717908 -0.853151 -0.303796
1.699688 -0.844102 0.233014
1.719096 -0.854115 -0.235695
1.703606 -0.846419 0.301293
1.687945 -0.838638 -0.164899
1.709809 -0.849873 -0.100066
1.693841 -0.842304 -0.033020
1.699785 -0.846741 -0.508838
1.707572 -0.850620 0.033299
1.695310 -0.844881 -0.437305
1.698193 -0.846318 0.099438
1.688461 -0.841836 -0.366735
1.683207 -0.839216 0.164550
1.702275 -0.849094 -0.301293
1.703541 -0.849726 0.233745
1.715976 -0.855928 -0.235452
1.709196 -0.852919 0.302544
1.686479 -0.841583 -0.164899
1.717258 -0.857316 -0.100590
1.694157 -0.846153 -0.033055
1.698305 -0.849706 -0.508838
1.698931 -0.850020 0.033160
1.688605 -0.845222 -0.435955
1.696713 -0.849280 0.099438
1.692256 -0.847419 -0.367880
1.688865 -0.845721 0.165247
1.697258 -0.850294 -0.300667
1.693182 -0.848252 0.232527
1.712705 -0.858033 -0.235208
1.711237 -0.857671 0.303170
1.688570 -0.846310 -0.165247
1.705047 -0.854941 -0.099962
1.689103 -0.847315 -0.032985
1.700271 -0.854404 -0.509874
1.704592 -0.856575 0.033299
1.683645 -0.846417 -0.435055
1.693444 -0.851343 0.099334
1.694282 -0.852135 -0.368643
1.683827 -0.846877 0.164899
1.692242 -0.851479 -0.300041
1.686379 -0.848529 0.231796
1.709431 -0.860128 -0.234964
1.709738 -0.860656 0.303170
1.687091 -0.849256 -0.165247
1.705336 -0.858814 -0.100066
1.692979 -0.852961 -0.033090
1.695328 -0.855629 -0.508838
1.701309 -0.858648 0.033264
1.678686 -0.847598 -0.434156
1.679475 -0.847996 0.098601
1.684031 -0.850665 -0.366735
1.685903 -0.851611 0.165247
1.692516 -0.855322 -0.300354
1.686667 -0.852366 0.232039
1.699069 -0.858634 -0.233745
1.697656 -0.858292 0.301293
1.689162 -0.853997 -0.165596
1.700270 -0.859986 -0.099857
1.686135 -0.853206 -0.032985
1.686940 -0.855093 -0.506768
1.696241 -0.859808 0.033194
1.684157 -0.854052 -0.435955
1.681555 -0.852733 0.098810
1.680792 -0.852715 -0.366353
1.679084 -0.851848 0.164724
1.692782 -0.859169 -0.300667
1.688717 -0.857106 0.232527
1.704648 -0.865192 -0.234720
1.692632 -0.859464 0.300667
1.677010 -0.851532 -0.164550
1.702327 -0.864761 -0.100066
1.673947 -0.850712 -0.032776
1.685445 -0.858036 -0.506768
1.696520 -0.863674 0.033229
1.679190 -0.855221 -0.435055
1.680064 -0.855666 0.098810
1.682800 -0.857430 -0.367117
1.668718 -0.850254 0.163853
1.687760 -0.860328 -0.300041
1.681913 -0.857347 0.231796
1.699599 -0.866362 -0.234233
1.694649 -0.864212 0.301293
1.675521 -0.854457 -0.164550
1.702595 -0.868639 -0.100171
1.676022 -0.855450 -0.032845
1.683945 -0.860977 -0.506768
1.680766 -0.859351 0.032950
1.675960 -0.857263 -0.434605
1.678568 -0.858597 0.098810
1.686544 -0.863048 -0.368261
1.674326 -0.856796 0.164550
1.677615 -0.858479 -0.298477
1.678647 -0.859377 0.231552
1.705152 -0.872946 -0.235208
1.693138 -0.867169 0.301293
1.677574 -0.859197 -0.164899
1.697521 -0.869787 -0.099962
1.683424 -0.862935 -0.033020
1.685877 -0.865679 -0.507803
1.689937 -0.867764 0.033160
1.667677 -0.856334 -0.432806
1.677067 -0.861525 0.098810
1.683440 -0.864799 -0.367880
1.671206 -0.858514 0.164376
1.684898 -0.865920 -0.300041
1.673764 -0.860198 0.231064
1.682441 -0.865028 -0.232283
1.695288 -0.871634 0.301919
1.665591 -0.856365 -0.163853
1.690825 -0.869712 -0.099648
1.680289 -0.864663 -0.032985
1.684515 -0.868326 -0.507803
1.685017 -0.868585 0.033090
1.666180 -0.859243 -0.432806
1.659736 -0.855920 0.097868
1.676694 -0.865036 -0.366735
1.675017 -0.864170 0.164899
1.685291 -0.869471 -0.300354
1.672260 -0.863118 0.231064
1.682844 -0.868581 -0.232527
1.679722 -0.867341 0.299416
1.674715 -0.864755 -0.164899
1.680432 -0.868078 -0.099124
1.671671 -0.863922 -0.032845
1.672703 -0.865936 -0.504697
1.687050 -0.873363 0.033160
1.666559 -0.862755 -0.433256
1.667107 -0.863408 0.098392
1.668360 -0.864057 -0.365208
1.663043 -0.861303 0.163853
1.683771 -0.872411 -0.300354
1.672665 -0.866657 0.231308
1.683088 -0.872430 -0.232770
1.671343 -0.866342 0.298164
1.669817 -0.865551 -0.164550
1.687931 -0.875314 -0.099648
1.664987 -0.863785 -0.032741
1.667610 -0.867363 -0.503662
1.678274 -0.872910 0.033020
1.666477 -0.867143 -0.433706
1.665446 -0.866607 0.098392
1.663064 -0.865736 -0.364445
1.661235 -0.864784 0.163853
1.678437 -0.874111 -0.299728
1.679649 -0.874743 0.232527
1.684931 -0.877493 -0.233258
1.676532 -0.873491 0.299416
1.653865 -0.861682 -0.163156
1.691408 -0.881617 -0.099962
1.664947 -0.868194 -0.032776
1.666093 -0.870272 -0.503662
1.669658 -0.872134 0.032880
1.663234 -0.869148 -0.433256
1.662161 -0.868588 0.098287
1.673729 -0.875004 -0.367117
1.659723 -0.867682 0.163853
1.669907 -0.873377 -0.298477
1.664047 -0.870313 0.230577
1.683397 -0.880433 -0.233258
1.671504 -0.874584 0.298790
1.652359 -0.864567 -0.163156
1.675710 -0.877158 -0.099124
1.666972 -0.872954 -0.032845
1.674837 -0.878563 -0.506768
1.668133 -0.875047 0.032880
1.651361 -0.866616 -0.430556
1.660643 -0.871487 0.098287
1.668723 -0.876099 -0.366353
1.658206 -0.870578 0.163853
1.664882 -0.874453 -0.297851
1.655496 -0.869524 0.229602
1.674828 -0.879677 -0.232283
1.680467 -0.883014 0.300667
1.654375 -0.869303 -0.163504
1.670641 -0.878222 -0.098915
1.665446 -0.875862 -0.032845
1.676719 -0.883286 -0.507803
1.673680 -0.881685 0.033020
1.656742 -0.873131 -0.432356
1.639683 -0.864141 0.097136
1.655035 -0.872601 -0.363682
1.661971 -0.876258 0.164376
1.668595 -0.880123 -0.298790
1.660999 -0.876116 0.230577
1.666267 -0.878895 -0.231308
1.668441 -0.880414 0.298790
1.659903 -0.875908 -0.164201
1.672638 -0.883002 -0.099124
1.662147 -0.877834 -0.032811
1.661514 -0.878984 -0.503662
1.679209 -0.888345 0.033160
1.660383 -0.878756 -0.433706
1.648764 -0.872607 0.097764
1.658714 -0.878244 -0.364827
1.655157 -0.876361 0.163853
1.672448 -0.885516 -0.299728
1.657714 -0.878085 0.230333
1.668239 -0.883660 -0.231796
1.659920 -0.879625 0.297538
1.647809 -0.873207 -0.163156
1.681682 -0.891533 -0.099752
1.648246 -0.874175 -0.032566
1.656565 -0.880070 -0.502627
1.663529 -0.883769 0.032880
1.660721 -0.882278 -0.434156
1.654293 -0.879233 0.098182
1.657333 -0.880848 -0.364827
1.646741 -0.875219 0.163156
1.660435 -0.882869 -0.297851
1.665096 -0.885347 0.231552
1.670199 -0.888435 -0.232283
1.658537 -0.882231 0.297538
1.635882 -0.870180 -0.162110
1.671464 -0.889482 -0.099229
1.657462 -0.882401 -0.032776
1.655181 -0.882671 -0.502627
1.662138 -0.886381 0.032880
1.652301 -0.881506 -0.432356
1.651148 -0.880890 0.098078
1.654061 -0.882815 -0.364445
1.648726 -0.879968 0.163504
1.650179 -0.881113 -0.296287
1.651290 -0.881707 0.229846
1.675806 -0.894797 -0.233258
1.656994 -0.885124 0.297538
1.641390 -0.876789 -0.162807
1.662863 -0.888632 -0.098810
1.652392 -0.883407 -0.032706
1.653638 -0.885558 -0.502627
1.660589 -0.889281 0.032880
1.645607 -0.881627 -0.431006
1.640805 -0.879055 0.097554
1.654248 -0.886628 -0.364827
1.647188 -0.882844 0.163504
1.648638 -0.883992 -0.296287
1.646250 -0.882712 0.229358
1.661995 -0.891154 -0.231552
1.665892 -0.893618 0.299416
1.639857 -0.879652 -0.162807
1.650750 -0.885867 -0.098182
1.654371 -0.888182 -0.032776
1.655492 -0.890273 -0.503662
1.659034 -0.892178 0.032880
1.642350 -0.883575 -0.430556
1.635751 -0.880025 0.097345
1.649240 -0.887653 -0.364064
1.649154 -0.887607 0.163853
1.652311 -0.889678 -0.297226
1.648203 -0.887466 0.229846
1.658690 -0.893112 -0.231308
1.653895 -0.890903 0.297538
1.638319 -0.882513 -0.162807
1.661509 -0.895379 -0.098915
1.647538 -0.888221 -0.032671
1.650536 -0.891325 -0.502627
1.664513 -0.898873 0.033020
1.640805 -0.886440 -0.430556
1.639484 -0.885726 0.097659
1.642507 -0.887730 -0.362919
1.640591 -0.886694 0.163156
1.654231 -0.894439 -0.297851
1.648397 -0.891285 0.230089
1.653636 -0.894118 -0.230821
1.638437 -0.886269 0.295035
1.626262 -0.879683 -0.161761
1.665214 -0.901129 -0.099229
1.644227 -0.890143 -0.032636
1.642185 -0.890521 -0.500556
1.659425 -0.899870 0.032950
1.646107 -0.893019 -0.432356
1.636180 -0.887634 0.097554
1.640955 -0.890595 -0.362919
1.635539 -0.887655 0.162807
1.645723 -0.893555 -0.296600
1.653817 -0.897950 0.231064
1.657306 -0.899844 -0.231552
1.643831 -0.892899 0.296287
1.624724 -0.882520 -0.161761
1.658374 -0.901173 -0.098915
1.642671 -0.893011 -0.032636
1.640629 -0.893386 -0.500556
1.643803 -0.895114 0.032671
1.635990 -0.891230 -0.430106
1.643398 -0.895266 0.098078
1.642846 -0.895337 -0.363682
1.633987 -0.890509 0.162807
1.638958 -0.893589 -0.295661
1.640048 -0.894183 0.229358
1.653991 -0.901785 -0.231308
1.652676 -0.901442 0.298164
1.623181 -0.885355 -0.161761
1.653292 -0.902153 -0.098706
1.641109 -0.895877 -0.032636
1.642457 -0.898101 -0.501591
1.649256 -0.901819 0.032811
1.632722 -0.893149 -0.429657
1.633072 -0.893340 0.097554
1.646448 -0.901030 -0.364827
1.632430 -0.893359 0.162807
1.639129 -0.897397 -0.295974
1.635002 -0.895137 0.228871
1.641967 -0.898950 -0.229846
1.651100 -0.904325 0.298164
1.625128 -0.890100 -0.162110
1.644709 -0.901198 -0.098287
1.639543 -0.898740 -0.032636
1.644274 -0.902826 -0.502627
1.651185 -0.906621 0.032880
1.632869 -0.896935 -0.430106
1.617506 -0.888496 0.096717
1.629387 -0.895393 -0.361392
1.637853 -0.900045 0.163504
1.634098 -0.898353 -0.295348
1.636916 -0.899902 0.229358
1.642135 -0.902771 -0.230089
1.635672 -0.899590 0.295661
1.627064 -0.894856 -0.162458
1.641383 -0.903104 -0.098182
1.634468 -0.899671 -0.032566
1.635928 -0.901964 -0.500556
1.649601 -0.909502 0.032880
1.627888 -0.897901 -0.429207
1.619450 -0.893247 0.096926
1.624384 -0.896338 -0.360629
1.629302 -0.899052 0.162807
1.646363 -0.908841 -0.297851
1.633605 -0.901798 0.229114
1.638819 -0.904677 -0.229846
1.627183 -0.898624 0.294410
1.622011 -0.895768 -0.162110
1.643301 -0.907899 -0.098392
1.629395 -0.900588 -0.032496
1.624211 -0.899203 -0.497450
1.644512 -0.910442 0.032811
1.629728 -0.902629 -0.430106
1.614394 -0.894137 0.096717
1.629686 -0.902978 -0.362155
1.620759 -0.898032 0.162110
1.630952 -0.904051 -0.295348
1.633765 -0.905611 0.229358
1.640710 -0.909460 -0.230333
1.629067 -0.903378 0.295035
1.606506 -0.890868 -0.160715
1.643460 -0.911735 -0.098496
1.627821 -0.903430 -0.032496
1.626016 -0.903914 -0.498486
1.632433 -0.907481 0.032601
1.624744 -0.903578 -0.429207
1.623304 -0.902778 0.097345
1.624677 -0.903912 -0.361392
1.622671 -0.902796 0.162458
1.627646 -0.905936 -0.295035
1.625244 -0.904599 0.228383
1.646058 -0.916184 -0.231308
1.627488 -0.906220 0.295035
1.611912 -0.897547 -0.161412
1.626163 -0.905854 -0.097554
1.631482 -0.909191 -0.032601
1.627810 -0.908634 -0.499521
1.637831 -0.914228 0.032741
1.616359 -0.902612 -0.427407
1.614751 -0.901714 0.096926
1.631666 -0.911534 -0.363300
1.624572 -0.907570 0.162807
1.624338 -0.907812 -0.294723
1.623663 -0.907434 0.228383
1.628861 -0.910340 -0.229114
1.639697 -0.916771 0.297538
1.613821 -0.902304 -0.161761
1.636329 -0.915263 0.364445
1.624580 -0.908691 -0.097554
1.628148 -0.911060 -0.032566
1.629592 -0.913362 -0.500556
1.639722 -0.919040 0.032811
1.618180 -0.907338 -0.428307
1.602722 -0.898670 0.096298
1.621512 -0.909578 -0.361392
1.621248 -0.909430 0.162633
1.622910 -0.910362 -0.294723
1.625539 -0.912210 0.228871
1.635926 -0.918039 -0.230333
1.617424 -0.908027 0.293784
1.622668 -0.910971 -0.162807
1.629957 -0.915438 -0.097973
1.619582 -0.909982 -0.032427
1.621261 -0.912415 -0.498486
1.634630 -0.919939 0.032741
1.620150 -0.911790 -0.429207
1.608113 -0.905386 0.096717
1.614949 -0.909234 -0.360247
1.616345 -0.910020 0.162284
1.628203 -0.917071 -0.295974
1.624104 -0.914762 0.228871
1.622215 -0.914071 -0.228627
1.615996 -0.910567 0.293784
1.607348 -0.905694 -0.161412
1.618078 -0.912112 -0.097345
1.618150 -0.912525 -0.032427
1.609733 -0.909260 -0.495380
1.622736 -0.916605 0.032531
1.615162 -0.912699 -0.428307
1.604950 -0.906928 0.096612
1.615068 -0.913018 -0.360629
1.609551 -0.909899 0.161761
1.623161 -0.917966 -0.295348
1.625960 -0.919550 0.229358
1.622505 -0.917595 -0.228871
1.614404 -0.913386 0.293784
1.595360 -0.902612 -0.160367
1.626912 -0.920838 -0.097973
1.616555 -0.915348 -0.032427
1.611505 -0.913974 -0.496415
1.617655 -0.917463 0.032461
1.610177 -0.913593 -0.427407
1.617262 -0.917613 0.097450
1.611765 -0.914866 -0.360247
1.611426 -0.914673 0.162110
1.614685 -0.916896 -0.294097
1.617448 -0.918465 0.228383
1.638163 -0.930228 -0.231308
1.612808 -0.916202 0.293784
1.595515 -0.906379 -0.160541
1.665906 -0.946751 0.372459
1.621830 -0.921702 -0.097764
1.613217 -0.917180 -0.032392
1.606549 -0.914874 -0.495380
1.623002 -0.924243 0.032601
1.605194 -0.914473 -0.426507
1.603510 -0.913513 0.096717
1.622105 -0.924482 -0.362919
1.606365 -0.915511 0.161761
1.606218 -0.915799 -0.292845
1.610669 -0.918337 0.227652
1.614118 -0.920304 -0.228139
1.614638 -0.920973 0.294410
1.604315 -0.915085 -0.161587
1.604606 -0.915622 -0.096822
1.615087 -0.921977 -0.032461
1.618367 -0.925348 -0.499521
1.614443 -0.923104 0.032461
1.606979 -0.919208 -0.427407
1.588043 -0.908377 0.095879
1.606858 -0.919511 -0.359866
1.616870 -0.925241 0.162981
1.613189 -0.923508 -0.294410
1.614232 -0.924106 0.228383
1.614232 -0.924106 -0.228383
1.606171 -0.919863 0.293158
1.602715 -0.917884 -0.161587
1.618300 -0.927184 0.362537
1.613404 -0.924379 -0.097450
1.611740 -0.923800 -0.032427
1.608372 -0.923362 -0.496933
1.623235 -0.931894 0.032671
1.605372 -0.922011 -0.427407
1.591651 -0.914131 0.096193
1.595037 -0.916446 -0.357576
1.606615 -0.923098 0.162110
1.609862 -0.925338 -0.294097
1.614338 -0.927911 0.228627
1.614338 -0.927911 -0.228627
1.601139 -0.920696 0.292533
1.594202 -0.916707 -0.160889
1.574135 -0.905534 0.352997
1.608325 -0.925202 -0.097240
1.604926 -0.923619 -0.032322
1.600063 -0.922308 -0.494862
1.618141 -0.932728 0.032601
1.603760 -0.924812 -0.427407
1.584863 -0.913915 0.095879
1.600237 -0.923153 -0.359103
1.603275 -0.924905 0.161935
1.597980 -0.922222 -0.292220
1.612716 -0.930727 0.228627
1.600681 -0.923781 -0.226921
1.602951 -0.925464 0.293158
1.577070 -0.910522 -0.159321
1.581053 -0.913189 0.354905
1.617085 -0.934001 -0.097868
1.606774 -0.928420 -0.032392
1.601795 -0.927035 -0.495897
1.602664 -0.927538 0.032322
1.597084 -0.924680 -0.426057
1.593636 -0.922684 0.096508
1.598623 -0.925944 -0.359103
1.598210 -0.925705 0.161587
1.589531 -0.921048 -0.290968
1.600784 -0.927569 0.227164
1.614524 -0.935531 -0.229114
1.597915 -0.926279 0.292533
1.585821 -0.919268 -0.160367
1.591345 -0.922841 0.357576
1.606814 -0.931812 -0.097345
1.601692 -0.929216 -0.032322
1.596834 -0.927888 -0.494862
1.611417 -0.936362 0.032531
1.590414 -0.924528 -0.424708
1.592023 -0.925464 0.096508
1.598702 -0.929720 -0.359484
1.598315 -0.929494 0.161761
1.594751 -0.927794 -0.292220
1.597447 -0.929363 0.226921
1.600878 -0.931359 -0.227408
1.599710 -0.931054 0.293158
1.580770 -0.920030 -0.160018
1.594822 -0.928581 0.358721
1.596555 -0.929590 -0.096822
1.606980 -0.936036 -0.032461
1.601887 -0.934568 -0.496933
1.609780 -0.939173 0.032531
1.587114 -0.926320 -0.424258
1.569706 -0.916160 0.095251
1.591991 -0.929539 -0.358339
1.600131 -0.934292 0.162110
1.591423 -0.929580 -0.291907
1.600964 -0.935153 0.227652
1.609535 -0.940159 -0.228871
1.598083 -0.933844 0.293158
1.586043 -0.926809 -0.160715
1.594894 -0.932354 0.359103
1.594930 -0.932375 -0.096822
1.600165 -0.935810 -0.032357
1.596920 -0.935409 -0.495897
1.611590 -0.944002 0.032601
1.592221 -0.933030 -0.426057
1.578444 -0.924957 0.095879
1.583591 -0.928345 -0.356813
1.595060 -0.935068 0.161761
1.598318 -0.937353 -0.293471
1.601042 -0.938950 0.227896
1.594193 -0.934933 -0.226921
1.586228 -0.930634 0.291281
1.575831 -0.924534 -0.159844
1.600037 -0.939111 0.360629
1.600190 -0.939202 -0.097240
1.593356 -0.935564 -0.032252
1.581963 -0.930360 -0.491756
1.603045 -0.942759 0.032461
1.592269 -0.936796 -0.426507
1.576827 -0.927711 0.095879
1.585352 -0.933099 -0.357576
1.588275 -0.934819 0.161238
1.589871 -0.936132 -0.292220
1.601112 -0.942750 0.228139
1.592559 -0.937714 -0.226921
1.588005 -0.935407 0.291907
1.565631 -0.922227 -0.158972
1.595012 -0.939909 0.359866
1.600269 -0.943007 -0.097345
1.591721 -0.938344 -0.032252
1.583663 -0.935084 -0.492791
1.591065 -0.939455 0.032252
1.582242 -0.934618 -0.424258
1.576925 -0.931477 0.095984
1.583721 -0.935864 -0.357576
1.588356 -0.938603 0.161412
1.571230 -0.928853 -0.289091
1.592628 -0.941503 0.227164
1.597755 -0.944533 -0.227896
1.586370 -0.938177 0.291907
1.567449 -0.926987 -0.159321
1.573093 -0.930695 0.355286
1.591745 -0.941731 -0.096926
1.593522 -0.943157 -0.032322
1.585353 -0.939817 -0.493827
1.592864 -0.944270 0.032322
1.575580 -0.934396 -0.422908
1.573579 -0.933209 0.095879
1.588840 -0.942634 -0.359103
1.588429 -0.942390 0.161587
1.579799 -0.937643 -0.290968
1.582447 -0.939215 0.225946
1.596104 -0.947320 -0.227896
1.591525 -0.944978 0.293158
1.565829 -0.929721 -0.159321
1.574842 -0.935445 0.356050
1.581513 -0.939407 -0.096403
1.595312 -0.947980 -0.032392
1.587030 -0.944559 -0.494862
1.594650 -0.949094 0.032392
1.573947 -0.937144 -0.422908
1.570232 -0.934932 0.095775
1.582132 -0.942391 -0.357958
1.585070 -0.944142 0.161412
1.578160 -0.940399 -0.290968
1.585922 -0.945024 0.226677
1.573985 -0.937911 -0.224971
1.579692 -0.941686 0.291281
1.567627 -0.934493 -0.159669
1.591755 -0.949253 0.360247
1.583302 -0.944212 -0.096612
1.586786 -0.946665 -0.032252
1.578746 -0.943363 -0.492791
1.596424 -0.953927 0.032461
1.573982 -0.940890 -0.423358
1.556598 -0.930498 0.095042
1.561950 -0.934067 -0.353760
1.583420 -0.946907 0.161412
1.586687 -0.949237 -0.292845
1.587677 -0.949829 0.227164
1.577456 -0.943714 -0.225702
1.574656 -0.942412 0.290655
1.555736 -0.931089 -0.158623
1.576621 -0.943962 0.357194
1.581652 -0.946974 -0.096612
1.585131 -0.949433 -0.032252
1.570470 -0.942142 -0.490721
1.587898 -0.952597 0.032322
1.575679 -0.945641 -0.424258
1.565246 -0.939380 0.095670
1.577149 -0.946898 -0.357576
1.580057 -0.948643 0.161238
1.573174 -0.944885 -0.290655
1.589420 -0.954642 0.227652
1.584315 -0.951576 -0.226921
1.573009 -0.945159 0.290655
1.554108 -0.933802 -0.158623
1.566557 -0.941655 0.355286
1.588555 -0.954878 -0.097136
1.583472 -0.952198 -0.032252
1.568824 -0.944882 -0.490721
1.579381 -0.951240 0.032182
1.570688 -0.946378 -0.423358
1.563605 -0.942110 0.095670
1.575494 -0.949649 -0.357576
1.573279 -0.948314 0.160715
1.563229 -0.942256 -0.289091
1.577552 -0.951265 0.226190
1.596251 -0.962540 -0.228871
1.578123 -0.951985 0.291907
1.555888 -0.938572 -0.158972
1.570120 -0.947157 0.356431
1.573206 -0.949393 -0.096298
1.578384 -0.952893 -0.032182
1.570478 -0.949618 -0.491756
1.577718 -0.953995 0.032182
1.557526 -0.941786 -0.420209
1.558540 -0.942770 0.095461
1.574001 -0.952123 -0.357576
1.570083 -0.949753 0.160541
1.561582 -0.944983 -0.289091
1.572659 -0.951686 0.225702
1.564002 -0.946820 -0.224483
1.576626 -0.954462 0.291907
1.551003 -0.938951 -0.158623
1.576861 -0.954981 0.358339
1.571713 -0.951863 -0.096298
1.580305 -0.957444 -0.032252
1.578894 -0.958096 -0.494862
1.576217 -0.956472 0.032182
1.560878 -0.947537 -0.421558
1.543399 -0.936926 0.094623
1.565624 -0.950792 -0.356050
1.573532 -0.955594 0.161064
1.566683 -0.951809 -0.290342
1.570996 -0.954429 0.225702
1.569299 -0.953399 -0.225458
1.568205 -0.953109 0.290655
1.559578 -0.947865 -0.159669
1.556739 -0.946512 0.354142
1.571756 -0.955643 -0.096403
1.575215 -0.958122 -0.032182
1.564021 -0.952810 -0.490721
1.581377 -0.963383 0.032322
1.567542 -0.955330 -0.423808
1.555405 -0.947933 0.095461
1.552229 -0.946369 -0.353378
1.570161 -0.957302 0.160889
1.570079 -0.957628 -0.291281
1.572717 -0.959237 0.226190
1.581191 -0.964405 -0.227408
1.556422 -0.949671 0.288778
1.554519 -0.948510 -0.159321
1.563463 -0.954342 0.356050
1.575200 -0.961506 -0.096717
1.570127 -0.958786 -0.032112
1.557412 -0.952515 -0.489168
1.579693 -0.966142 0.032322
1.560885 -0.955013 -0.422458
1.543526 -0.944392 0.094833
1.567319 -0.959326 -0.357194
1.561690 -0.955880 0.160192
1.556613 -0.953146 -0.289091
1.577812 -0.966127 0.227164
1.565962 -0.958871 -0.225458
1.558131 -0.954450 0.289404
1.539269 -0.942896 -0.157926
1.553425 -0.951940 0.354142
1.578628 -0.967385 -0.097031
1.571861 -0.963615 -0.032182
1.552454 -0.953210 -0.488133
1.560963 -0.958434 0.031973
1.555895 -0.955696 -0.421558
1.555490 -0.955448 0.095670
1.550588 -0.952809 -0.353760
1.563414 -0.960691 0.160541
1.549898 -0.952758 -0.288152
1.565977 -0.962642 0.225702
1.571050 -0.965761 -0.226433
1.566559 -0.963376 0.291281
1.541016 -0.947669 -0.158275
1.553434 -0.955679 0.354523
1.570133 -0.965952 -0.096612
1.566771 -0.964261 -0.032112
1.557366 -0.959973 -0.490203
1.566097 -0.965354 0.032112
1.547590 -0.954319 -0.419759
1.543620 -0.951871 0.095042
1.567303 -0.966853 -0.357958
1.566822 -0.966556 0.161064
1.546552 -0.954424 -0.287839
1.559226 -0.962246 0.224971
1.572741 -0.970586 -0.226921
1.564875 -0.966109 0.291281
1.542750 -0.952450 -0.158623
1.558445 -0.962515 0.356050
1.563347 -0.965543 -0.096298
1.568488 -0.969096 -0.032182
1.558974 -0.964722 -0.491239
1.561009 -0.965982 0.032043
1.547579 -0.958044 -0.420209
1.541957 -0.954564 0.095042
1.553929 -0.962351 -0.355286
1.563439 -0.968240 0.160889
1.553280 -0.962324 -0.289404
1.562607 -0.968102 0.225702
1.547420 -0.958693 -0.223508
1.556470 -0.964676 0.290030
1.544472 -0.957240 -0.158972
1.536740 -0.952819 0.351470
1.565054 -0.970375 -0.096508
1.556598 -0.965508 -0.031973
1.550724 -0.963364 -0.489168
1.566115 -0.972926 0.032182
1.547559 -0.961773 -0.420658
1.530110 -0.950928 0.094414
1.543911 -0.959879 -0.353378
1.558363 -0.968864 0.160541
1.544888 -0.960860 -0.288152
1.564286 -0.972925 0.226190
1.549115 -0.963489 -0.223996
1.548075 -0.963217 0.288778
1.532649 -0.953619 -0.157926
1.556742 -0.968987 0.356431
1.558272 -0.969939 -0.096193
1.554911 -0.968223 -0.031973
1.542483 -0.961980 -0.487097
1.550840 -0.967192 0.031903
1.552492 -0.968598 -0.422458
1.545393 -0.964169 0.095461
1.548895 -0.966730 -0.354905
1.553289 -0.969472 0.160192
1.541533 -0.962509 -0.287839
1.565953 -0.977756 0.226677
1.550799 -0.968294 -0.224483
1.549743 -0.968011 0.289404
1.527603 -0.954182 -0.157578
1.536734 -0.960258 0.352233
1.565045 -0.977949 -0.096717
1.560001 -0.975175 -0.032112
1.544077 -0.966721 -0.488133
1.549150 -0.969897 0.031903
1.540890 -0.965100 -0.419759
1.530167 -0.958384 0.094623
1.545542 -0.968389 -0.354523
1.553283 -0.973240 0.160367
1.538177 -0.964149 -0.287527
1.554153 -0.974162 0.225215
1.555835 -0.975217 -0.225458
1.551398 -0.972813 0.290030
1.525935 -0.956846 -0.157578
1.541708 -0.967112 0.353760
1.553184 -0.974311 -0.096089
1.558296 -0.977896 -0.032112
1.542387 -0.969414 -0.488133
1.547455 -0.972599 0.031903
1.532604 -0.963639 -0.417959
1.540328 -0.968495 0.095356
1.550497 -0.975266 -0.356050
1.544836 -0.971706 0.159669
1.536492 -0.966832 -0.287527
1.545730 -0.972644 0.224240
1.544049 -0.971587 -0.223996
1.549698 -0.975519 0.290030
1.534380 -0.965877 -0.158623
1.526728 -0.961432 0.350707
1.551481 -0.977020 -0.096089
1.559971 -0.982747 -0.032182
1.547228 -0.976228 -0.490203
1.552520 -0.979567 0.032043
1.535864 -0.969433 -0.419309
1.516679 -0.957323 0.093995
1.540492 -0.972730 -0.354142
1.551561 -0.979719 0.160541
1.539813 -0.972677 -0.288465
1.552421 -0.980642 0.225458
1.555778 -0.982762 -0.225946
1.537973 -0.971891 0.288152
1.529323 -0.966424 -0.158275
1.546621 -0.977733 0.355668
1.546398 -0.977592 -0.095879
1.548113 -0.979055 -0.031973
1.538994 -0.974792 -0.488133
1.550808 -0.982275 0.032043
1.532523 -0.971069 -0.418859
1.533563 -0.971728 0.095147
1.530501 -0.970162 -0.352233
1.538069 -0.974959 0.159321
1.534776 -0.973247 -0.287839
1.554060 -0.985476 0.225946
1.538972 -0.975908 -0.223752
1.526266 -0.968224 0.286275
1.527634 -0.969092 -0.158275
1.534966 -0.974119 0.353378
1.548062 -0.982430 -0.096089
1.543026 -0.979612 -0.031903
1.527509 -0.971258 -0.485027
1.545716 -0.982835 0.031973
1.539047 -0.978971 -0.421108
1.520068 -0.966899 0.094414
1.528806 -0.972832 -0.352233
1.534684 -0.976572 0.159146
1.528076 -0.972742 -0.286901
1.545639 -0.983922 0.224971
1.542290 -0.981790 -0.224483
1.534571 -0.977253 0.288152
1.519218 -0.967476 -0.157578
1.526640 -0.972577 0.351852
1.553082 -0.989423 -0.096508
1.544686 -0.984453 -0.031973
1.535582 -0.980159 -0.488133
1.537256 -0.981227 0.031833
1.529124 -0.976412 -0.418859
1.535212 -0.980299 0.095461
1.527105 -0.975498 -0.352233
1.539694 -0.983540 0.159844
1.521383 -0.972217 -0.285962
1.538901 -0.983412 0.224240
1.545592 -0.987687 -0.225215
1.542849 -0.986314 0.290030
1.514170 -0.967980 -0.157229
1.526594 -0.976298 0.352233
1.542940 -0.986751 -0.095984
1.542966 -0.987147 -0.031973
1.527363 -0.978668 -0.486062
1.535541 -0.983909 0.031833
1.522496 -0.975925 -0.417509
1.513321 -0.970044 0.094205
1.528706 -0.980282 -0.352997
1.539652 -0.987301 0.160018
1.526505 -0.978870 -0.287214
1.535512 -0.985024 0.223996
1.525487 -0.978593 -0.222533
1.531151 -0.982604 0.288152
1.515832 -0.972773 -0.157578
1.525059 -0.978695 0.352233
1.534493 -0.985127 -0.095565
1.544605 -0.992000 -0.032043
1.538650 -0.989693 -0.490203
1.537185 -0.988751 0.031903
1.525878 -0.981478 -0.418859
1.514985 -0.974845 0.094414
1.532117 -0.985869 -0.354142
1.534748 -0.987562 0.159669
1.519811 -0.978326 -0.286275
1.540639 -0.991733 0.224971
1.527115 -0.983404 -0.223021
1.529605 -0.985008 0.288152
1.517652 -0.977310 -0.157926
1.531601 -0.986671 0.354142
1.537981 -0.990781 -0.095879
1.539684 -0.992258 -0.031973
1.533848 -0.990014 -0.489168
1.542351 -0.995502 0.032043
1.522525 -0.983082 -0.418409
1.506740 -0.972890 0.093995
1.512254 -0.976824 -0.349944
1.526328 -0.985915 0.158972
1.526397 -0.986337 -0.287839
1.535572 -0.992266 0.224483
1.528903 -0.987956 -0.223508
1.524566 -0.985531 0.287527
1.512598 -0.977795 -0.157578
1.516688 -0.980814 0.351089
1.531218 -0.990210 -0.095565
1.524518 -0.986255 -0.031694
1.515905 -0.982184 -0.483992
1.533898 -0.993843 0.031903
1.525713 -0.988918 -0.419759
1.520124 -0.985295 0.094937
1.513841 -0.981598 -0.350707
1.527948 -0.990745 0.159321
1.518044 -0.984700 -0.286588
1.535503 -0.996024 0.224727
1.523845 -0.988462 -0.223021
1.526158 -0.990341 0.288152
1.504203 -0.976095 -0.156880
1.524854 -0.989873 0.353378
1.539538 -0.999406 -0.096193
1.531179 -0.994359 -0.031868
1.517427 -0.986935 -0.485027
1.522103 -0.989977 0.031694
1.519085 -0.988391 -0.418409
1.513380 -0.984679 0.094623
1.515416 -0.986381 -0.351470
1.524547 -0.992324 0.159146
1.508046 -0.981958 -0.285024
1.532099 -0.997620 0.224483
1.528772 -0.995453 -0.223996
1.527737 -0.995160 0.288778
1.499159 -0.976544 -0.156532
1.505031 -0.980743 0.349180
1.534445 -0.999911 -0.095984
1.537817 -1.002491 -0.032043
1.515702 -0.989582 -0.485027
1.523722 -0.994818 0.031763
1.507568 -0.984647 -0.415710
1.509987 -0.986227 0.094519
1.525197 -0.996541 -0.354142
1.522812 -0.994983 0.159146
1.511291 -0.987831 -0.285962
1.522047 -0.994862 0.223265
1.513739 -0.989431 -0.222046
1.522691 -0.995662 0.288152
1.504122 -0.983520 -0.157229
1.519746 -0.994115 0.352997
1.519326 -0.993841 -0.095147
1.536065 -1.005173 -0.032043
1.520436 -0.996462 -0.487097
1.525328 -0.999668 0.031833
1.507477 -0.988345 -0.416159
1.499912 -0.983385 0.093995
1.503756 -0.986281 -0.349562
1.529404 -1.003103 0.160018
1.514519 -0.993718 -0.286901
1.525287 -1.000784 0.223996
1.508690 -0.989894 -0.221558
1.517648 -0.996150 0.287527
1.502403 -0.986144 -0.157229
1.499957 -0.984913 0.348799
1.522598 -0.999780 -0.095461
1.520938 -0.999069 -0.031763
1.512238 -0.994867 -0.485027
1.530264 -1.006725 0.031973
1.509005 -0.993117 -0.417059
1.508203 -0.992589 0.094623
1.503672 -0.989983 -0.349944
1.519330 -1.000292 0.159146
1.506184 -0.992014 -0.285649
1.523538 -1.003444 0.223996
1.525196 -1.004536 -0.224240
1.512609 -0.996624 0.286901
1.500680 -0.988765 -0.157229
1.521184 -1.002655 0.354142
1.529189 -1.007931 -0.095984
1.522531 -1.003924 -0.031833
1.504051 -0.993246 -0.482956
1.521829 -1.004987 0.031833
1.510521 -0.997898 -0.417959
1.493137 -0.986413 0.093786
1.498666 -0.990441 -0.349180
1.510933 -0.998549 0.158449
1.507746 -0.996820 -0.286275
1.518473 -1.003912 0.223508
1.511849 -0.999533 -0.222533
1.510867 -0.999263 0.286901
1.492305 -0.986986 -0.156532
1.498147 -0.991226 0.349180
1.525761 -1.009497 -0.095879
1.517441 -1.004372 -0.031763
1.505536 -0.998005 -0.483992
1.513406 -1.003222 0.031694
1.503905 -0.997302 -0.416609
1.504729 -0.997848 0.094623
1.505115 -0.998482 -0.351089
1.515829 -1.005590 0.159146
1.504358 -0.998358 -0.285962
1.520026 -1.008756 0.223996
1.533259 -1.017538 -0.225946
1.509121 -1.001898 0.286901
1.490580 -0.989589 -0.156532
1.501321 -0.997098 0.350325
1.517342 -1.007738 -0.095461
1.517352 -1.008126 -0.031798
1.507008 -1.002771 -0.485027
1.514982 -1.008077 0.031763
1.497296 -0.996685 -0.415260
1.496335 -0.996046 0.094205
1.508272 -1.004372 -0.352233
1.514072 -1.008234 0.159146
1.499325 -0.998792 -0.285336
1.506699 -1.003704 0.222290
1.505047 -1.002603 -0.222046
1.513945 -1.008912 0.288152
1.488850 -0.992189 -0.156532
1.497945 -0.998627 0.349944
1.508934 -1.005953 -0.095042
1.520581 -1.014101 -0.031903
1.508469 -1.007546 -0.486062
1.509895 -1.008498 0.031694
1.495554 -0.999297 -0.415260
1.487952 -0.994217 0.093786
1.503253 -1.004821 -0.351470
1.513966 -1.011982 0.159321
1.499221 -1.002505 -0.285649
1.514846 -1.012953 0.223752
1.513196 -1.011849 -0.223508
1.505614 -1.007160 0.286901
1.490428 -0.997002 -0.156880
1.491305 -0.997965 0.348799
1.508836 -1.009696 -0.095147
1.512161 -1.012304 -0.031763
1.501894 -1.006950 -0.484509
1.514776 -1.015587 0.031833
1.497044 -1.004077 -0.416159
1.489532 -0.999038 0.093995
1.490085 -0.999786 -0.348799
1.505580 -1.010182 0.158623
1.499110 -1.006221 -0.285962
1.513076 -1.015595 0.223752
1.499890 -1.006745 -0.221802
1.494014 -1.003179 0.285024
1.482070 -0.995159 -0.156183
1.505858 -1.011513 0.352615
1.512045 -1.015669 -0.095461
1.505413 -1.011596 -0.031659
1.488916 -1.002019 -0.480886
1.506365 -1.013763 0.031694
1.498523 -1.008865 -0.417059
1.486129 -1.000521 0.093891
1.489966 -1.003482 -0.349180
1.500509 -1.010583 0.158275
1.492436 -1.005524 -0.285024
1.514593 -1.020452 0.224240
1.511301 -1.018234 -0.223752
1.498813 -1.010201 0.286275
1.473722 -0.993290 -0.155486
1.489440 -1.004262 0.349180
1.518550 -1.023889 -0.095984
1.510277 -1.018694 -0.031798
1.490366 -1.006779 -0.481921
1.492994 -1.008555 0.031449
1.487072 -1.004932 -0.414360
1.495964 -1.010941 0.094623
1.491465 -1.008280 -0.349944
1.500394 -1.014316 0.158449
1.482673 -1.002336 -0.283459
1.507877 -1.019758 0.223508
1.501300 -1.015310 -0.222533
1.500320 -1.015029 0.286901
1.478587 -1.000326 -0.156183
1.481357 -1.002200 0.347654
1.503528 -1.017583 -0.095147
1.510152 -1.022450 -0.031833
1.495003 -1.013716 -0.483992
1.499507 -1.016770 0.031624
1.482265 -1.005079 -0.413460
1.484280 -1.006823 0.093995
1.493129 -1.012825 -0.350707
1.502096 -1.018909 0.158798
1.487459 -1.009359 -0.284711
1.496418 -1.015438 0.222046
1.491313 -1.012354 -0.221315
1.498724 -1.017385 0.286901
1.477014 -1.002647 -0.156183
1.499095 -1.018019 0.352233
1.493666 -1.014333 -0.094623
1.508544 -1.024821 -0.031833
1.493409 -1.016063 -0.483992
1.504522 -1.023624 0.031763
1.483731 -1.009858 -0.414360
1.472790 -1.002411 0.093367
1.484867 -1.011010 -0.349180
1.501963 -1.022650 0.158972
1.488961 -1.014177 -0.285336
1.497924 -1.020283 0.222533
1.499565 -1.021400 -0.222777
1.493681 -1.017774 0.286275
1.481848 -1.009711 -0.156880
1.482716 -1.010682 0.348799
1.495195 -1.019188 -0.094833
1.501797 -1.024072 -0.031728
1.488442 -1.016489 -0.482956
1.499430 -1.023993 0.031694
1.485184 -1.014644 -0.415260
1.477635 -1.009486 0.093786
1.468513 -1.003630 -0.345746
1.491951 -1.019649 0.158101
1.483927 -1.014545 -0.284711
1.505974 -1.029618 0.223996
1.486309 -1.016174 -0.221071
1.485380 -1.015919 0.285024
1.470216 -1.005547 -0.155834
1.500393 -1.026572 0.353378
1.498358 -1.025180 -0.095147
1.493407 -1.022174 -0.031589
1.480292 -1.014716 -0.480886
1.486095 -1.018694 0.031449
1.483411 -1.017235 -0.415260
1.480812 -1.015453 0.094100
1.474854 -1.011745 -0.347654
1.485240 -1.018870 0.157578
1.482154 -1.017133 -0.284711
1.502538 -1.031122 0.223752
1.481260 -1.016520 -0.220584
1.486862 -1.020746 0.285649
1.468459 -1.008112 -0.155834
1.471087 -1.010294 0.346891
1.503152 -1.032316 -0.095565
1.489972 -1.023646 -0.031554
1.478519 -1.017298 -0.480886
1.489257 -1.024686 0.031554
1.472002 -1.013193 -0.412560
1.480683 -1.019168 0.094205
1.471468 -1.013204 -0.347272
1.491664 -1.027110 0.158449
1.472242 -1.014116 -0.283146
1.487657 -1.024734 0.221802
1.489292 -1.025860 -0.222046
1.488331 -1.025581 0.286275
1.469978 -1.012934 -0.156183
1.480636 -1.020660 0.349562
1.484904 -1.023602 -0.094519
1.494768 -1.030786 -0.031694
1.481510 -1.023170 -0.482439
1.475948 -1.019330 0.031310
1.471835 -1.016868 -0.413010
1.469043 -1.014939 0.093577
1.481003 -1.023584 -0.349944
1.483313 -1.025181 0.157752
1.478594 -1.022301 -0.284711
1.484234 -1.026200 0.221558
1.495664 -1.034103 -0.223265
1.489788 -1.030425 0.286901
1.464931 -1.013232 -0.155834
1.472395 -1.018774 0.348036
1.483116 -1.026192 -0.094519
1.502832 -1.040222 -0.031903
1.482897 -1.027956 -0.483474
1.482384 -1.027600 0.031484
1.470058 -1.019435 -0.413010
1.459063 -1.011811 0.093053
1.469536 -1.019453 -0.347654
1.491344 -1.034582 0.158798
1.476808 -1.024880 -0.284711
1.484071 -1.029921 0.221802
1.464501 -1.016339 -0.218877
1.481497 -1.028517 0.285649
1.466433 -1.018059 -0.156183
1.477065 -1.025822 0.349562
1.482963 -1.029918 -0.094623
1.486234 -1.032575 -0.031589
1.481101 -1.030542 -0.483474
1.487154 -1.034754 0.031624
1.473075 -1.025339 -0.414360
1.458934 -1.015497 0.093158
1.458088 -1.015285 -0.345364
1.479726 -1.030352 0.157752
1.473396 -1.026327 -0.284398
1.488787 -1.037048 0.222777
1.493674 -1.040452 -0.223508
1.473217 -1.026584 0.284398
1.461385 -1.018339 -0.155834
1.472051 -1.026153 0.348799
1.486078 -1.035932 -0.094937
1.484430 -1.035167 -0.031589
1.466629 -1.024277 -0.479333
1.483706 -1.036203 0.031589
1.471283 -1.027909 -0.414360
1.463708 -1.022617 0.093577
1.464359 -1.023452 -0.347272
1.476292 -1.031792 0.157578
1.473221 -1.030029 -0.284711
1.493482 -1.044194 0.223752
1.470706 -1.028270 -0.220340
1.473042 -1.030286 0.284711
1.453075 -1.016320 -0.155137
1.476692 -1.033223 0.350325
1.484268 -1.038524 -0.094937
1.484259 -1.038903 -0.031624
1.468003 -1.029053 -0.480368
1.465521 -1.027313 0.031240
1.464700 -1.027119 -0.413010
1.468462 -1.029757 0.093995
1.462571 -1.026006 -0.347272
1.474489 -1.034367 0.157578
1.464954 -1.028059 -0.283459
1.478658 -1.037677 0.221802
1.491658 -1.046799 -0.223752
1.482558 -1.040800 0.286901
1.451299 -1.018855 -0.155137
1.462033 -1.026772 0.347272
1.474281 -1.035373 -0.094414
1.482443 -1.041492 -0.031624
1.469365 -1.033837 -0.481403
1.475174 -1.037924 0.031484
1.466092 -1.031917 -0.413910
1.460130 -1.027720 0.093577
1.465594 -1.031948 -0.348417
1.477569 -1.040380 0.158101
1.466387 -1.032890 -0.284085
1.473599 -1.037970 0.221315
1.470353 -1.035684 -0.220827
1.477510 -1.041111 0.286275
1.456033 -1.025977 -0.155834
1.466658 -1.033847 0.348799
1.470839 -1.036794 -0.094309
1.483892 -1.046383 -0.031694
1.473870 -1.040857 -0.483474
1.476627 -1.042804 0.031554
1.462698 -1.033350 -0.413460
1.455071 -1.027962 0.093367
1.450964 -1.025440 -0.345364
1.483886 -1.048707 0.158972
1.462969 -1.034307 -0.283772
1.471785 -1.040540 0.221315
1.475027 -1.042832 -0.221802
1.469240 -1.039125 0.285024
1.450987 -1.026216 -0.155486
1.456838 -1.030735 0.346891
1.472288 -1.041667 -0.094519
1.475534 -1.044350 -0.031554
1.465747 -1.038959 -0.481403
1.474805 -1.045380 0.031554
1.459302 -1.034774 -0.413010
1.450016 -1.028190 0.093158
1.449172 -1.027971 -0.345364
1.460928 -1.036310 0.156706
1.462772 -1.038002 -0.284085
1.474824 -1.046554 0.222046
1.460253 -1.036215 -0.219852
1.460981 -1.037114 0.283772
1.449193 -1.028746 -0.155486
1.459839 -1.036687 0.348036
1.472096 -1.045391 -0.094623
1.470449 -1.044608 -0.031484
1.457635 -1.037036 -0.479333
1.468090 -1.044475 0.031449
1.462257 -1.040709 -0.414360
1.449847 -1.031877 0.093263
1.447376 -1.030499 -0.345364
1.462363 -1.041169 0.157055
1.454523 -1.035970 -0.282834
1.481079 -1.054884 0.223265
1.484313 -1.057188 -0.223752
1.465603 -1.044247 0.285024
1.440905 -1.026650 -0.154789
1.451632 -1.034675 0.346509
1.471896 -1.049118 -0.094728
1.476765 -1.052977 -0.031659
1.455823 -1.039579 -0.479333
1.456501 -1.040063 0.031240
1.452510 -1.037596 -0.412110
1.452919 -1.037889 0.093577
1.448770 -1.035306 -0.346128
1.462165 -1.044878 0.157229
1.449499 -1.036209 -0.282208
1.469547 -1.050541 0.221802
1.459857 -1.043614 -0.220340
1.463779 -1.046804 0.285024
1.442352 -1.031481 -0.155137
1.454614 -1.040634 0.347654
1.471687 -1.052848 -0.094833
1.476551 -1.056717 -0.031694
1.457147 -1.044369 -0.480368
1.459559 -1.046098 0.031345
1.447529 -1.037858 -0.411211
1.447859 -1.038095 0.093367
1.454937 -1.043554 -0.348036
1.457101 -1.045106 0.156880
1.444478 -1.036434 -0.281582
1.458034 -1.046161 0.220340
1.472550 -1.056576 -0.222533
1.461949 -1.049357 0.285024
1.447024 -1.038644 -0.155834
1.448012 -1.039736 0.346509
1.463358 -1.050755 -0.094414
1.471456 -1.056959 -0.031624
1.458458 -1.049167 -0.481403
1.460978 -1.050979 0.031414
1.448879 -1.042660 -0.412110
1.434698 -1.032454 0.092635
1.443553 -1.039210 -0.345746
1.464976 -1.054632 0.157926
1.455490 -1.048189 -0.284085
1.462649 -1.053344 0.221315
1.449762 -1.044064 -0.219365
1.456910 -1.049598 0.284398
1.441976 -1.038839 -0.155486
1.455751 -1.049148 0.348799
1.461522 -1.053307 -0.094414
1.459876 -1.052509 -0.031414
1.450360 -1.047187 -0.479333
1.457520 -1.052357 0.031379
1.442318 -1.041764 -0.410761
1.434512 -1.036126 0.092739
1.438555 -1.039428 -0.344983
1.458288 -1.053687 0.157403
1.453659 -1.050727 -0.284085
1.464026 -1.058221 0.221802
1.457591 -1.053570 -0.220827
1.451875 -1.049824 0.283772
1.440161 -1.041354 -0.155486
1.450736 -1.049387 0.348036
1.462918 -1.058198 -0.094623
1.461277 -1.057400 -0.031484
1.445401 -1.047450 -0.478298
1.454062 -1.053726 0.031345
1.446808 -1.048855 -0.412560
1.439170 -1.043317 0.093158
1.439917 -1.044243 -0.345746
1.441931 -1.045703 0.155834
1.445427 -1.048623 -0.282834
1.462177 -1.060775 0.221802
1.463784 -1.061941 -0.222046
1.453238 -1.054677 0.284398
1.431891 -1.039185 -0.154789
1.452080 -1.054224 0.348799
1.457836 -1.058403 -0.094414
1.452958 -1.055248 -0.031345
1.443571 -1.049971 -0.478298
1.444135 -1.050381 0.031170
1.446551 -1.052525 -0.413010
1.438962 -1.047003 0.093263
1.434918 -1.044443 -0.344983
1.443326 -1.050563 0.156183
1.440401 -1.048819 -0.282208
1.453904 -1.058651 0.220827
1.450695 -1.056314 -0.220340
1.451395 -1.057211 0.284398
1.430075 -1.041682 -0.154789
1.434371 -1.045195 0.344983
1.451144 -1.057417 -0.094100
1.464041 -1.067206 -0.031624
1.447977 -1.057045 -0.480368
1.442299 -1.052900 0.031170
1.432122 -1.045853 -0.409411
1.433907 -1.047157 0.093053
1.441019 -1.052737 -0.346891
1.451143 -1.060132 0.157229
1.441758 -1.053662 -0.282834
1.442438 -1.054159 0.219365
1.460068 -1.067044 -0.222046
1.452736 -1.062075 0.285024
1.431472 -1.046528 -0.155137
1.434129 -1.048855 0.345364
1.449296 -1.059948 -0.094100
1.455721 -1.065036 -0.031484
1.449247 -1.061854 -0.481403
1.443685 -1.057779 0.031240
1.435010 -1.051808 -0.410761
1.428855 -1.047296 0.092844
1.431263 -1.049446 -0.344983
1.447683 -1.061485 0.157055
1.440101 -1.055926 -0.282834
1.448599 -1.062546 0.220584
1.438995 -1.055501 -0.219121
1.449288 -1.063440 0.284711
1.436068 -1.053740 -0.155834
1.440394 -1.056914 0.347272
1.452274 -1.066021 -0.094414
1.447412 -1.062841 -0.031345
1.441166 -1.059804 -0.479333
1.451503 -1.067405 0.031449
1.431786 -1.052906 -0.410311
1.430243 -1.052156 0.093053
1.421706 -1.045876 -0.343075
1.442804 -1.061397 0.156706
1.441438 -1.060779 -0.283459
1.451725 -1.068350 0.221315
1.451538 -1.068603 -0.221315
1.438071 -1.058689 0.282834
1.427993 -1.051270 -0.155137
1.440128 -1.060591 0.347654
1.445773 -1.064748 -0.094100
1.445741 -1.065114 -0.031345
1.430172 -1.055185 -0.476227
1.440170 -1.062561 0.031240
1.433082 -1.057718 -0.411211
1.430195 -1.055587 0.093158
1.421458 -1.049522 -0.343456
1.428127 -1.054446 0.155312
1.430050 -1.056252 -0.281582
1.453052 -1.073241 0.221802
1.454648 -1.074420 -0.222046
1.436221 -1.061197 0.282834
1.422952 -1.051392 -0.154789
1.433539 -1.059601 0.346509
1.451944 -1.073206 -0.094623
1.443880 -1.067635 -0.031345
1.434539 -1.062278 -0.478298
1.438313 -1.065073 0.031240
1.434365 -1.062537 -0.412110
1.434770 -1.062837 0.093577
1.430665 -1.060183 -0.346128
1.440691 -1.067613 0.156880
1.425031 -1.056393 -0.280956
1.440013 -1.067500 0.220096
1.438419 -1.066318 -0.219852
1.442300 -1.069585 0.284398
1.417914 -1.051500 -0.154440
1.426957 -1.058593 0.345364
1.443652 -1.070978 -0.094205
1.448438 -1.074920 -0.031484
1.432683 -1.064780 -0.478298
1.433242 -1.065196 0.031170
1.421562 -1.056900 -0.408961
1.421693 -1.056998 0.092844
1.419361 -1.055649 -0.343838
1.437227 -1.068937 0.156706
1.426355 -1.061237 -0.281582
1.433370 -1.066457 0.219365
1.446111 -1.075936 -0.221315
1.440431 -1.072101 0.284398
1.419273 -1.056353 -0.154789
1.426682 -1.062254 0.345746
1.436975 -1.069918 -0.093891
1.446559 -1.077447 -0.031484
1.430822 -1.067279 -0.478298
1.431381 -1.067696 0.031170
1.419715 -1.059380 -0.408961
1.419846 -1.059478 0.092844
1.414370 -1.055776 -0.343075
1.435359 -1.071443 0.156706
1.427666 -1.066089 -0.282208
1.433097 -1.070144 0.219609
1.421963 -1.061830 -0.217902
1.435393 -1.072249 0.283772
1.423812 -1.063598 -0.155486
1.426398 -1.065918 0.346128
1.438305 -1.074816 -0.094100
1.435067 -1.072786 -0.031275
1.432050 -1.072090 -0.479333
1.435918 -1.074986 0.031310
1.427222 -1.068865 -0.411660
1.414798 -1.059560 0.092635
1.410954 -1.057065 -0.342693
1.419136 -1.063196 0.155137
1.428964 -1.070948 -0.282834
1.439170 -1.078596 0.220827
1.440758 -1.079787 -0.221071
1.427197 -1.070013 0.282521
1.412389 -1.058910 -0.154440
1.426106 -1.069584 0.346509
1.441220 -1.080919 -0.094414
1.433192 -1.075289 -0.031275
1.417821 -1.065304 -0.475192
1.429244 -1.073887 0.031205
1.420681 -1.067842 -0.410311
1.424122 -1.070427 0.093367
1.412245 -1.061886 -0.343456
1.422056 -1.069263 0.155660
1.420779 -1.068691 -0.281582
1.437285 -1.081107 0.220827
1.434112 -1.078720 -0.220340
1.428484 -1.074877 0.283146
1.410538 -1.061374 -0.154440
1.425806 -1.073252 0.346891
1.437736 -1.082232 -0.094309
1.431313 -1.077789 -0.031275
1.425214 -1.074756 -0.478298
1.419384 -1.070360 0.031030
1.411037 -1.064451 -0.408061
1.420657 -1.071709 0.093263
1.413524 -1.066715 -0.344219
1.418597 -1.070543 0.155486
1.412605 -1.066408 -0.280331
1.429059 -1.078829 0.219852
1.436980 -1.084810 -0.221071
1.428182 -1.078559 0.283459
1.411864 -1.066235 -0.154789
1.414531 -1.068638 0.344601
1.429470 -1.079924 -0.093891
