# This PCD file was generated using the MATLAB® pcwrite function
# from Computer Vision System Toolbox®.
# .PCD v.7 - Point Cloud Data file format
VERSION .7
FIELDS x y z
SIZE 4 4 4
TYPE F F F
COUNT 1 1 1
WIDTH 1704
HEIGHT 1
VIEWPOINT 0 0 0 1 0 0 0
POINTS 1704
DATA ascii
1.184478 0.779537 -0.379946
1.186830 0.780788 -0.327979
1.190885 0.783159 -0.277055
1.204979 0.792125 -0.228394
1.215882 0.799293 -0.178660
1.212166 0.796547 -0.126899
1.208590 0.793896 -0.075782
1.185836 0.777469 -0.379946
1.196340 0.784056 -0.330228
1.195535 0.783231 -0.277818
1.204707 0.788939 -0.228081
1.205650 0.789557 -0.176954
1.206886 0.790065 -0.126202
1.213317 0.793972 -0.075992
1.187192 0.775397 -0.379946
1.199338 0.783033 -0.330678
1.196900 0.781143 -0.277818
1.202773 0.784676 -0.227456
1.226977 0.800466 -0.179879
1.194912 0.779251 -0.124807
1.228086 0.800579 -0.076829
1.190162 0.774378 -0.380464
1.195802 0.777751 -0.329328
1.203200 0.782263 -0.278963
1.205660 0.783863 -0.227769
1.221714 0.793998 -0.178904
1.206295 0.783677 -0.125853
1.209381 0.785381 -0.075573
1.196375 0.775452 -0.382017
1.197022 0.775872 -0.329328
1.206074 0.781439 -0.279344
1.208685 0.782831 -0.228081
1.223098 0.791864 -0.178904
1.215887 0.787195 -0.126724
1.203906 0.779140 -0.075154
1.199215 0.774620 -0.382535
1.206560 0.779066 -0.331578
1.205787 0.778269 -0.278963
1.211709 0.781792 -0.228394
1.207660 0.779179 -0.176467
1.222282 0.788311 -0.127247
1.215336 0.783531 -0.075782
1.198940 0.771480 -0.382017
1.209557 0.778014 -0.332028
1.197235 0.769792 -0.276673
1.221380 0.785016 -0.229959
1.224048 0.786730 -0.178660
1.203541 0.773253 -0.125156
1.220062 0.783567 -0.075992
1.190526 0.763132 -0.378911
1.210914 0.775901 -0.332028
1.203536 0.770878 -0.277818
1.216094 0.778622 -0.228707
1.222075 0.782452 -0.178173
1.211602 0.775447 -0.125853
1.228158 0.785742 -0.076411
1.198370 0.765211 -0.380982
1.204052 0.768544 -0.329778
1.206535 0.769833 -0.278200
1.217451 0.776498 -0.228707
1.233481 0.786722 -0.179635
1.209593 0.771190 -0.125504
1.219422 0.777156 -0.075782
1.204593 0.766229 -0.382535
1.198814 0.762259 -0.327979
1.212848 0.770885 -0.279344
1.215470 0.772254 -0.228081
1.228150 0.780310 -0.178660
1.217665 0.773350 -0.126202
1.217404 0.772886 -0.075573
1.209192 0.766193 -0.383570
1.206728 0.764337 -0.329778
1.215850 0.769817 -0.279726
1.221823 0.773301 -0.229020
1.229510 0.778166 -0.178660
1.232482 0.779745 -0.127596
1.232255 0.779301 -0.076411
1.200726 0.757895 -0.380464
1.213004 0.765349 -0.331128
1.213870 0.765599 -0.278963
1.228184 0.774328 -0.229959
1.224149 0.771784 -0.177686
1.220357 0.769095 -0.126202
1.230233 0.775020 -0.076201
1.197141 0.752713 -0.378911
1.220938 0.767378 -0.332928
1.220192 0.766613 -0.280108
1.222843 0.767980 -0.228707
1.242305 0.780203 -0.180123
1.225072 0.769082 -0.126550
1.238351 0.777118 -0.076620
1.211550 0.758826 -0.383052
1.215668 0.761111 -0.331128
1.221528 0.764482 -0.280108
1.222506 0.764797 -0.228394
1.236934 0.773823 -0.179148
1.226412 0.766944 -0.126550
1.232931 0.770720 -0.076201
1.214512 0.757733 -0.383570
1.215342 0.757956 -0.330678
1.224527 0.763387 -0.280489
1.228869 0.765797 -0.229333
1.241652 0.773763 -0.179635
1.231131 0.766908 -0.126899
1.227493 0.764344 -0.075782
1.222396 0.759691 -0.385640
1.216663 0.755834 -0.330678
1.225857 0.761249 -0.280489
1.228392 0.762823 -0.229020
1.229508 0.763219 -0.177686
1.239240 0.768961 -0.127596
1.239009 0.768517 -0.076411
1.217149 0.753489 -0.383570
1.212878 0.750845 -0.329328
1.218704 0.754157 -0.278581
1.238121 0.765874 -0.230584
1.244345 0.769424 -0.179635
1.233668 0.762822 -0.126899
1.241913 0.767620 -0.076515
1.215043 0.749548 -0.382535
1.229115 0.757932 -0.333377
1.228375 0.757180 -0.280489
1.229365 0.757495 -0.228707
1.235412 0.761220 -0.178173
1.226515 0.755443 -0.126027
1.256857 0.773828 -0.077353
1.219641 0.749448 -0.383570
1.227115 0.753745 -0.332478
1.228021 0.754008 -0.280108
1.234053 0.757414 -0.229333
1.260425 0.773600 -0.181585
1.231228 0.755385 -0.126376
1.244585 0.763281 -0.076515
1.219300 0.746310 -0.383052
1.218454 0.745501 -0.329778
1.236035 0.755960 -0.281634
1.242114 0.759381 -0.230584
1.244836 0.761045 -0.179148
1.246146 0.761546 -0.127770
1.242507 0.759025 -0.076306
1.225549 0.747197 -0.384605
1.228074 0.748444 -0.332028
1.230646 0.749716 -0.280108
1.246812 0.759266 -0.231210
1.247858 0.759903 -0.179392
1.242367 0.756262 -0.127247
1.243829 0.756855 -0.076306
1.218595 0.740044 -0.382017
1.234376 0.749333 -0.333377
1.226918 0.744512 -0.278963
1.251513 0.759139 -0.231836
1.254274 0.760813 -0.180123
1.241981 0.753060 -0.127073
1.267353 0.768141 -0.077667
1.221538 0.738916 -0.382535
1.239017 0.749194 -0.334277
1.241656 0.750494 -0.282016
1.246073 0.752867 -0.230584
1.257299 0.759650 -0.180367
1.236472 0.746771 -0.126376
1.258433 0.759734 -0.077039
1.226135 0.738777 -0.383570
1.230307 0.740998 -0.331578
1.241282 0.747313 -0.281634
1.240615 0.746616 -0.229333
1.256922 0.756430 -0.180123
1.241188 0.746666 -0.126724
1.268314 0.762684 -0.077562
1.229079 0.737630 -0.384087
1.234940 0.740855 -0.332478
1.245952 0.747165 -0.282397
1.245305 0.746481 -0.229959
1.259943 0.755256 -0.180367
1.251035 0.749618 -0.127596
1.242229 0.744048 -0.075887
1.240314 0.741430 -0.387193
1.241250 0.741697 -0.333827
1.245569 0.743982 -0.282016
1.248303 0.745319 -0.230272
1.259555 0.752038 -0.180123
1.254052 0.748456 -0.127770
1.274400 0.760298 -0.077771
1.233306 0.734324 -0.384605
1.237519 0.736539 -0.332478
1.245178 0.740803 -0.281634
1.258090 0.748188 -0.231836
1.259159 0.748824 -0.179879
1.248505 0.742193 -0.127073
1.260272 0.748890 -0.076829
1.229601 0.729214 -0.383052
1.255566 0.744315 -0.336977
1.244780 0.737628 -0.281252
1.249196 0.739951 -0.229959
1.255340 0.743590 -0.179148
1.249799 0.740013 -0.127073
1.287359 0.761948 -0.078399
1.235862 0.730014 -0.384605
1.243439 0.734196 -0.333377
1.254519 0.740444 -0.283161
1.252188 0.738773 -0.230272
1.275443 0.752494 -0.181829
1.251089 0.737830 -0.127073
1.257717 0.741443 -0.076515
1.240464 0.729815 -0.385640
1.241358 0.730049 -0.332478
1.259195 0.740243 -0.283924
1.258455 0.739809 -0.231210
1.257929 0.739204 -0.179148
1.255811 0.737663 -0.127422
1.267620 0.744304 -0.077039
1.248403 0.731555 -0.387711
1.242504 0.728098 -0.332478
1.250192 0.732311 -0.281634
1.258040 0.736613 -0.230897
1.266070 0.741017 -0.180123
1.270724 0.743741 -0.128816
1.273959 0.745337 -0.077353
1.244546 0.726671 -0.386158
1.252187 0.730841 -0.334727
1.251468 0.730128 -0.281634
1.264443 0.737401 -0.231836
1.270662 0.741028 -0.180610
1.261692 0.735503 -0.127770
1.276984 0.744118 -0.077457
1.239133 0.720613 -0.384087
1.258516 0.731592 -0.336077
1.254438 0.728928 -0.282016
1.258895 0.731225 -0.230584
1.275386 0.740803 -0.181098
1.256082 0.729297 -0.127073
1.280008 0.742891 -0.077562
1.240388 0.718450 -0.384087
1.249672 0.723536 -0.333377
1.267603 0.733622 -0.284687
1.253330 0.725070 -0.229333
1.280114 0.740564 -0.181585
1.267701 0.733089 -0.128119
1.274386 0.736658 -0.077143
1.246660 0.719180 -0.385640
1.247556 0.719407 -0.332478
1.270582 0.732389 -0.285069
1.263152 0.727812 -0.230897
1.281404 0.738329 -0.181585
1.258620 0.724909 -0.127073
1.284325 0.739414 -0.077667
1.252939 0.719890 -0.387193
1.252190 0.719169 -0.333377
1.263345 0.725283 -0.283161
1.272987 0.730522 -0.232462
1.262030 0.724235 -0.178660
1.278894 0.733615 -0.128990
1.270019 0.728231 -0.076725
1.247487 0.713864 -0.385123
1.256826 0.718918 -0.334277
1.254383 0.717230 -0.280871
1.270830 0.726339 -0.231836
1.283974 0.733851 -0.181585
1.276712 0.729406 -0.128642
1.281695 0.731956 -0.077353
1.250409 0.712642 -0.385640
1.268239 0.722511 -0.336977
1.262457 0.718925 -0.282397
1.272095 0.724120 -0.231836
1.271451 0.723753 -0.179635
1.267594 0.721264 -0.127596
1.293387 0.735642 -0.077981
1.249971 0.709505 -0.385123
1.262718 0.716450 -0.335177
1.268833 0.719627 -0.283542
1.269920 0.719950 -0.231210
1.303796 0.739156 -0.184023
1.282717 0.726910 -0.128990
1.279029 0.724524 -0.077039
1.259616 0.712076 -0.387711
1.258877 0.711368 -0.333827
1.276925 0.721273 -0.285069
1.271175 0.717733 -0.231210
1.280884 0.723215 -0.180610
1.280514 0.722711 -0.128642
1.292468 0.729160 -0.077771
1.267590 0.713667 -0.389782
1.261815 0.710126 -0.334277
1.262782 0.710381 -0.281634
1.279313 0.719386 -0.232462
1.282145 0.720978 -0.180610
1.288721 0.724380 -0.129339
1.288514 0.723969 -0.077457
1.263779 0.708620 -0.388229
1.268152 0.710782 -0.335627
1.270871 0.712013 -0.283161
1.283888 0.719306 -0.233087
1.279937 0.716799 -0.180123
1.283029 0.718237 -0.128642
1.300234 0.727570 -0.078085
1.254894 0.700762 -0.385123
1.269267 0.708788 -0.335627
1.280559 0.714801 -0.285069
1.276516 0.712252 -0.231523
1.301991 0.726167 -0.183048
1.273716 0.710397 -0.127596
1.294397 0.721637 -0.077667
1.257681 0.699728 -0.385640
1.279017 0.711308 -0.337876
1.276657 0.709703 -0.283924
1.276031 0.709063 -0.231210
1.296189 0.720264 -0.182073
1.285404 0.713978 -0.128642
1.300893 0.722285 -0.077981
1.269039 0.703151 -0.388746
1.259800 0.697744 -0.332478
1.288200 0.713179 -0.286214
1.280723 0.708749 -0.231836
1.302654 0.720885 -0.182804
1.286648 0.711734 -0.128642
1.284674 0.710348 -0.076934
1.271955 0.701868 -0.389264
1.272961 0.702132 -0.335627
1.280846 0.706190 -0.284305
1.280228 0.705559 -0.231523
1.296956 0.714778 -0.181829
1.301849 0.717178 -0.130036
1.296409 0.713886 -0.077562
1.266407 0.695925 -0.387193
1.279308 0.702724 -0.336977
1.280355 0.703009 -0.283924
1.297043 0.711877 -0.234339
1.289501 0.707737 -0.180610
1.296112 0.711071 -0.129339
1.295901 0.710662 -0.077457
1.260840 0.690004 -0.385123
1.282243 0.701425 -0.337427
1.283303 0.701715 -0.284305
1.287883 0.703928 -0.232462
1.309895 0.715958 -0.183292
1.283363 0.701165 -0.127945
1.321680 0.721801 -0.078923
1.272221 0.693349 -0.388229
1.281753 0.698255 -0.336977
1.291422 0.703230 -0.285832
1.282170 0.697901 -0.231210
1.298938 0.707028 -0.181585
1.291585 0.702734 -0.128642
1.321183 0.718539 -0.078818
1.266637 0.687442 -0.386158
1.276118 0.692300 -0.335177
1.290922 0.700038 -0.285450
1.297279 0.703194 -0.233713
1.310640 0.710436 -0.183048
1.296313 0.702377 -0.128990
1.296092 0.701964 -0.077248
1.286530 0.695334 -0.391852
1.282468 0.692850 -0.336527
1.292142 0.697785 -0.285450
1.295028 0.699052 -0.233087
1.301397 0.702490 -0.181585
1.308058 0.705790 -0.130036
1.307863 0.705390 -0.077876
1.279236 0.688510 -0.389264
1.281960 0.689687 -0.336077
1.286441 0.691809 -0.283924
1.304946 0.701467 -0.234652
1.302622 0.700217 -0.181585
1.297002 0.696905 -0.128816
1.316130 0.706886 -0.078295
1.266814 0.678975 -0.385123
1.293468 0.692970 -0.338776
1.292839 0.692343 -0.285069
1.300943 0.696391 -0.233713
1.321343 0.707311 -0.184023
1.294703 0.692759 -0.128468
1.324406 0.708356 -0.078713
1.281631 0.684040 -0.389264
1.291237 0.688877 -0.337876
1.300975 0.693781 -0.286595
1.295064 0.690629 -0.232462
1.327831 0.707805 -0.184754
1.308219 0.697058 -0.129688
1.323878 0.705105 -0.078609
1.279411 0.679989 -0.388229
1.283713 0.682276 -0.335627
1.303797 0.692658 -0.286977
1.306735 0.693926 -0.234339
1.309777 0.695249 -0.182073
1.309312 0.695002 -0.129688
1.310869 0.695536 -0.077771
1.290722 0.683402 -0.391334
1.290069 0.682768 -0.336977
1.305004 0.690381 -0.286977
1.307944 0.691644 -0.234339
1.319642 0.697830 -0.183292
1.312285 0.693647 -0.129862
1.326209 0.700710 -0.078609
1.291913 0.681148 -0.391334
1.298155 0.684150 -0.338776
1.295785 0.682612 -0.284687
1.303906 0.686599 -0.233400
1.308562 0.689052 -0.181585
1.304678 0.686715 -0.128990
1.323895 0.696535 -0.078399
1.284547 0.674403 -0.388746
1.306249 0.685506 -0.340576
1.305667 0.684909 -0.286595
1.310350 0.687075 -0.234339
1.329101 0.696907 -0.184266
1.314698 0.689062 -0.129862
1.341031 0.702564 -0.079341
1.287434 0.673055 -0.389264
1.303989 0.681419 -0.339676
1.305120 0.681721 -0.286214
1.302792 0.680215 -0.232775
1.328556 0.693667 -0.184023
1.312366 0.684922 -0.129513
1.328089 0.692833 -0.078504
1.295462 0.674374 -0.391334
1.296533 0.674645 -0.337427
1.306308 0.679442 -0.286214
1.303977 0.677940 -0.232775
1.324481 0.688600 -0.183292
1.315327 0.683550 -0.129688
1.322206 0.686831 -0.078085
1.300067 0.673891 -0.392370
1.306360 0.676864 -0.339676
1.304005 0.675355 -0.285450
1.313930 0.680204 -0.234339
1.325681 0.686288 -0.183292
1.323596 0.684915 -0.130385
1.341143 0.693699 -0.079132
1.308107 0.675165 -0.394440
1.307539 0.674583 -0.339676
1.306927 0.673978 -0.285832
1.318627 0.679720 -0.234965
1.318054 0.679425 -0.182073
1.317705 0.678954 -0.129688
1.338800 0.689528 -0.078923
1.298975 0.667583 -0.391334
1.315648 0.675861 -0.341476
1.316834 0.676179 -0.287740
1.316296 0.675614 -0.234339
1.338665 0.687095 -0.184754
1.311797 0.673015 -0.128990
1.350665 0.692658 -0.079551
1.307017 0.668834 -0.393405
1.313356 0.671789 -0.340576
1.316264 0.672987 -0.287358
1.310438 0.669719 -0.233087
1.345165 0.687467 -0.185485
1.318293 0.673444 -0.129513
1.341199 0.684851 -0.078923
1.304740 0.664798 -0.392370
1.309317 0.666843 -0.339226
1.324435 0.674251 -0.288885
1.318647 0.671015 -0.234339
1.335747 0.679717 -0.184023
1.328345 0.675659 -0.130385
1.342392 0.682508 -0.078923
1.312789 0.666016 -0.394440
1.315693 0.667201 -0.340576
1.320356 0.669276 -0.287740
1.323340 0.670497 -0.234965
1.342244 0.680075 -0.184754
1.338410 0.677840 -0.131257
1.340018 0.678360 -0.078713
1.305328 0.659369 -0.391852
1.318595 0.665782 -0.341026
1.316264 0.664316 -0.286595
1.329799 0.670857 -0.235903
1.346973 0.679521 -0.185241
1.330696 0.671018 -0.130385
1.348334 0.679616 -0.079132
1.308202 0.657958 -0.392370
1.318014 0.662604 -0.340576
1.319176 0.662899 -0.286977
1.323791 0.665219 -0.234652
1.349931 0.678060 -0.185485
1.322962 0.664224 -0.129513
1.353088 0.679053 -0.079341
1.314531 0.658268 -0.393923
1.319053 0.660533 -0.340576
1.320215 0.660826 -0.286977
1.321417 0.661140 -0.234026
1.356439 0.678366 -0.186216
1.329350 0.664819 -0.130036
1.348794 0.674248 -0.079027
1.320750 0.658789 -0.395476
1.313228 0.654751 -0.338776
1.330152 0.662901 -0.288885
1.329641 0.662355 -0.235277
1.350396 0.672694 -0.185241
1.339426 0.666938 -0.130908
1.342816 0.668334 -0.078609
1.325358 0.658202 -0.396511
1.321351 0.655924 -0.340576
1.322514 0.656214 -0.286977
1.327256 0.658279 -0.234652
1.348011 0.668572 -0.184754
1.345943 0.667253 -0.131431
1.352928 0.670423 -0.079132
1.316115 0.650750 -0.393405
1.329481 0.657071 -0.342376
1.323657 0.653905 -0.286977
1.335488 0.659459 -0.235903
1.349176 0.666218 -0.184754
1.331026 0.656968 -0.129862
1.357679 0.669828 -0.079341
1.313781 0.646746 -0.392370
1.334123 0.656471 -0.343275
1.331844 0.655059 -0.288503
1.336637 0.657127 -0.235903
1.359244 0.668242 -0.185973
1.339323 0.658158 -0.130559
1.366017 0.670979 -0.079760
1.325316 0.649553 -0.395476
1.328267 0.650711 -0.341476
1.332985 0.652734 -0.288503
1.334119 0.653289 -0.235277
1.363974 0.667614 -0.186460
1.342260 0.656695 -0.130734
1.356420 0.663330 -0.079132
1.326448 0.647239 -0.395476
1.325785 0.646915 -0.340576
1.342831 0.654943 -0.290411
1.335257 0.650960 -0.235277
1.357999 0.661754 -0.185485
1.354036 0.659823 -0.131779
1.364643 0.664697 -0.079551
1.334413 0.648532 -0.397546
1.337429 0.649709 -0.343275
1.338674 0.650025 -0.289266
1.339945 0.650354 -0.235903
1.357251 0.658753 -0.185241
1.353393 0.656589 -0.131605
1.365801 0.662313 -0.079551
1.332065 0.644520 -0.396511
1.335052 0.645677 -0.342376
1.332736 0.644270 -0.287740
1.348193 0.651452 -0.237155
1.356611 0.655520 -0.184998
1.340184 0.647293 -0.130211
1.370552 0.661666 -0.079760
1.319265 0.635486 -0.392370
1.339689 0.645037 -0.343275
1.344473 0.647052 -0.290030
1.342208 0.645672 -0.235903
1.364909 0.656593 -0.185973
1.344903 0.646680 -0.130559
1.375305 0.661004 -0.079969
1.334307 0.639866 -0.396511
1.333783 0.639328 -0.341476
1.347371 0.645552 -0.290411
1.339769 0.641622 -0.235277
1.376795 0.659354 -0.187435
1.346029 0.644332 -0.130559
1.369250 0.655154 -0.079551
1.342395 0.640865 -0.398581
1.334897 0.637000 -0.341476
1.350267 0.644045 -0.290793
1.348019 0.642684 -0.236529
1.370776 0.653533 -0.186460
1.359742 0.647981 -0.131779
1.370391 0.652763 -0.079551
1.340022 0.636863 -0.397546
1.332486 0.632996 -0.340576
1.342522 0.637476 -0.288885
1.349139 0.640330 -0.236529
1.371915 0.651140 -0.186460
1.364471 0.647315 -0.132128
1.375138 0.652081 -0.079760
1.334146 0.631219 -0.395476
1.337113 0.632336 -0.341476
1.345407 0.635972 -0.289266
1.360971 0.643038 -0.238406
1.373049 0.648745 -0.186460
1.358393 0.641529 -0.131431
1.376274 0.649681 -0.079760
1.331751 0.627242 -0.394440
1.348793 0.634982 -0.344175
1.348292 0.634458 -0.289648
1.351366 0.635617 -0.236529
1.379568 0.648881 -0.187191
1.355904 0.637462 -0.131082
1.381021 0.648976 -0.079969
1.339840 0.628197 -0.396511
1.346370 0.630973 -0.343275
1.356509 0.635435 -0.291175
1.345317 0.629907 -0.235277
1.382496 0.647315 -0.187435
1.360624 0.636784 -0.131431
1.378533 0.644872 -0.079760
1.347937 0.629126 -0.398581
1.343937 0.626974 -0.342376
1.364733 0.636386 -0.292701
1.357157 0.632565 -0.237155
1.376427 0.641546 -0.186460
1.359927 0.633567 -0.131257
1.376035 0.640779 -0.079551
1.356040 0.630029 -0.400652
1.345029 0.624627 -0.342376
1.351596 0.627390 -0.289648
1.361733 0.632095 -0.237780
1.377545 0.639143 -0.186460
1.370068 0.635383 -0.132128
1.384400 0.641736 -0.079969
1.357138 0.627661 -0.400652
1.353084 0.625786 -0.344175
1.349015 0.623618 -0.288885
1.370007 0.633033 -0.239032
1.384065 0.639234 -0.187191
1.365638 0.630724 -0.131605
1.385406 0.639561 -0.079969
1.347594 0.620679 -0.397546
1.357714 0.625053 -0.345075
1.353668 0.622905 -0.289648
1.363931 0.627338 -0.237780
1.390477 0.639548 -0.187923
1.364926 0.627508 -0.131431
1.393780 0.640478 -0.080388
1.355700 0.621547 -0.399617
1.358803 0.622683 -0.345075
1.360108 0.622994 -0.290793
1.361431 0.623312 -0.237155
1.391591 0.637121 -0.187923
1.367831 0.625954 -0.131605
1.391263 0.636383 -0.080179
1.358540 0.619981 -0.400134
1.352796 0.617075 -0.343275
1.368339 0.623877 -0.292319
1.366113 0.622573 -0.237780
1.389089 0.633044 -0.187435
1.374361 0.626043 -0.132128
1.377830 0.627333 -0.079341
1.363138 0.619207 -0.401170
1.353871 0.614713 -0.343275
1.362275 0.618242 -0.290793
1.374393 0.623452 -0.239032
1.381153 0.626518 -0.186216
1.377266 0.624466 -0.132302
1.395295 0.632347 -0.080283
1.364216 0.616828 -0.401170
1.362045 0.615559 -0.345075
1.361563 0.615055 -0.290411
1.379079 0.622679 -0.239658
1.389480 0.627375 -0.187191
1.374722 0.620422 -0.131954
1.394576 0.629089 -0.080179
1.354721 0.609689 -0.398064
1.368449 0.615580 -0.346425
1.369796 0.615899 -0.291938
1.376561 0.618651 -0.239032
1.396005 0.627390 -0.187923
1.379438 0.619655 -0.132302
1.408426 0.632380 -0.080911
1.366361 0.612062 -0.401170
1.369521 0.613190 -0.346425
1.369077 0.612705 -0.291556
1.374032 0.614634 -0.238406
1.406159 0.629005 -0.189141
1.382336 0.618059 -0.132477
1.398587 0.625033 -0.080283
1.367428 0.609676 -0.401170
1.361689 0.606833 -0.344175
1.380905 0.615108 -0.293846
1.375103 0.612235 -0.238406
1.398187 0.622513 -0.187923
1.387053 0.617266 -0.132825
1.405150 0.625026 -0.080597
1.372021 0.608856 -0.402205
1.366309 0.606036 -0.345075
1.378387 0.611105 -0.293083
1.379781 0.611435 -0.239032
1.393827 0.617659 -0.187191
1.393593 0.617265 -0.133348
1.404413 0.621764 -0.080493
1.373081 0.606461 -0.402205
1.372713 0.606011 -0.346425
1.375859 0.607113 -0.292319
1.384460 0.610621 -0.239658
1.402167 0.618430 -0.188166
1.389199 0.612420 -0.132825
1.412807 0.622533 -0.080911
1.370601 0.602508 -0.401170
1.379121 0.605966 -0.347774
1.380511 0.606290 -0.293083
1.392760 0.611379 -0.240909
1.406880 0.617577 -0.188654
1.381144 0.605992 -0.131954
1.410233 0.618461 -0.080702
1.375190 0.601664 -0.402205
1.373035 0.600435 -0.345975
1.385165 0.605452 -0.293846
1.379343 0.602621 -0.238406
1.411594 0.616711 -0.189141
1.385851 0.605175 -0.132302
1.416801 0.618397 -0.081016
1.383323 0.602347 -0.404275
1.372293 0.597260 -0.345525
1.397021 0.607733 -0.296136
1.387639 0.603362 -0.239658
1.409028 0.612662 -0.188654
1.403350 0.609904 -0.133871
1.408719 0.611944 -0.080493
1.387918 0.601469 -0.405311
1.378698 0.597188 -0.346875
1.390874 0.602173 -0.294609
1.388690 0.600940 -0.239658
1.404629 0.607837 -0.187923
1.393441 0.602708 -0.132825
1.411618 0.610277 -0.080597
1.381870 0.595985 -0.403240
1.377949 0.594009 -0.346425
1.384710 0.596637 -0.293083
1.400622 0.603203 -0.241535
1.412981 0.608526 -0.188898
1.394491 0.600274 -0.132825
1.423689 0.612549 -0.081225
1.375807 0.590525 -0.401170
1.382565 0.593140 -0.347324
1.389358 0.595767 -0.293846
1.398042 0.599202 -0.240909
1.414040 0.606059 -0.188898
1.395536 0.597840 -0.132825
1.422920 0.609276 -0.081121
1.380388 0.589640 -0.402205
1.381806 0.589960 -0.346875
1.390396 0.593341 -0.293846
1.395451 0.595211 -0.240283
1.424226 0.607484 -0.190116
1.396578 0.595403 -0.132825
1.423981 0.606793 -0.081121
1.388527 0.590253 -0.404275
1.379247 0.586024 -0.345975
1.398657 0.593984 -0.295372
1.400125 0.594318 -0.240909
1.416148 0.601119 -0.188898
1.408619 0.597634 -0.133871
1.419522 0.601967 -0.080807
1.396672 0.590839 -0.406346
1.383857 0.585134 -0.346875
1.399692 0.591541 -0.295372
1.397418 0.590580 -0.240283
1.411709 0.596329 -0.188166
1.409660 0.595174 -0.133871
1.426091 0.601818 -0.081121
1.394140 0.586902 -0.405311
1.390163 0.585228 -0.348224
1.391572 0.585535 -0.293464
1.409371 0.592735 -0.242161
1.425557 0.599249 -0.189872
1.406920 0.591415 -0.133523
1.425193 0.598804 -0.081016
1.387933 0.581724 -0.403240
1.398372 0.585812 -0.350024
1.396213 0.584622 -0.294227
1.410404 0.590274 -0.242161
1.417341 0.593177 -0.188654
1.404274 0.587421 -0.133174
1.431764 0.598627 -0.081330
1.392512 0.580788 -0.404275
1.388600 0.578871 -0.347324
1.406293 0.585959 -0.296136
1.407785 0.586293 -0.241535
1.433034 0.596808 -0.190604
1.408976 0.586500 -0.133523
1.427275 0.593825 -0.081016
1.400661 0.581319 -0.406346
1.389608 0.576447 -0.347324
1.410940 0.585008 -0.296899
1.408806 0.583835 -0.241535
1.426738 0.591266 -0.189629
1.413679 0.585565 -0.133871
1.426463 0.590569 -0.080911
1.405245 0.580348 -0.407381
1.396016 0.576252 -0.348674
1.410144 0.581796 -0.296517
1.413475 0.582881 -0.242161
1.424097 0.587262 -0.189141
1.420225 0.585375 -0.134394
1.429339 0.588839 -0.081016
1.400895 0.575692 -0.405828
1.395217 0.573074 -0.348224
1.405709 0.577097 -0.295372
1.418145 0.581913 -0.242786
1.428793 0.586282 -0.189629
1.413871 0.579871 -0.133697
1.437756 0.589374 -0.081435
1.394745 0.570321 -0.403758
1.403431 0.573587 -0.350024
1.412167 0.576869 -0.296517
1.415501 0.577944 -0.242161
1.433490 0.585289 -0.190116
1.411191 0.575897 -0.133348
1.444331 0.589126 -0.081749
1.397527 0.568615 -0.404275
1.397209 0.568200 -0.348224
1.411353 0.573665 -0.296136
1.412847 0.573986 -0.241535
1.443705 0.586522 -0.191335
1.415887 0.574932 -0.133697
1.445357 0.586605 -0.081749
1.396727 0.565449 -0.403758
1.396392 0.565030 -0.347774
1.415992 0.572674 -0.296899
1.421173 0.574480 -0.242786
1.431843 0.578793 -0.189629
1.420582 0.573953 -0.134046
1.431562 0.578099 -0.080911
1.408464 0.567341 -0.406864
1.404607 0.565503 -0.349574
1.424274 0.573132 -0.298425
1.425839 0.573473 -0.243412
1.436535 0.577775 -0.190116
1.427128 0.573701 -0.134568
1.445542 0.580811 -0.081644
1.409452 0.564882 -0.406864
1.403783 0.562326 -0.349124
1.417982 0.567727 -0.296899
1.430506 0.572451 -0.244038
1.435698 0.574529 -0.189872
1.420727 0.568251 -0.133871
1.444699 0.577546 -0.081539
1.406847 0.560991 -0.405828
1.408383 0.561318 -0.350024
1.420795 0.565977 -0.297280
1.427832 0.568492 -0.243412
1.445920 0.575694 -0.191091
1.427270 0.567980 -0.134394
1.453129 0.577976 -0.081958
1.407823 0.558535 -0.405828
1.431098 0.567479 -0.355423
1.423606 0.564220 -0.297662
1.428822 0.566000 -0.243412
1.446922 0.573170 -0.191091
1.428260 0.565488 -0.134394
1.450421 0.573969 -0.081749
1.408796 0.556076 -0.405828
1.403082 0.553538 -0.348224
1.431893 0.564616 -0.299189
1.429808 0.563505 -0.243412
1.446074 0.569915 -0.190847
1.427391 0.562264 -0.134220
1.443986 0.568511 -0.081330
1.420554 0.557853 -0.408934
1.429443 0.561056 -0.354523
1.418256 0.556380 -0.296136
1.430789 0.561008 -0.243412
1.441522 0.565217 -0.190116
1.433935 0.561953 -0.134743
1.446836 0.566718 -0.081435
1.425027 0.557028 -0.409969
1.417616 0.553846 -0.351374
1.426443 0.557008 -0.297662
1.439029 0.561633 -0.244664
1.449805 0.565839 -0.191091
1.436672 0.560424 -0.134917
1.453307 0.566621 -0.081749
1.411593 0.548938 -0.405828
1.425846 0.554195 -0.353173
1.443883 0.560916 -0.301097
1.436324 0.557690 -0.244038
1.447090 0.561870 -0.190604
1.432076 0.555754 -0.134394
1.456156 0.564806 -0.081853
1.419756 0.549262 -0.407899
1.417723 0.548192 -0.350924
1.424716 0.550609 -0.296899
1.433610 0.553759 -0.243412
1.461030 0.564351 -0.192310
1.427467 0.551101 -0.133871
1.457140 0.562263 -0.081853
1.420712 0.546784 -0.407899
1.433228 0.551313 -0.354523
1.436670 0.552349 -0.299189
1.434574 0.551256 -0.243412
1.454601 0.558952 -0.191335
1.441447 0.553608 -0.135091
1.454389 0.558288 -0.081644
1.432489 0.548447 -0.411005
1.419628 0.543239 -0.350924
1.435798 0.549139 -0.298807
1.442915 0.551573 -0.244664
1.450012 0.554286 -0.190604
1.453578 0.555358 -0.136137
1.464691 0.559311 -0.082167
1.431639 0.545259 -0.410487
1.424217 0.542147 -0.351823
1.423910 0.541746 -0.296136
1.451261 0.551863 -0.245915
1.460254 0.555282 -0.191822
1.437783 0.546449 -0.134568
1.463798 0.556045 -0.082063
1.428975 0.541390 -0.409452
1.432450 0.542422 -0.353623
1.435870 0.543430 -0.298425
1.448527 0.547930 -0.245289
1.455651 0.550625 -0.191091
1.440598 0.544645 -0.134743
1.468503 0.554902 -0.082272
1.433533 0.540258 -0.410487
1.429748 0.538546 -0.352723
1.444166 0.543689 -0.299952
1.445783 0.544010 -0.244664
1.464042 0.550880 -0.192066
1.445276 0.543532 -0.135091
1.463860 0.550229 -0.081958
1.436283 0.538433 -0.411005
1.427036 0.534683 -0.351823
1.448790 0.542545 -0.300715
1.446730 0.541486 -0.244664
1.465001 0.548325 -0.192066
1.455553 0.544499 -0.135963
1.461077 0.546275 -0.081749
1.442651 0.537951 -0.412558
1.433445 0.534233 -0.353173
1.451574 0.540701 -0.301097
1.455078 0.541717 -0.245915
1.458514 0.542997 -0.191091
1.454634 0.541263 -0.135789
1.467644 0.545812 -0.082063
1.443587 0.535432 -0.412558
1.438030 0.533085 -0.354073
1.439629 0.533392 -0.298425
1.459727 0.540548 -0.246541
1.466906 0.543207 -0.192066
1.446234 0.535265 -0.134917
1.468594 0.543250 -0.082063
1.439083 0.530906 -0.411005
1.444443 0.532597 -0.355423
1.446084 0.532915 -0.299570
1.453253 0.535269 -0.245289
1.465989 0.539960 -0.191822
1.450905 0.534118 -0.135266
1.475164 0.542755 -0.082377
1.450889 0.532386 -0.414110
1.439882 0.528062 -0.354073
1.450699 0.531742 -0.300333
1.452330 0.532052 -0.244976
1.476249 0.540815 -0.193041
1.451836 0.531584 -0.135266
1.476109 0.540179 -0.082377
1.462704 0.533827 -0.417216
1.448124 0.528220 -0.355873
1.459002 0.531899 -0.301860
1.466249 0.534251 -0.247166
1.473460 0.536879 -0.192554
1.456505 0.530413 -0.135614
1.475172 0.536919 -0.082272
1.470897 0.533910 -0.419287
1.447212 0.525026 -0.355423
1.471003 0.533367 -0.304150
1.470893 0.533037 -0.247792
1.479994 0.536335 -0.193285
1.463049 0.529905 -0.136137
1.470473 0.532304 -0.081958
1.468193 0.530030 -0.418252
1.457291 0.525807 -0.357672
1.453463 0.524139 -0.300333
1.488547 0.536497 -0.250608
1.484663 0.535097 -0.193772
1.458348 0.525325 -0.135614
1.478917 0.532443 -0.082377
1.458206 0.523550 -0.415146
1.469212 0.527212 -0.360372
1.476552 0.529554 -0.304913
1.480090 0.530824 -0.249044
1.491200 0.534514 -0.194503
1.451760 0.520092 -0.134917
1.483605 0.531207 -0.082586
1.460937 0.521654 -0.415663
1.462698 0.522282 -0.358572
1.455193 0.519316 -0.300333
1.475433 0.526249 -0.248105
1.494001 0.532577 -0.194747
1.460082 0.520486 -0.135614
1.484437 0.528876 -0.082586
1.472677 0.523238 -0.418769
1.459934 0.518424 -0.357672
1.489401 0.528595 -0.307203
1.478211 0.524333 -0.248418
1.491094 0.528903 -0.194260
1.468500 0.520600 -0.136312
1.485358 0.526285 -0.082586
1.469945 0.519381 -0.417734
1.468187 0.518471 -0.359472
1.460700 0.515540 -0.301097
1.486575 0.524381 -0.249669
1.497631 0.528280 -0.194991
1.475043 0.520024 -0.136835
1.488158 0.524355 -0.082691
1.474494 0.518095 -0.418769
1.469090 0.515907 -0.359472
1.480122 0.519492 -0.304913
1.487488 0.521786 -0.249669
1.504170 0.527638 -0.195722
1.470308 0.515471 -0.136312
1.492841 0.523078 -0.082900
1.471749 0.514246 -0.417734
1.473667 0.514628 -0.360372
1.466197 0.511733 -0.301860
1.490262 0.519839 -0.249982
1.501340 0.523704 -0.195235
1.467443 0.511592 -0.135963
1.503181 0.523758 -0.083424
1.479944 0.514213 -0.419805
1.474563 0.512054 -0.360372
1.485636 0.515610 -0.305676
1.481835 0.514001 -0.248418
1.509754 0.523685 -0.196210
1.473981 0.510988 -0.136486
1.496544 0.518518 -0.083005
1.477187 0.510367 -0.418769
1.471770 0.508209 -0.359472
1.473542 0.508533 -0.303005
1.493935 0.515278 -0.250295
1.505036 0.519107 -0.195478
1.480521 0.510363 -0.137009
1.493670 0.514604 -0.082795
1.489038 0.511555 -0.421875
1.478185 0.507538 -0.360821
1.491140 0.511695 -0.306439
1.487358 0.510107 -0.249044
1.500306 0.514547 -0.194747
1.485179 0.509070 -0.137357
1.492677 0.511349 -0.082691
1.482616 0.506458 -0.419805
1.475380 0.503697 -0.359922
1.473451 0.502752 -0.302623
1.497594 0.510698 -0.250608
1.503080 0.512570 -0.194991
1.480408 0.504549 -0.136835
1.499239 0.510675 -0.083005
1.476181 0.501383 -0.417734
1.479947 0.502375 -0.360821
1.496636 0.507748 -0.307203
1.492871 0.506180 -0.249669
1.498333 0.508033 -0.194260
1.483173 0.502604 -0.137009
1.502020 0.508698 -0.083110
1.478884 0.499424 -0.418252
1.473436 0.497298 -0.359022
1.478917 0.498861 -0.303386
1.486264 0.501050 -0.248418
1.514266 0.510490 -0.196210
1.482160 0.499378 -0.136835
1.501012 0.505439 -0.083005
1.488910 0.499916 -0.420840
1.492777 0.500926 -0.363521
1.496537 0.501897 -0.306821
1.498287 0.502484 -0.250295
1.500098 0.502799 -0.194260
1.481140 0.496158 -0.136660
1.496210 0.500916 -0.082691
1.491613 0.497930 -0.421357
1.475077 0.492410 -0.359022
1.491737 0.497682 -0.305676
1.493540 0.497993 -0.249357
1.495323 0.498297 -0.193529
1.493259 0.497610 -0.137706
1.500785 0.499828 -0.082900
1.486893 0.493759 -0.419805
1.477784 0.490448 -0.359472
1.477696 0.490132 -0.302623
1.511282 0.500980 -0.252172
1.501756 0.497822 -0.194260
1.490342 0.493750 -0.137357
1.524408 0.504740 -0.084156
1.484083 0.489952 -0.418769
1.495293 0.493363 -0.363521
1.476685 0.486938 -0.302241
1.495269 0.492777 -0.249357
1.513935 0.498928 -0.195722
1.491202 0.491148 -0.137357
1.517698 0.499581 -0.083738
1.483101 0.486759 -0.418252
1.472080 0.482857 -0.357672
1.473801 0.483136 -0.301478
1.494249 0.489551 -0.249044
1.499712 0.491341 -0.193772
1.488270 0.487305 -0.137009
1.507178 0.493204 -0.083110
1.494967 0.487765 -0.421357
1.482184 0.483307 -0.359922
1.487709 0.484822 -0.304150
1.495102 0.486942 -0.249044
1.508118 0.491181 -0.194747
1.498591 0.487789 -0.137880
1.511835 0.491809 -0.083319
1.523381 0.494095 -0.429122
1.483025 0.480721 -0.359922
1.516568 0.491300 -0.309874
1.543097 0.499002 -0.084994
1.077066 0.898334 -0.375805
1.067182 0.889775 -0.320780
1.087352 0.906269 -0.275147
1.085119 0.904088 -0.223701
1.095031 0.912346 -0.175004
1.088500 0.906583 -0.123935
1.098994 0.914997 -0.074945
1.075661 0.893983 -0.374770
1.080725 0.897873 -0.324379
1.069298 0.888064 -0.270186
1.092775 0.907239 -0.224953
1.107314 0.919309 -0.176711
1.082415 0.898319 -0.123064
1.100589 0.913078 -0.074945
1.074244 0.889640 -0.373735
1.085293 0.898471 -0.325279
1.084459 0.897461 -0.273620
1.091313 0.902812 -0.224327
1.102798 0.912314 -0.175736
1.080910 0.893889 -0.122715
1.116035 0.922609 -0.075887
1.075795 0.887764 -0.373735
1.077839 0.889135 -0.322580
1.092082 0.900564 -0.275147
1.086790 0.895881 -0.223076
1.110516 0.915439 -0.176711
1.088619 0.897070 -0.123413
1.100686 0.906691 -0.074736
1.083312 0.890792 -0.375805
1.071862 0.881065 -0.320330
1.092136 0.897409 -0.274765
1.094301 0.899188 -0.224327
1.104442 0.907199 -0.175492
1.096342 0.900226 -0.124110
1.103811 0.906035 -0.074840
1.093830 0.896247 -0.378911
1.082289 0.886791 -0.323030
1.098101 0.899425 -0.275910
1.095868 0.897277 -0.224327
1.099879 0.900241 -0.174517
1.091588 0.893455 -0.123413
1.108324 0.906830 -0.075050
1.086259 0.887196 -0.375805
1.086855 0.887365 -0.323930
1.075333 0.877645 -0.269804
1.103554 0.900359 -0.225579
1.107444 0.903532 -0.175492
1.093146 0.891548 -0.123413
1.109905 0.904894 -0.075050
1.087806 0.885298 -0.375805
1.097472 0.892846 -0.326629
1.098187 0.893109 -0.275147
1.098994 0.893447 -0.224327
1.110560 0.902850 -0.175736
1.094700 0.889639 -0.123413
1.116133 0.906734 -0.075364
1.086349 0.880965 -0.374770
1.089946 0.883566 -0.323930
1.090592 0.883775 -0.272857
1.094411 0.886554 -0.223076
1.116761 0.904659 -0.176467
1.088510 0.881457 -0.122541
1.116162 0.903528 -0.075259
1.090890 0.881495 -0.375805
1.085422 0.876764 -0.322130
1.116572 0.901604 -0.278963
1.102106 0.889605 -0.224327
1.110616 0.896474 -0.175248
1.096249 0.884561 -0.123238
1.111519 0.896563 -0.074840
1.095436 0.882013 -0.376841
1.089987 0.877313 -0.323030
1.093671 0.879962 -0.272857
1.103657 0.887680 -0.224327
1.107538 0.890802 -0.174517
1.108659 0.891386 -0.124458
1.119309 0.899626 -0.075259
1.093960 0.877683 -0.375805
1.097597 0.880285 -0.324829
1.102863 0.884193 -0.274765
1.111369 0.890694 -0.225579
1.112189 0.891351 -0.175004
1.107104 0.886958 -0.124110
1.117760 0.895174 -0.075050
1.092472 0.873359 -0.374770
1.097610 0.877152 -0.324379
1.113609 0.889618 -0.277055
1.106748 0.883822 -0.224327
1.123050 0.896840 -0.176467
1.099308 0.877566 -0.123064
1.127126 0.899451 -0.075573
1.090973 0.869044 -0.373735
1.093041 0.870379 -0.322580
1.099799 0.875447 -0.273238
1.102106 0.876970 -0.223076
1.130827 0.899823 -0.177442
1.097719 0.873165 -0.122715
1.114624 0.886295 -0.074631
1.098541 0.871942 -0.375805
1.093032 0.867259 -0.322130
1.115168 0.884506 -0.276673
1.112923 0.882408 -0.224953
1.123063 0.890448 -0.175979
1.108610 0.878673 -0.123761
1.116169 0.884349 -0.074631
1.100061 0.870023 -0.375805
1.100658 0.870185 -0.323930
1.107469 0.875254 -0.274383
1.111361 0.878015 -0.224327
1.124615 0.888486 -0.175979
1.113269 0.879208 -0.124110
1.117712 0.882399 -0.074631
1.101577 0.868103 -0.375805
1.108299 0.873086 -0.325729
1.113622 0.876964 -0.275528
1.119100 0.880962 -0.225579
1.124604 0.885295 -0.175736
1.110105 0.873566 -0.123587
1.122389 0.882916 -0.074840
1.097013 0.861406 -0.373735
1.112887 0.873556 -0.326629
1.108973 0.870171 -0.274002
1.117527 0.876569 -0.224953
1.129272 0.885781 -0.176223
1.105356 0.866710 -0.122890
1.127073 0.883420 -0.075050
1.104601 0.864252 -0.375805
1.105200 0.864409 -0.323930
1.127503 0.881536 -0.278200
1.114386 0.870968 -0.224014
1.135508 0.887476 -0.176954
1.116287 0.872139 -0.123935
1.122316 0.876535 -0.074631
1.109155 0.864698 -0.376841
1.100559 0.857687 -0.322130
1.124393 0.875948 -0.277055
1.119022 0.871449 -0.224640
1.130791 0.880614 -0.175979
1.125669 0.876309 -0.124807
1.123844 0.874575 -0.074631
1.113563 0.865325 -0.377876
1.104982 0.858348 -0.323030
1.116464 0.866955 -0.274765
1.123510 0.872112 -0.225266
1.133740 0.880053 -0.176223
1.128618 0.875761 -0.124981
1.133108 0.878928 -0.075154
1.105906 0.856284 -0.374770
1.112643 0.861190 -0.324829
1.119528 0.866207 -0.275147
1.131281 0.874985 -0.226517
1.133704 0.876859 -0.175979
1.125416 0.870134 -0.124458
1.133059 0.875728 -0.075050
1.107399 0.854352 -0.374770
1.117230 0.861627 -0.325729
1.114819 0.859457 -0.273620
1.126548 0.868185 -0.225266
1.138378 0.877302 -0.176467
1.119041 0.862089 -0.123587
1.155157 0.889591 -0.076411
1.105825 0.850064 -0.373735
1.109461 0.852551 -0.323030
1.127216 0.865882 -0.276291
1.118661 0.859000 -0.223388
1.150928 0.883777 -0.178173
1.125285 0.863774 -0.124110
1.128187 0.865688 -0.074526
1.113442 0.852831 -0.375805
1.107853 0.848244 -0.322130
1.133403 0.867493 -0.277436
1.126434 0.861847 -0.224640
1.144586 0.875736 -0.176954
1.134704 0.867861 -0.124981
1.129696 0.863718 -0.074526
1.121072 0.855575 -0.377876
1.115529 0.851037 -0.323930
1.133354 0.864323 -0.277055
1.132649 0.863473 -0.225579
1.136641 0.866516 -0.175492
1.137802 0.867087 -0.125156
1.150267 0.876269 -0.075782
1.113337 0.846601 -0.374770
1.126321 0.856165 -0.326629
1.119229 0.850465 -0.273238
1.132581 0.860300 -0.225266
1.141313 0.866932 -0.175979
1.128206 0.856666 -0.123935
1.142249 0.867015 -0.075154
1.114813 0.844656 -0.374770
1.134028 0.858904 -0.328429
1.137929 0.861547 -0.277436
1.138807 0.861898 -0.226204
1.153905 0.873324 -0.177686
1.124932 0.851089 -0.123413
1.169249 0.884296 -0.076829
1.122452 0.847366 -0.376841
1.123081 0.847532 -0.324829
1.134730 0.856012 -0.276291
1.129268 0.851584 -0.224014
1.147502 0.865334 -0.176467
1.132780 0.853921 -0.124110
1.138889 0.858214 -0.074736
1.123930 0.845405 -0.376841
1.124559 0.845571 -0.324829
1.140930 0.857569 -0.277436
1.137070 0.854357 -0.225266
1.147424 0.862137 -0.176223
1.139048 0.855533 -0.124633
1.135593 0.852628 -0.074422
1.128495 0.845759 -0.377876
1.119794 0.838933 -0.323030
1.137710 0.852046 -0.276291
1.143304 0.855923 -0.226204
1.153694 0.863702 -0.176954
1.145325 0.857125 -0.125156
1.156271 0.865001 -0.075678
1.126874 0.841476 -0.376841
1.133750 0.846303 -0.326629
1.134475 0.846537 -0.275147
1.140046 0.850383 -0.225266
1.155200 0.861687 -0.176954
1.135638 0.846788 -0.123935
1.162583 0.866563 -0.075992
1.128341 0.839508 -0.376841
1.138352 0.846649 -0.327529
1.128074 0.838698 -0.273238
1.141528 0.848392 -0.225266
1.159889 0.862038 -0.177442
1.137115 0.844804 -0.123935
1.160887 0.862150 -0.075782
1.126700 0.835238 -0.375805
1.136697 0.842340 -0.326629
1.145311 0.848414 -0.277055
1.146182 0.848750 -0.225891
1.162986 0.861194 -0.177686
1.143392 0.846374 -0.124458
1.168812 0.864875 -0.076201
1.134372 0.837860 -0.377876
1.125624 0.831095 -0.323030
1.145211 0.845248 -0.276673
1.139714 0.840884 -0.224327
1.158098 0.854448 -0.176711
1.138453 0.839647 -0.123761
1.147813 0.846240 -0.074736
1.138945 0.838169 -0.378911
1.130212 0.831438 -0.323930
1.141939 0.839759 -0.275528
1.153913 0.848254 -0.226830
1.148392 0.844195 -0.175004
1.152762 0.847097 -0.125156
1.171823 0.860790 -0.076201
1.137290 0.833895 -0.377876
1.141092 0.836377 -0.326629
1.132317 0.829642 -0.272857
1.150611 0.842736 -0.225891
1.165879 0.853919 -0.177442
1.152630 0.843907 -0.124981
1.160430 0.849307 -0.075364
1.132504 0.827351 -0.375805
1.148845 0.838982 -0.328429
1.138521 0.831137 -0.274002
1.152080 0.840727 -0.225891
1.148125 0.837841 -0.174517
1.150882 0.839546 -0.124633
1.165138 0.849634 -0.075573
1.140193 0.829921 -0.377876
1.147156 0.834682 -0.327529
1.154259 0.839542 -0.277436
1.148752 0.835231 -0.224953
1.170457 0.851012 -0.177686
1.145899 0.832850 -0.123935
1.158540 0.841729 -0.075050
1.143204 0.829063 -0.378393
1.139145 0.825816 -0.324829
1.147774 0.831766 -0.275528
1.155007 0.836701 -0.225891
1.167118 0.845474 -0.176954
1.157033 0.837860 -0.124981
1.160008 0.839705 -0.075050
1.146215 0.828199 -0.378911
1.143744 0.826108 -0.325729
1.157183 0.835508 -0.277436
1.159523 0.837198 -0.226517
1.162153 0.838789 -0.175979
1.161726 0.838171 -0.125330
1.164711 0.840017 -0.075259
1.144524 0.823939 -0.377876
1.151366 0.828865 -0.327529
1.142558 0.822222 -0.273620
1.164189 0.837480 -0.227143
1.171674 0.842554 -0.177198
1.151717 0.828203 -0.124110
1.170894 0.841684 -0.075573
1.136399 0.815383 -0.374770
1.162312 0.833669 -0.330228
1.159947 0.831666 -0.277436
1.163898 0.834500 -0.226830
1.176223 0.843025 -0.177686
1.151542 0.825031 -0.123935
1.177233 0.843128 -0.075887
1.137820 0.813398 -0.374770
1.154108 0.825042 -0.327529
1.158057 0.827561 -0.276673
1.154101 0.824429 -0.224640
1.185770 0.846739 -0.178904
1.157700 0.826695 -0.124458
1.168802 0.834315 -0.075259
1.148679 0.818136 -0.377876
1.150928 0.819435 -0.326179
1.161243 0.826474 -0.277055
1.160511 0.825647 -0.225579
1.171071 0.833160 -0.176467
1.164156 0.827935 -0.124981
1.167146 0.829755 -0.075050
1.157983 0.821720 -0.380464
1.150766 0.816297 -0.325729
1.169090 0.828988 -0.278581
1.170008 0.829332 -0.227143
1.169284 0.828819 -0.175979
1.170476 0.829358 -0.125504
1.168593 0.827716 -0.075050
1.151528 0.814121 -0.377876
1.155373 0.816536 -0.326629
1.151293 0.813353 -0.274002
1.181135 0.834126 -0.229020
1.183701 0.835939 -0.177929
1.165412 0.822717 -0.124807
1.170035 0.825676 -0.075050
1.146630 0.807660 -0.375805
1.158389 0.815641 -0.327079
1.165555 0.820382 -0.277055
1.166434 0.820696 -0.225891
1.175418 0.827017 -0.176467
1.160327 0.816097 -0.124110
1.181278 0.830524 -0.075678
1.157526 0.812316 -0.378911
1.155025 0.810260 -0.325729
1.163770 0.816092 -0.276291
1.164487 0.816595 -0.225266
1.188238 0.832941 -0.178173
1.163381 0.815214 -0.124284
1.176182 0.823878 -0.075259
1.158941 0.810295 -0.378911
1.148311 0.802862 -0.323480
1.177924 0.823261 -0.279344
1.169149 0.816824 -0.225891
1.186435 0.828592 -0.177686
1.171194 0.817948 -0.124981
1.170924 0.817456 -0.074840
1.166553 0.812891 -0.380982
1.160903 0.808654 -0.326629
1.166470 0.812229 -0.276291
1.173815 0.817039 -0.226517
1.182847 0.823325 -0.176954
1.172620 0.815904 -0.124981
1.190386 0.827956 -0.075992
1.160035 0.805346 -0.378393
1.163914 0.807737 -0.327079
1.164660 0.807953 -0.275528
1.183355 0.820618 -0.228081
1.174494 0.814473 -0.175492
1.182230 0.819531 -0.125853
1.191829 0.825877 -0.075992
1.153495 0.797825 -0.375805
1.173337 0.811246 -0.329328
1.178988 0.814849 -0.278581
1.170159 0.808445 -0.225266
1.197146 0.827090 -0.178660
1.172182 0.809541 -0.124633
1.198199 0.827200 -0.076306
1.164430 0.802387 -0.378911
1.166727 0.803670 -0.327079
1.165856 0.802770 -0.275147
1.173195 0.807522 -0.225579
1.187141 0.817121 -0.176954
1.176876 0.809752 -0.124981
1.188122 0.817185 -0.075573
1.169014 0.802540 -0.379946
1.166521 0.800529 -0.326629
1.188301 0.815171 -0.280108
1.176232 0.806590 -0.225891
1.196752 0.820661 -0.178173
1.183218 0.811076 -0.125504
1.184604 0.811723 -0.075259
1.173602 0.802680 -0.380982
1.159873 0.792993 -0.324379
1.175134 0.803126 -0.276673
1.185794 0.810107 -0.227456
1.173596 0.801774 -0.174517
1.187922 0.811258 -0.125853
1.189318 0.811906 -0.075468
1.171808 0.798455 -0.379946
1.175751 0.800840 -0.328429
1.176534 0.801074 -0.276673
1.188838 0.809148 -0.227769
1.199609 0.816479 -0.178173
1.174511 0.799096 -0.124284
1.187430 0.807583 -0.075259
1.163610 0.789898 -0.376841
1.181984 0.802070 -0.329778
1.179555 0.800121 -0.277055
1.190249 0.807072 -0.227769
1.202675 0.815498 -0.178417
1.175904 0.797045 -0.124284
1.192145 0.807750 -0.075468
1.174588 0.794360 -0.379946
1.180153 0.797823 -0.328878
1.179323 0.796962 -0.276673
1.181834 0.798359 -0.225891
1.199162 0.810064 -0.177686
1.180595 0.797221 -0.124633
1.200174 0.810138 -0.075887
1.175973 0.792308 -0.379946
1.173462 0.790319 -0.326629
1.187227 0.799288 -0.278200
1.188143 0.799603 -0.226830
1.205515 0.811294 -0.178417
1.191904 0.801832 -0.125679
1.188327 0.799126 -0.075050
1.180562 0.792408 -0.380982
1.176458 0.789356 -0.327079
1.182098 0.792840 -0.276673
1.184614 0.794228 -0.225891
1.193738 0.800345 -0.176467
1.193301 0.799751 -0.125679
1.196358 0.801497 -0.075468
1.178731 0.788199 -0.379946
1.179454 0.788384 -0.327529
1.183480 0.790776 -0.276673
1.199139 0.800938 -0.228394
1.211640 0.809287 -0.178904
1.188067 0.793242 -0.124981
1.197755 0.799407 -0.075468
1.170459 0.779714 -0.376841
1.192182 0.793885 -0.330678
1.196299 0.796324 -0.279344
1.195602 0.795560 -0.227456
1.203135 0.800573 -0.177442
1.192768 0.793374 -0.125330
1.205801 0.801739 -0.075887
1.175037 0.779807 -0.377876
1.187071 0.787494 -0.328878
1.189505 0.788811 -0.277436
1.192049 0.790198 -0.226517
1.217767 0.807246 -0.179392
1.190829 0.789089 -0.124981
1.200538 0.795222 -0.075468
1.182842 0.782016 -0.379946
1.181940 0.781124 -0.327079
1.203985 0.795391 -0.280489
1.196724 0.790293 -0.227143
1.195984 0.789804 -0.175979
1.198856 0.791400 -0.125679
1.201924 0.793125 -0.075468
1.187432 0.782076 -0.380982
1.186557 0.781203 -0.327979
1.192252 0.784653 -0.277436
1.201402 0.790375 -0.227769
1.213944 0.798626 -0.178417
1.203564 0.791497 -0.126027
1.203306 0.791026 -0.075468
1.188795 0.780003 -0.380982
1.194437 0.783405 -0.329778
1.195261 0.783648 -0.277818
1.204431 0.789359 -0.228081
1.202054 0.787801 -0.176467
1.198277 0.785027 -0.125330
1.211369 0.793302 -0.075887
1.183686 0.773698 -0.378911
1.202328 0.785583 -0.331578
1.199915 0.783707 -0.278581
1.204153 0.786176 -0.227769
1.221711 0.797640 -0.179148
1.202983 0.785113 -0.125679
1.222788 0.797733 -0.076515
1.194748 0.777956 -0.382017
1.190631 0.774979 -0.327979
1.211154 0.788037 -0.280871
1.197244 0.778688 -0.226204
1.228093 0.798753 -0.179879
1.194329 0.776495 -0.124633
1.210781 0.786892 -0.075678
1.196105 0.775869 -0.382017
1.196887 0.776081 -0.329328
1.210880 0.784854 -0.280489
1.203575 0.779820 -0.227143
1.212826 0.785814 -0.177442
1.209061 0.783075 -0.126027
1.208799 0.782607 -0.075468
1.200702 0.775877 -0.383052
1.199877 0.775047 -0.329778
1.207300 0.779544 -0.279344
1.211572 0.782003 -0.228394
1.217531 0.785849 -0.177929
1.210425 0.780963 -0.126027
1.213520 0.782660 -0.075678
1.198805 0.771690 -0.382017
1.204505 0.775061 -0.330678
1.193798 0.767877 -0.275910
1.216259 0.782024 -0.229020
1.227250 0.789091 -0.179148
1.211787 0.778850 -0.126027
1.223286 0.785939 -0.076201
1.193645 0.765425 -0.379946
1.212418 0.777164 -0.332478
1.201749 0.770029 -0.277436
1.210968 0.775638 -0.227769
1.221938 0.782665 -0.178173
1.206432 0.772436 -0.125330
1.229703 0.787032 -0.076515
1.198236 0.765421 -0.380982
1.207203 0.770852 -0.330678
1.211365 0.773212 -0.279344
1.212320 0.773524 -0.227769
1.235017 0.788006 -0.179879
1.214498 0.774615 -0.126027
1.227706 0.782738 -0.076306
1.206089 0.767476 -0.383052
1.203614 0.765607 -0.329328
1.219340 0.775310 -0.280871
1.217002 0.773525 -0.228394
1.219637 0.775200 -0.177442
1.212485 0.770357 -0.125679
1.222327 0.776311 -0.075887
1.205795 0.764336 -0.382535
1.211533 0.767676 -0.331128
1.212398 0.767928 -0.278963
1.218350 0.771400 -0.228394
1.229374 0.778380 -0.178660
1.227296 0.776764 -0.127073
1.227055 0.776312 -0.076096
1.208761 0.763262 -0.383052
1.216166 0.767641 -0.332028
1.213737 0.765811 -0.278963
1.226378 0.773488 -0.229646
1.222336 0.770939 -0.177442
1.221908 0.770371 -0.126376
1.228408 0.774169 -0.076096
1.197009 0.752922 -0.378911
1.215855 0.764480 -0.331578
1.218396 0.765781 -0.279726
1.221035 0.767143 -0.228394
1.240488 0.779365 -0.179879
1.223251 0.768236 -0.126376
1.239907 0.778395 -0.076725
1.204870 0.754934 -0.380982
1.212233 0.759253 -0.330228
1.219730 0.763654 -0.279726
1.212193 0.758935 -0.226517
1.241847 0.777198 -0.179879
1.224590 0.766100 -0.126376
1.231103 0.769877 -0.076096
1.212741 0.756922 -0.383052
1.213424 0.757348 -0.330228
1.227591 0.765894 -0.281252
1.225249 0.764135 -0.228707
1.241517 0.773979 -0.179635
1.229173 0.766284 -0.126724
1.232311 0.767942 -0.076096
1.218850 0.758077 -0.384605
1.216399 0.756258 -0.330678
1.228926 0.763750 -0.281252
1.224903 0.760953 -0.228394
1.224182 0.760505 -0.176954
1.244049 0.772546 -0.128119
1.237043 0.767897 -0.076306
1.215244 0.752896 -0.383052
1.226000 0.759264 -0.332928
1.220242 0.755403 -0.278963
1.236308 0.765050 -0.230272
1.245765 0.770902 -0.179879
1.238618 0.766181 -0.127422
1.236683 0.764686 -0.076201
1.216556 0.750774 -0.383052
1.227324 0.757124 -0.332928
1.224901 0.755333 -0.279726
1.234278 0.760818 -0.229646
1.247108 0.768727 -0.179879
1.224687 0.754612 -0.125853
1.255022 0.773000 -0.077248
1.219510 0.749662 -0.383570
1.225323 0.752939 -0.332028
1.232908 0.757304 -0.281252
1.232237 0.756597 -0.229020
1.261981 0.774859 -0.181829
1.227700 0.753515 -0.126027
1.237642 0.759320 -0.076096
1.220817 0.747532 -0.383570
1.216662 0.744696 -0.329328
1.235903 0.756177 -0.281634
1.233556 0.754444 -0.229020
1.243010 0.760226 -0.178904
1.244313 0.760725 -0.127596
1.245783 0.761324 -0.076515
1.225418 0.747412 -0.384605
1.224616 0.746629 -0.331128
1.240574 0.756061 -0.282397
1.241619 0.756401 -0.230272
1.247725 0.760121 -0.179392
1.247340 0.759588 -0.127770
1.259052 0.766419 -0.077248
1.226721 0.745272 -0.384605
1.239242 0.752583 -0.334727
1.233500 0.748801 -0.280489
1.241248 0.753208 -0.229959
1.249050 0.757942 -0.179392
1.243553 0.754310 -0.127247
1.253556 0.760078 -0.076829
1.221409 0.739129 -0.382535
1.237219 0.748402 -0.333827
1.241525 0.750710 -0.282016
1.247633 0.754106 -0.230897
1.263962 0.763976 -0.181342
1.231225 0.743896 -0.125853
