# This PCD file was generated using the MATLAB® pcwrite function
# from Computer Vision System Toolbox®.
# .PCD v.7 - Point Cloud Data file format
VERSION .7
FIELDS x y z
SIZE 4 4 4
TYPE F F F
COUNT 1 1 1
WIDTH 1694
HEIGHT 1
VIEWPOINT 0 0 0 1 0 0 0
POINTS 1694
DATA ascii
1.098968 0.164438 -0.215996
1.217740 0.182210 0.107725
1.119429 0.167500 -0.179274
1.154413 0.172528 -0.143318
1.133070 0.169137 -0.100229
1.153648 0.172002 -0.061128
1.170908 0.174367 -0.020664
1.070148 0.158598 -0.289877
1.173008 0.173842 0.020699
1.083359 0.160556 -0.252845
1.181487 0.174888 0.062594
1.105051 0.163574 -0.217141
1.214083 0.179713 0.107376
1.131444 0.167279 -0.181151
1.152749 0.170223 -0.143075
1.133334 0.167356 -0.100229
1.161820 0.171355 -0.061547
1.179094 0.173693 -0.020803
1.078042 0.158038 -0.291948
1.177236 0.172580 0.020768
1.085566 0.158948 -0.253295
1.169903 0.171296 0.061966
1.105335 0.161645 -0.217141
1.220309 0.178459 0.107899
1.129780 0.165019 -0.180838
1.137301 0.166117 -0.141125
1.137568 0.165953 -0.100578
1.158164 0.168752 -0.061338
1.169501 0.170195 -0.020629
1.064933 0.154218 -0.288324
1.183473 0.171385 0.020873
1.091628 0.157890 -0.254645
1.191944 0.172399 0.063117
1.103672 0.159435 -0.216759
1.206815 0.174335 0.106679
1.130066 0.163047 -0.180838
1.149377 0.165833 -0.142587
1.129967 0.162831 -0.099880
1.162411 0.167299 -0.061547
1.171775 0.168438 -0.020664
1.067113 0.152633 -0.288842
1.177831 0.168470 0.020768
1.093831 0.156259 -0.255094
1.188289 0.169753 0.062908
1.107836 0.158063 -0.217522
1.213035 0.173072 0.107202
1.124482 0.160238 -0.179900
1.157526 0.164947 -0.143562
1.134195 0.161420 -0.100229
1.170611 0.166394 -0.061966
1.174048 0.166674 -0.020699
1.065465 0.150500 -0.288324
1.170204 0.165294 0.020629
1.088313 0.153534 -0.253745
1.192539 0.168237 0.063117
1.108110 0.156130 -0.217522
1.213335 0.170956 0.107202
1.122804 0.158000 -0.179587
1.165675 0.164032 -0.144537
1.138421 0.159995 -0.100578
1.166943 0.163796 -0.061756
1.180278 0.165457 -0.020803
1.071466 0.149441 -0.289877
1.178412 0.164357 0.020768
1.084719 0.151096 -0.252845
1.192830 0.166156 0.063117
1.116159 0.155277 -0.219049
1.219552 0.169661 0.107725
1.125035 0.156312 -0.179900
1.150230 0.159812 -0.142587
1.132778 0.157186 -0.100055
1.159314 0.160662 -0.061338
1.176603 0.162849 -0.020733
1.079380 0.148625 -0.291948
1.176716 0.162027 0.020733
1.092703 0.150265 -0.254645
1.173332 0.161353 0.062070
1.108648 0.152260 -0.217522
1.231689 0.169159 0.108770
1.131177 0.155153 -0.180838
1.146574 0.157265 -0.142100
1.140946 0.156290 -0.100752
1.163550 0.159180 -0.061547
1.168960 0.159712 -0.020594
1.064324 0.144659 -0.287807
1.188886 0.161589 0.020943
1.096826 0.148882 -0.255544
1.177570 0.159842 0.062280
1.103076 0.149534 -0.216377
1.220137 0.165402 0.107725
1.135361 0.153709 -0.181464
1.154715 0.156329 -0.143075
1.137269 0.153765 -0.100403
1.161847 0.156881 -0.061442
1.169237 0.157671 -0.020594
1.064575 0.142801 -0.287807
1.187185 0.159248 0.020908
1.100947 0.147484 -0.256444
1.195664 0.160173 0.063222
1.101389 0.147348 -0.215996
1.212524 0.162216 0.107027
1.131711 0.151204 -0.180838
1.156954 0.154577 -0.143318
1.133585 0.151253 -0.100055
1.173998 0.156436 -0.062070
1.177439 0.156686 -0.020733
1.068653 0.141450 -0.288842
1.179531 0.156126 0.020768
1.093475 0.144541 -0.254645
1.199901 0.158609 0.063431
1.111377 0.146711 -0.217904
1.226632 0.161925 0.108247
1.124140 0.148195 -0.179587
1.157222 0.152557 -0.143318
1.131872 0.149014 -0.099880
1.170309 0.153867 -0.061861
1.171763 0.153850 -0.020629
1.072729 0.140085 -0.289877
1.179802 0.154067 0.020768
1.089861 0.142128 -0.253745
1.194235 0.155740 0.063117
1.115525 0.145277 -0.218667
1.224937 0.159527 0.108073
1.116562 0.145214 -0.178335
1.159455 0.150793 -0.143562
1.140034 0.148064 -0.100578
1.162653 0.150796 -0.061442
1.179962 0.152832 -0.020768
1.080636 0.139199 -0.291948
1.189986 0.153285 0.020943
1.099771 0.141470 -0.255994
1.190543 0.153146 0.062908
1.115777 0.143330 -0.218667
1.237071 0.158912 0.109119
1.124625 0.144467 -0.179587
1.145934 0.147000 -0.141856
1.140290 0.146075 -0.100578
1.162914 0.148767 -0.061442
1.176260 0.150265 -0.020699
1.073211 0.136340 -0.289877
1.192235 0.151460 0.020978
1.094193 0.139005 -0.254645
1.192790 0.151319 0.063013
1.104314 0.140095 -0.216377
1.217553 0.154461 0.107376
1.134674 0.143745 -0.181151
1.156035 0.146247 -0.143075
1.130635 0.143033 -0.099706
1.163146 0.146940 -0.061442
1.160623 0.146415 -0.020419
1.069591 0.134172 -0.288842
1.190487 0.149338 0.020943
1.104102 0.138306 -0.256894
1.189063 0.148949 0.062803
1.118194 0.139873 -0.219049
1.217821 0.152335 0.107376
1.123163 0.140295 -0.179274
1.160203 0.144922 -0.143562
1.136814 0.141800 -0.100229
1.171329 0.145897 -0.061861
1.174768 0.146117 -0.020664
1.073658 0.132780 -0.289877
1.176854 0.145543 0.020699
1.098539 0.135662 -0.255544
1.201214 0.148342 0.063431
1.110642 0.136960 -0.217522
1.218085 0.150210 0.107376
1.121445 0.138094 -0.178961
1.154544 0.142170 -0.142831
1.144970 0.140788 -0.100926
1.167617 0.143365 -0.061652
1.180975 0.144797 -0.020768
1.073888 0.130906 -0.289877
1.181076 0.143972 0.020768
1.098775 0.133745 -0.255544
1.197506 0.145763 0.063222
1.114777 0.135495 -0.218286
1.226257 0.149044 0.108073
1.125606 0.136612 -0.179587
1.150849 0.139676 -0.142343
1.141258 0.138310 -0.100578
1.163900 0.140847 -0.061442
1.185197 0.143215 -0.020838
1.081787 0.129953 -0.291948
1.191253 0.143103 0.020943
1.095137 0.131362 -0.254645
1.187843 0.142483 0.062698
1.113063 0.133316 -0.217904
1.230472 0.147379 0.108422
1.127805 0.134882 -0.179900
1.147149 0.137196 -0.141856
1.145455 0.136790 -0.100926
1.168110 0.139289 -0.061652
1.177502 0.140201 -0.020699
1.082012 0.128064 -0.291948
1.191501 0.141023 0.020943
1.101170 0.130138 -0.255994
1.190073 0.140644 0.062803
1.111344 0.131143 -0.217522
1.230727 0.145231 0.108422
1.139809 0.134300 -0.181777
1.147387 0.135193 -0.141856
1.141734 0.134325 -0.100578
1.168352 0.137250 -0.061652
1.167815 0.136980 -0.020524
1.070721 0.124834 -0.288842
1.183800 0.138017 0.020803
1.103331 0.128441 -0.256444
1.202220 0.139953 0.063431
1.115472 0.129656 -0.218286
1.227021 0.142622 0.108073
1.128269 0.130944 -0.179900
1.149593 0.133419 -0.142100
1.138009 0.131874 -0.100229
1.172557 0.135670 -0.061861
1.181957 0.136548 -0.020768
1.078614 0.123846 -0.290913
1.180066 0.135495 0.020733
1.097745 0.125849 -0.255094
1.198494 0.137399 0.063222
1.115696 0.127709 -0.218286
1.231226 0.140934 0.108422
1.120645 0.128078 -0.178648
1.155740 0.132089 -0.142831
1.138237 0.129887 -0.100229
1.168824 0.133171 -0.061652
1.178220 0.134033 -0.020699
1.086507 0.122832 -0.292983
1.192223 0.134783 0.020943
1.092154 0.123277 -0.253745
1.206671 0.136203 0.063641
1.121770 0.126421 -0.219430
1.235430 0.139230 0.108770
1.132645 0.127447 -0.180525
1.144133 0.128740 -0.141368
1.146382 0.128790 -0.100926
1.165085 0.130685 -0.061442
1.182427 0.132422 -0.020768
1.082880 0.120508 -0.291948
1.192456 0.132702 0.020943
1.100115 0.122231 -0.255544
1.189041 0.132111 0.062698
1.110281 0.123165 -0.217141
1.239632 0.137514 0.109119
1.125012 0.124600 -0.179274
1.144356 0.126743 -0.141368
1.150566 0.127227 -0.101275
1.161341 0.128214 -0.061233
1.178681 0.129920 -0.020699
1.083088 0.118617 -0.291948
1.200637 0.131491 0.021083
1.102264 0.120523 -0.255994
1.197212 0.130905 0.063117
1.104640 0.120588 -0.215996
1.227986 0.134053 0.108073
1.133083 0.123492 -0.180525
1.148523 0.125175 -0.141856
1.136921 0.123710 -0.100055
1.169505 0.127049 -0.061652
1.174930 0.127431 -0.020629
1.075611 0.115899 -0.289877
1.192912 0.128539 0.020943
1.108285 0.119224 -0.257344
1.195453 0.128601 0.063013
1.112656 0.119498 -0.217522
1.232180 0.132335 0.108422
1.125440 0.120672 -0.179274
1.152687 0.123594 -0.142343
1.143078 0.122362 -0.100578
1.173697 0.125432 -0.061861
1.183104 0.126229 -0.020768
1.079654 0.114429 -0.290913
1.189158 0.126035 0.020873
1.092988 0.115649 -0.253745
1.209579 0.127986 0.063745
1.116768 0.117968 -0.218286
1.228447 0.129765 0.108073
1.125649 0.118708 -0.179274
1.156849 0.121998 -0.142831
1.147253 0.120784 -0.100926
1.173914 0.123384 -0.061861
1.187300 0.124581 -0.020838
1.079852 0.112545 -0.290913
1.193354 0.124374 0.020943
1.087373 0.113137 -0.252395
1.203840 0.125255 0.063431
1.126736 0.117033 -0.220194
1.232635 0.128032 0.108422
1.125854 0.116743 -0.179274
1.157060 0.119979 -0.142831
1.143498 0.118371 -0.100578
1.166181 0.120513 -0.061442
1.195472 0.123330 -0.020978
1.087734 0.111447 -0.292983
1.197547 0.122699 0.021013
1.085631 0.111040 -0.251945
1.204057 0.123153 0.063431
1.107408 0.113073 -0.216377
1.240785 0.126691 0.109119
1.133917 0.115579 -0.180525
1.149369 0.117154 -0.141856
1.155596 0.117585 -0.101624
1.166389 0.118478 -0.061442
1.189717 0.120637 -0.020873
1.076394 0.108387 -0.289877
1.205718 0.121409 0.021152
1.093579 0.109925 -0.253745
1.200296 0.120652 0.063222
1.103696 0.110747 -0.215614
1.235057 0.123928 0.108596
1.141979 0.114387 -0.181777
1.157472 0.115939 -0.142831
1.151835 0.115172 -0.101275
1.170569 0.116838 -0.061652
1.175997 0.117173 -0.020629
1.074659 0.106318 -0.289360
1.197968 0.118517 0.021013
1.097648 0.108399 -0.254645
1.208455 0.119342 0.063641
1.107795 0.109206 -0.216377
1.225357 0.120795 0.107725
1.134314 0.111620 -0.180525
1.157673 0.113919 -0.142831
1.140137 0.111992 -0.100229
1.178722 0.115575 -0.062070
1.184161 0.115899 -0.020768
1.074843 0.104443 -0.289360
1.198174 0.116427 0.021013
1.093956 0.106107 -0.253745
1.212637 0.117618 0.063850
1.121663 0.108597 -0.219049
1.241431 0.120193 0.109119
1.130555 0.109458 -0.179900
1.161821 0.112280 -0.143318
1.144297 0.110385 -0.100578
1.166994 0.112369 -0.061442
1.198295 0.115172 -0.021013
1.086562 0.103667 -0.292466
1.194393 0.113955 0.020943
1.090241 0.104018 -0.252845
1.192958 0.113608 0.062803
1.121832 0.106834 -0.219049
1.241618 0.118242 0.109119
1.130745 0.107484 -0.179900
1.154111 0.109502 -0.142343
1.148436 0.108964 -0.100926
1.167169 0.110535 -0.061442
1.200465 0.113477 -0.021048
1.090570 0.102322 -0.293501
1.206517 0.113200 0.021152
1.096242 0.102660 -0.254195
1.207055 0.113038 0.063536
1.112244 0.103963 -0.217141
1.241823 0.116075 0.109119
1.134864 0.105878 -0.180525
1.160211 0.108243 -0.143075
1.156559 0.107698 -0.101624
1.175315 0.109237 -0.061861
1.192697 0.110644 -0.020908
1.083052 0.099709 -0.291430
1.210695 0.111460 0.021222
1.098360 0.100925 -0.254645
1.197306 0.110017 0.063013
1.112423 0.102022 -0.217141
1.244007 0.114090 0.109293
1.138982 0.104257 -0.181151
1.156444 0.105855 -0.142587
1.148809 0.104954 -0.100926
1.179482 0.107549 -0.062070
1.184922 0.107836 -0.020768
1.075529 0.097124 -0.289360
1.200930 0.108448 0.021048
1.104357 0.099533 -0.255994
1.213410 0.109361 0.063850
1.118466 0.100608 -0.218286
1.236267 0.111204 0.108596
1.139162 0.102269 -0.181151
1.160582 0.104192 -0.143075
1.145022 0.102593 -0.100578
1.177678 0.105312 -0.061966
1.189092 0.106124 -0.020838
1.079545 0.095587 -0.290395
1.195142 0.105822 0.020943
1.098706 0.097091 -0.254645
1.199672 0.106013 0.063117
1.114728 0.098311 -0.217522
1.244398 0.109746 0.109293
1.131468 0.099587 -0.179900
1.162739 0.102340 -0.143318
1.149169 0.100944 -0.100926
1.171891 0.102734 -0.061652
1.197244 0.104745 -0.020978
1.087409 0.094371 -0.292466
1.205285 0.104601 0.021117
1.094990 0.094837 -0.253745
1.213784 0.105126 0.063850
1.126634 0.097379 -0.219812
1.244588 0.107574 0.109293
1.135576 0.097953 -0.180525
1.160938 0.100140 -0.143075
1.153313 0.099280 -0.101275
1.172069 0.100688 -0.061652
1.207387 0.103509 -0.021152
1.099121 0.093455 -0.295571
1.211444 0.103006 0.021222
1.095154 0.092925 -0.253745
1.192075 0.101149 0.062698
1.118977 0.094750 -0.218286
1.252715 0.106074 0.109991
1.135745 0.095971 -0.180525
1.155177 0.097613 -0.142343
1.161426 0.097936 -0.101972
1.180204 0.099312 -0.062070
1.199595 0.100733 -0.021013
1.091582 0.090895 -0.293501
1.211622 0.100891 0.021222
1.101141 0.091498 -0.255094
1.216134 0.101053 0.063955
1.115228 0.092473 -0.217522
1.248927 0.103559 0.109642
1.145754 0.094802 -0.182090
1.161281 0.096087 -0.143075
1.153653 0.095253 -0.101275
1.176394 0.096925 -0.061861
1.193790 0.098148 -0.020908
1.076335 0.087735 -0.289360
1.207810 0.098451 0.021152
1.103241 0.089733 -0.255544
1.204364 0.097958 0.063327
1.117344 0.090685 -0.217904
1.245134 0.101056 0.109293
1.136073 0.092005 -0.180525
1.161447 0.094060 -0.143075
1.149845 0.092918 -0.100926
1.184525 0.095513 -0.062280
1.195953 0.096224 -0.020943
1.084190 0.086470 -0.291430
1.205986 0.096184 0.021117
1.103396 0.087808 -0.255544
1.228425 0.097758 0.064583
1.117501 0.088735 -0.217904
1.247295 0.099041 0.109468
1.136232 0.090022 -0.180525
1.165567 0.092346 -0.143562
1.150006 0.090912 -0.100926
1.180707 0.093131 -0.062070
1.196119 0.094136 -0.020943
1.092043 0.085179 -0.293501
1.212133 0.094546 0.021222
1.091890 0.084975 -0.252845
1.204699 0.093755 0.063327
1.123526 0.087240 -0.219049
1.249452 0.097017 0.109642
1.132448 0.087734 -0.179900
1.163747 0.090159 -0.143318
1.154136 0.089212 -0.101275
1.172903 0.090456 -0.061652
1.200269 0.092356 -0.021013
1.099895 0.083860 -0.295571
1.212296 0.092430 0.021222
1.099810 0.083660 -0.254645
1.204861 0.091651 0.063327
1.119761 0.084982 -0.218286
1.251606 0.094988 0.109816
1.144418 0.086652 -0.181777
1.167862 0.088428 -0.143806
1.162236 0.087797 -0.101972
1.181025 0.089009 -0.062070
1.192452 0.089662 -0.020873
1.092334 0.081366 -0.293501
1.212456 0.090314 0.021222
1.103841 0.082030 -0.255544
1.216970 0.090437 0.063955
1.121866 0.083172 -0.218667
1.247796 0.092508 0.109468
1.148507 0.084946 -0.182403
1.169994 0.086535 -0.144050
1.150466 0.084889 -0.100926
1.181179 0.086948 -0.062070
1.198589 0.088019 -0.020978
1.080914 0.078619 -0.290395
1.212612 0.088198 0.021222
1.113700 0.080808 -0.257794
1.209158 0.087734 0.063536
1.120051 0.081073 -0.218286
1.245969 0.090187 0.109293
1.144714 0.082657 -0.181777
1.164203 0.084064 -0.143318
1.154587 0.083167 -0.101275
1.181329 0.084886 -0.062070
1.196747 0.085784 -0.020943
1.088757 0.077279 -0.292466
1.204785 0.085514 0.021083
1.106064 0.078314 -0.255994
1.223255 0.086611 0.064269
1.120191 0.079118 -0.218286
1.248111 0.088153 0.109468
1.140915 0.080381 -0.181151
1.170289 0.082450 -0.144050
1.158705 0.081431 -0.101624
1.185460 0.083104 -0.062280
1.208864 0.084532 -0.021152
1.092745 0.075646 -0.293501
1.208922 0.083689 0.021152
1.100367 0.075981 -0.254645
1.209456 0.083513 0.063536
1.130121 0.077837 -0.220194
1.250251 0.086110 0.109642
1.141040 0.078589 -0.181151
1.166470 0.080136 -0.143562
1.158846 0.079409 -0.101624
1.181618 0.080762 -0.062070
1.212999 0.082694 -0.021222
1.092875 0.073738 -0.293501
1.213057 0.081847 0.021222
1.096596 0.073989 -0.253745
1.207608 0.081268 0.063431
1.130241 0.076061 -0.220194
1.260324 0.084815 0.110513
1.149059 0.077126 -0.182403
1.166608 0.078100 -0.143562
1.170897 0.078387 -0.102669
1.181743 0.078906 -0.062070
1.205147 0.080257 -0.021083
1.096845 0.072276 -0.294536
1.221165 0.080468 0.021362
1.104502 0.072587 -0.255544
1.219692 0.080157 0.064059
1.126454 0.073832 -0.219430
1.254506 0.082225 0.109991
1.149192 0.075121 -0.182403
1.162768 0.076008 -0.143075
1.159102 0.075565 -0.101624
1.185865 0.077102 -0.062280
1.201294 0.077895 -0.021013
1.089258 0.069867 -0.292466
1.217313 0.078080 0.021292
1.112406 0.071157 -0.257344
1.205877 0.077136 0.063327
1.130500 0.072115 -0.220194
1.250671 0.079781 0.109642
1.145379 0.072864 -0.181777
1.166861 0.074231 -0.143562
1.155256 0.073290 -0.101275
1.193971 0.075537 -0.062698
1.201428 0.075798 -0.021013
1.089378 0.067966 -0.292466
1.209464 0.075458 0.021152
1.104748 0.068730 -0.255544
1.233918 0.076767 0.064792
1.128665 0.070021 -0.219812
1.256774 0.077969 0.110165
1.145504 0.070865 -0.181777
1.163026 0.071949 -0.143075
1.159359 0.071519 -0.101624
1.186127 0.072963 -0.062280
1.201559 0.073701 -0.021013
1.097208 0.066531 -0.294536
1.215582 0.073709 0.021257
1.108757 0.067038 -0.256444
1.218101 0.073649 0.063955
1.132704 0.068287 -0.220575
1.258897 0.075895 0.110339
1.149570 0.069102 -0.182403
1.169094 0.070276 -0.143806
1.163460 0.069734 -0.101972
1.182265 0.070654 -0.062070
1.213662 0.072317 -0.021222
1.105037 0.065071 -0.296607
1.221697 0.071940 0.021362
1.108873 0.065102 -0.256444
1.218228 0.071523 0.063955
1.134782 0.066425 -0.220957
1.261016 0.073814 0.110513
1.149688 0.067096 -0.182403
1.165252 0.068004 -0.143318
1.163580 0.067703 -0.101972
1.182387 0.068590 -0.062070
1.213787 0.070199 -0.021222
1.097434 0.062701 -0.294536
1.227810 0.070150 0.021466
1.112876 0.063389 -0.257344
1.208380 0.068829 0.063431
1.123136 0.063777 -0.218667
1.245230 0.070710 0.109119
1.147832 0.064978 -0.182090
1.171314 0.066307 -0.144050
1.163696 0.065672 -0.101972
1.186493 0.066751 -0.062280
1.205921 0.067633 -0.021083
1.089826 0.060359 -0.292466
1.217948 0.067455 0.021292
1.118822 0.061768 -0.258694
1.226447 0.067710 0.064373
1.129126 0.062139 -0.219812
1.259277 0.069302 0.110339
1.151888 0.063191 -0.182715
1.167464 0.064045 -0.143562
1.157841 0.063314 -0.101449
1.194585 0.065114 -0.062698
1.214024 0.065962 -0.021222
1.089930 0.058456 -0.292466
1.218064 0.065328 0.021292
1.109198 0.059295 -0.256444
1.220580 0.065250 0.064059
1.133154 0.060378 -0.220575
1.261386 0.067211 0.110513
1.148051 0.060971 -0.182090
1.177485 0.062534 -0.144781
1.159939 0.061399 -0.101624
1.186719 0.062609 -0.062280
1.218131 0.064053 -0.021292
1.097747 0.056954 -0.294536
1.218176 0.063202 0.021292
1.109300 0.057360 -0.256444
1.216702 0.062914 0.063850
1.137179 0.058602 -0.221338
1.265481 0.065214 0.110862
1.148156 0.058967 -0.182090
1.169663 0.060071 -0.143806
1.164024 0.059579 -0.101972
1.190815 0.060741 -0.062489
1.214247 0.061724 -0.021222
1.109421 0.055619 -0.297642
1.230267 0.061677 0.021501
1.113291 0.055618 -0.257344
1.210826 0.060491 0.063536
1.137279 0.056617 -0.221338
1.257633 0.062609 0.110165
1.152203 0.057159 -0.182715
1.167783 0.057932 -0.143562
1.164126 0.057547 -0.101972
1.186930 0.058466 -0.062280
1.214353 0.059604 -0.021222
1.097939 0.053122 -0.294536
1.226378 0.059337 0.021432
1.117279 0.053863 -0.258244
1.210930 0.058377 0.063536
1.123649 0.053973 -0.218667
1.253760 0.060222 0.109816
1.158220 0.055431 -0.183654
1.171848 0.056083 -0.144050
1.168205 0.055705 -0.102321
1.191020 0.056584 -0.062489
1.206465 0.057107 -0.021083
1.094171 0.051026 -0.293501
1.226480 0.057196 0.021432
1.117372 0.051912 -0.258244
1.217015 0.056541 0.063850
1.133548 0.052465 -0.220575
1.249883 0.057850 0.109468
1.154369 0.053228 -0.183028
1.167979 0.053855 -0.143562
1.158349 0.053208 -0.101449
1.191117 0.054505 -0.062489
1.214554 0.055365 -0.021222
1.098118 0.049289 -0.294536
1.214592 0.054517 0.021222
1.109674 0.049614 -0.256444
1.229084 0.054953 0.064478
1.137560 0.050662 -0.221338
1.253963 0.055846 0.109816
1.146566 0.050862 -0.181777
1.176003 0.052168 -0.144537
1.164412 0.051450 -0.101972
1.187220 0.052251 -0.062280
1.214648 0.053245 -0.021222
1.102062 0.047539 -0.295571
1.222677 0.052742 0.021362
1.113652 0.047845 -0.257344
1.219201 0.052379 0.063955
1.137647 0.048676 -0.221338
1.273964 0.054509 0.111559
1.152574 0.049113 -0.182715
1.174109 0.050031 -0.144293
1.168481 0.049587 -0.102321
1.195291 0.050516 -0.062698
1.226727 0.051630 -0.021432
1.113725 0.046094 -0.298677
1.234755 0.051104 0.021571
1.113734 0.045901 -0.257344
1.205321 0.049675 0.063222
1.129884 0.046369 -0.219812
1.272066 0.052204 0.111385
1.156606 0.047263 -0.183341
1.172211 0.047900 -0.144050
1.172547 0.047710 -0.102669
1.195378 0.048430 -0.062698
1.214827 0.049005 -0.021222
1.109943 0.043998 -0.297642
1.234842 0.048949 0.021571
1.123549 0.044341 -0.259594
1.221372 0.048202 0.064059
1.131925 0.044473 -0.220194
1.260210 0.049514 0.110339
1.162608 0.045476 -0.184280
1.170310 0.045777 -0.143806
1.168647 0.045508 -0.102321
1.195460 0.046343 -0.062698
1.202921 0.046422 -0.021013
1.098435 0.041622 -0.294536
1.228931 0.046567 0.021466
1.129466 0.042600 -0.260943
1.223450 0.046145 0.064164
1.141810 0.042866 -0.222102
1.260295 0.047314 0.110339
1.156756 0.043427 -0.183341
1.182290 0.044180 -0.145268
1.164742 0.043320 -0.101972
1.195539 0.044256 -0.062698
1.210994 0.044617 -0.021152
1.094645 0.039565 -0.293501
1.219018 0.044060 0.021292
1.115900 0.040333 -0.257794
1.231512 0.044297 0.064583
1.145800 0.041214 -0.222865
1.264350 0.045478 0.110688
1.150908 0.041197 -0.182403
1.186333 0.042257 -0.145756
1.164809 0.041490 -0.101972
1.189619 0.042166 -0.062384
1.219056 0.042997 -0.021292
1.106290 0.038246 -0.296607
1.229078 0.042491 0.021466
1.115968 0.038386 -0.257794
1.229584 0.042294 0.064478
1.143908 0.039147 -0.222483
1.264427 0.043271 0.110688
1.160849 0.039524 -0.183967
1.172510 0.039921 -0.144050
1.172845 0.039727 -0.102669
1.191687 0.040157 -0.062489
1.219129 0.040869 -0.021292
1.117940 0.036695 -0.299712
1.235147 0.040543 0.021571
1.119929 0.036565 -0.258694
1.217679 0.039756 0.063850
1.140050 0.037023 -0.221720
1.282423 0.041646 0.112257
1.156968 0.037370 -0.183341
1.176546 0.038003 -0.144537
1.176895 0.037808 -0.103018
1.187763 0.037950 -0.062280
1.219199 0.038741 -0.021292
1.106417 0.034384 -0.296607
1.239213 0.038511 0.021641
1.121939 0.034671 -0.259144
1.213754 0.037508 0.063641
1.140113 0.035033 -0.221720
1.266562 0.038919 0.110862
1.164929 0.035592 -0.184593
1.184547 0.036191 -0.145512
1.170985 0.035573 -0.102495
1.199805 0.036239 -0.062908
1.215267 0.036493 -0.021222
1.106475 0.032453 -0.296607
1.239278 0.036348 0.021641
1.129789 0.032940 -0.260943
1.225796 0.035739 0.064269
1.148022 0.033270 -0.223247
1.270611 0.036823 0.111211
1.155116 0.033274 -0.183028
1.186593 0.034181 -0.145756
1.169054 0.033472 -0.102321
1.199867 0.034144 -0.062908
1.219327 0.034485 -0.021292
1.110392 0.030628 -0.297642
1.227346 0.033854 0.021432
1.127897 0.030914 -0.260493
1.231846 0.033763 0.064583
1.146116 0.031213 -0.222865
1.264699 0.034443 0.110688
1.153198 0.031205 -0.182715
1.186651 0.032110 -0.145756
1.163135 0.031270 -0.101798
1.199925 0.032050 -0.062908
1.223383 0.032463 -0.021362
1.110444 0.028690 -0.297642
1.231402 0.031815 0.021501
1.118209 0.028696 -0.258244
1.227910 0.031511 0.064373
1.144206 0.029163 -0.222483
1.266748 0.032286 0.110862
1.155225 0.029242 -0.183028
1.174798 0.029738 -0.144293
1.177130 0.029591 -0.103018
1.195986 0.029856 -0.062698
1.227436 0.030427 -0.021432
1.122080 0.027031 -0.300748
1.239452 0.029859 0.021641
1.122154 0.026837 -0.259144
1.221973 0.029224 0.064059
1.142292 0.027119 -0.222102
1.266803 0.030075 0.110862
1.163174 0.027412 -0.184280
1.178818 0.027781 -0.144781
1.177180 0.027536 -0.103018
1.196036 0.027769 -0.062698
1.227487 0.028285 -0.021432
1.114400 0.024900 -0.298677
1.247499 0.027874 0.021781
1.126095 0.024965 -0.260043
1.226016 0.027180 0.064269
1.134487 0.024953 -0.220575
1.278805 0.028127 0.111908
1.167170 0.025468 -0.184906
1.176880 0.025680 -0.144537
1.175235 0.025439 -0.102844
1.202073 0.025809 -0.063013
1.219538 0.025972 -0.021292
1.106716 0.022796 -0.296607
1.235550 0.025450 0.021571
1.126137 0.022999 -0.260043
1.232052 0.025162 0.064583
1.142380 0.023132 -0.222102
1.264908 0.025613 0.110688
1.159313 0.023272 -0.183654
1.186846 0.023825 -0.145756
1.169301 0.023268 -0.102321
1.212101 0.023908 -0.063536
1.223580 0.023921 -0.021362
1.106754 0.020864 -0.296607
1.227595 0.023143 0.021432
1.120330 0.020925 -0.258694
1.234091 0.023050 0.064687
1.140456 0.021102 -0.221720
1.274911 0.023589 0.111559
1.159351 0.021249 -0.183654
1.186886 0.021753 -0.145756
1.175316 0.021336 -0.102844
1.200159 0.021578 -0.062908
1.225619 0.021821 -0.021397
1.122242 0.019197 -0.300748
1.235631 0.021137 0.021571
1.114520 0.018871 -0.257344
1.234129 0.020896 0.064687
1.150306 0.019276 -0.223628
1.282919 0.021498 0.112257
1.163337 0.019291 -0.184280
1.178983 0.019550 -0.144781
1.177344 0.019318 -0.103018
1.208183 0.019613 -0.063327
1.229654 0.019747 -0.021466
1.126137 0.017297 -0.301783
1.243664 0.019103 0.021711
1.126242 0.017102 -0.260043
1.226176 0.018620 0.064269
1.140522 0.017121 -0.221720
1.290923 0.019378 0.112954
1.163369 0.017260 -0.184280
1.173060 0.017404 -0.144050
1.185344 0.017379 -0.103715
1.204221 0.017446 -0.063117
1.219689 0.017457 -0.021292
1.118438 0.015227 -0.299712
1.247694 0.016987 0.021781
1.132116 0.015216 -0.261393
1.230201 0.016534 0.064478
1.142514 0.015156 -0.222102
1.269040 0.016834 0.111036
1.167345 0.015485 -0.184906
1.188969 0.015564 -0.145999
1.177404 0.015208 -0.103018
1.204250 0.015344 -0.063117
1.219718 0.015328 -0.021292
1.114600 0.013230 -0.298677
1.243723 0.014762 0.021711
1.137984 0.013507 -0.262743
1.230227 0.014387 0.064478
1.144499 0.013384 -0.222483
1.269065 0.014841 0.111036
1.167370 0.013448 -0.184906
1.194949 0.013557 -0.146731
1.165473 0.013223 -0.101972
1.212261 0.013542 -0.063536
1.219741 0.013412 -0.021292
1.114619 0.011478 -0.298677
1.243745 0.012808 0.021711
1.128263 0.011422 -0.260493
1.238237 0.012535 0.064897
1.146484 0.011406 -0.222865
1.281043 0.012745 0.112082
1.161466 0.011353 -0.183967
1.198939 0.011719 -0.147218
1.177448 0.011303 -0.103018
1.200299 0.011313 -0.062908
1.231760 0.011394 -0.021501
1.118501 0.009566 -0.299712
1.243765 0.010637 0.021711
1.118538 0.009371 -0.258244
1.234263 0.010341 0.064687
1.152392 0.009453 -0.224010
1.277079 0.010476 0.111734
1.167410 0.009373 -0.184906
1.189032 0.009547 -0.145999
1.173481 0.009217 -0.102669
1.204312 0.009248 -0.063117
1.237777 0.009290 -0.021606
1.122380 0.007640 -0.300748
1.255780 0.008548 0.021920
1.126347 0.007470 -0.260043
1.230285 0.008160 0.064478
1.146517 0.007404 -0.222865
1.299011 0.008389 0.113651
1.171375 0.007361 -0.185531
1.183092 0.007434 -0.145268
1.189434 0.007266 -0.104064
1.204326 0.007147 -0.063117
1.227793 0.007072 -0.021432
1.122391 0.005681 -0.300748
1.255793 0.006356 0.021920
1.130256 0.005524 -0.260943
1.232294 0.006022 0.064583
1.140638 0.005376 -0.221720
1.277107 0.006019 0.111734
1.175337 0.005334 -0.186157
1.193028 0.005414 -0.146487
1.177491 0.005138 -0.103018
1.202340 0.005037 -0.063013
1.229803 0.004937 -0.021466
1.114672 0.003697 -0.298677
1.247803 0.004138 0.021781
1.145854 0.003600 -0.264542
1.242289 0.003904 0.065106
1.150462 0.003414 -0.223628
1.277116 0.003789 0.111734
1.163492 0.003249 -0.184280
1.193036 0.003332 -0.146487
1.175506 0.003077 -0.102844
1.216327 0.002972 -0.063745
1.231809 0.002795 -0.021501
1.118541 0.001757 -0.299712
1.247808 0.001960 0.021781
1.120525 0.001565 -0.258694
1.240297 0.001732 0.065001
1.148503 0.001403 -0.223247
1.285090 0.001570 0.112431
1.163496 0.001218 -0.184280
1.200980 0.001257 -0.147462
1.183479 0.001033 -0.103541
1.208341 0.000844 -0.063327
1.235812 0.000647 -0.021571
1.130133 -0.000197 -0.302818
1.247810 -0.000218 0.021781
1.124423 -0.000392 -0.259594
1.246289 -0.000435 0.065315
1.162246 -0.000609 -0.225918
1.295053 -0.000678 0.113302
1.167448 -0.000611 -0.184906
1.187085 -0.000829 -0.145756
1.181487 -0.001031 -0.103367
1.208341 -0.001265 -0.063327
1.233811 -0.001507 -0.021536
1.126267 -0.002162 -0.301783
1.255806 -0.002411 0.021920
1.128318 -0.002363 -0.260493
1.230309 -0.002577 0.064478
1.154391 -0.002619 -0.224391
1.285088 -0.002916 0.112431
1.173370 -0.002867 -0.185844
1.187082 -0.002901 -0.145756
1.193437 -0.003124 -0.104413
1.208337 -0.003374 -0.063327
1.237806 -0.003673 -0.021606
1.126262 -0.004128 -0.301783
1.255800 -0.004603 0.021920
1.138056 -0.004370 -0.262743
1.234297 -0.004739 0.064687
1.144568 -0.004595 -0.222483
1.295043 -0.005199 0.113302
1.175339 -0.004923 -0.186157
1.185090 -0.004964 -0.145512
1.189445 -0.005190 -0.104064
1.216318 -0.005520 -0.063745
1.231799 -0.005805 -0.021501
1.118526 -0.006052 -0.299712
1.255790 -0.006795 0.021920
1.136098 -0.006345 -0.262293
1.252262 -0.006994 0.065629
1.152411 -0.006637 -0.224010
1.283078 -0.007390 0.112257
1.171378 -0.006951 -0.185531
1.189049 -0.007056 -0.145999
1.181465 -0.007217 -0.103367
1.212312 -0.007617 -0.063536
1.237786 -0.007993 -0.021606
1.126241 -0.008059 -0.301783
1.245778 -0.008915 0.021746
1.141931 -0.008371 -0.263643
1.254245 -0.009194 0.065734
1.164177 -0.008737 -0.226299
1.295017 -0.009719 0.113302
1.171364 -0.008996 -0.185531
1.202930 -0.009238 -0.147706
1.187428 -0.009326 -0.103890
1.208303 -0.009701 -0.063327
1.237770 -0.010154 -0.021606
1.112702 -0.009905 -0.298160
1.255759 -0.011178 0.021920
1.124377 -0.010205 -0.259594
1.252230 -0.011365 0.065629
1.160234 -0.010733 -0.225536
1.281052 -0.011850 0.112082
1.175297 -0.011077 -0.186157
1.192988 -0.011244 -0.146487
1.181433 -0.011341 -0.103367
1.212278 -0.011849 -0.063536
1.241750 -0.012354 -0.021676
1.120410 -0.011929 -0.300230
1.255738 -0.013370 0.021920
1.130203 -0.012230 -0.260943
1.240225 -0.013421 0.065001
1.156287 -0.012715 -0.224773
1.302944 -0.014327 0.114000
1.175278 -0.012923 -0.186157
1.188996 -0.013282 -0.145999
1.193365 -0.013539 -0.104413
1.216250 -0.014011 -0.063745
1.237727 -0.014474 -0.021606
1.116525 -0.013836 -0.299195
1.267710 -0.015710 0.022130
1.137977 -0.014102 -0.262743
1.240200 -0.015586 0.065001
1.156266 -0.014531 -0.224773
1.286982 -0.016174 0.112605
1.179204 -0.015025 -0.186783
1.188971 -0.015357 -0.145999
1.181389 -0.015259 -0.103367
1.210235 -0.015843 -0.063431
1.233704 -0.016365 -0.021536
1.110707 -0.015509 -0.297642
1.257686 -0.017562 0.021955
1.143796 -0.016171 -0.264093
1.240174 -0.017534 0.065001
1.158201 -0.016577 -0.225155
1.296913 -0.018562 0.113477
1.175226 -0.017026 -0.186157
1.200855 -0.017397 -0.147462
1.185344 -0.017379 -0.103715
1.220191 -0.018103 -0.063955
1.233673 -0.018519 -0.021536
1.112609 -0.017478 -0.298160
1.261652 -0.019820 0.022025
1.130127 -0.017951 -0.260943
1.260112 -0.020015 0.066048
1.164060 -0.018693 -0.226299
1.288910 -0.020698 0.112780
1.165319 -0.018917 -0.184593
1.196853 -0.019429 -0.146974
1.185312 -0.019448 -0.103715
1.212170 -0.020100 -0.063536
1.241637 -0.020806 -0.021676
1.124166 -0.019622 -0.301265
1.261616 -0.022022 0.022025
1.124248 -0.019820 -0.259594
1.256081 -0.022144 0.065839
1.167951 -0.020794 -0.227063
1.304808 -0.023231 0.114174
1.177134 -0.021163 -0.186470
1.194833 -0.021482 -0.146731
1.191253 -0.021625 -0.104238
1.204145 -0.022070 -0.063117
1.241598 -0.022973 -0.021676
1.124130 -0.021584 -0.301265
1.267573 -0.024339 0.022130
1.141748 -0.022122 -0.263643
1.244059 -0.024104 0.065211
1.160062 -0.022679 -0.225536
1.294806 -0.025314 0.113302
1.184996 -0.023374 -0.187721
1.188839 -0.023450 -0.145999
1.195197 -0.023784 -0.104587
1.212092 -0.024332 -0.063536
1.245555 -0.025221 -0.021746
1.122160 -0.023506 -0.300748
1.263530 -0.026467 0.022060
1.143655 -0.024156 -0.264093
1.248008 -0.026360 0.065420
1.148244 -0.024453 -0.223247
1.304719 -0.027786 0.114174
1.182978 -0.025400 -0.187409
1.188796 -0.025524 -0.145999
1.197146 -0.025913 -0.104761
1.222032 -0.026665 -0.064059
1.237512 -0.027219 -0.021606
1.116323 -0.025333 -0.299195
1.259484 -0.028582 0.021990
1.135819 -0.025974 -0.262293
1.251954 -0.028629 0.065629
1.161938 -0.026774 -0.225918
1.278775 -0.029466 0.111908
1.171083 -0.027189 -0.185531
1.198673 -0.027830 -0.147218
1.187139 -0.027769 -0.103890
1.223980 -0.028845 -0.064164
1.245459 -0.029568 -0.021746
1.120139 -0.027376 -0.300230
1.259432 -0.030780 0.021990
1.147461 -0.028244 -0.264992
1.259889 -0.031011 0.066048
1.159927 -0.028753 -0.225536
1.304614 -0.032340 0.114174
1.171034 -0.029233 -0.185531
1.196638 -0.029872 -0.146974
1.183106 -0.029741 -0.103541
1.215941 -0.030779 -0.063745
1.245406 -0.031742 -0.021746
1.123952 -0.029432 -0.301265
1.261376 -0.033030 0.022025
1.127929 -0.029733 -0.260493
1.255840 -0.033105 0.065839
1.159875 -0.030778 -0.225536
1.296589 -0.034405 0.113477
1.178879 -0.031488 -0.186783
1.202537 -0.032120 -0.147706
1.191019 -0.032020 -0.104238
1.215886 -0.032901 -0.063745
1.245349 -0.033916 -0.021746
1.129693 -0.031555 -0.302818
1.269312 -0.035455 0.022165
1.147355 -0.032249 -0.264992
1.243801 -0.034960 0.065211
1.161782 -0.032857 -0.225918
1.316443 -0.037231 0.115220
1.182772 -0.033658 -0.187409
1.202479 -0.034218 -0.147706
1.198927 -0.034327 -0.104936
1.217823 -0.035080 -0.063850
1.245287 -0.036089 -0.021746
1.133498 -0.033641 -0.303854
1.273245 -0.037789 0.022234
1.131714 -0.033786 -0.261393
1.251724 -0.037369 0.065629
1.157798 -0.034767 -0.225155
1.286504 -0.038632 0.112605
1.186660 -0.035841 -0.188034
1.196465 -0.036137 -0.146974
1.194883 -0.036298 -0.104587
1.223749 -0.037389 -0.064164
1.249220 -0.038385 -0.021816
1.129576 -0.035498 -0.302818
1.271179 -0.039948 0.022199
1.155026 -0.036500 -0.266792
1.259642 -0.039806 0.066048
1.163623 -0.036975 -0.226299
1.302365 -0.041384 0.114000
1.182654 -0.037580 -0.187409
1.204337 -0.038479 -0.147949
1.190835 -0.038256 -0.104238
1.223682 -0.039525 -0.064164
1.245154 -0.040436 -0.021746
1.133373 -0.037598 -0.303854
1.267110 -0.042034 0.022130
1.135491 -0.037668 -0.262293
1.271547 -0.042404 0.066676
1.161601 -0.038737 -0.225918
1.294334 -0.043164 0.113302
1.176664 -0.039445 -0.186470
1.204268 -0.040581 -0.147949
1.190773 -0.040126 -0.104238
1.219626 -0.041312 -0.063955
1.253083 -0.042664 -0.021885
1.137174 -0.039512 -0.304889
1.261047 -0.043816 0.022025
1.149056 -0.040126 -0.265442
1.259503 -0.043983 0.066048
1.167418 -0.040971 -0.227063
1.314168 -0.046121 0.115046
1.180541 -0.041638 -0.187096
1.208170 -0.042612 -0.148437
1.194684 -0.042346 -0.104587
1.211568 -0.043156 -0.063536
1.249010 -0.044708 -0.021816
1.144826 -0.041779 -0.306959
1.272959 -0.046455 0.022234
1.131458 -0.041489 -0.261393
1.259424 -0.046181 0.066048
1.161459 -0.042792 -0.225918
1.296166 -0.047755 0.113477
1.190337 -0.044064 -0.188660
1.194208 -0.044207 -0.146731
1.202572 -0.044727 -0.105284
1.215482 -0.045419 -0.063745
1.254925 -0.047113 -0.021920
1.140890 -0.043629 -0.305924
1.276872 -0.048829 0.022304
1.160593 -0.044585 -0.268142
1.263333 -0.048532 0.066257
1.159420 -0.044743 -0.225536
1.315990 -0.050785 0.115220
1.190258 -0.046141 -0.188660
1.202063 -0.046599 -0.147706
1.198510 -0.046671 -0.104936
1.227376 -0.048009 -0.064373
1.240854 -0.048753 -0.021676
1.140813 -0.045620 -0.305924
1.274787 -0.050978 0.022269
1.146883 -0.046064 -0.264992
1.267238 -0.050898 0.066467
1.165225 -0.047004 -0.226681
1.294001 -0.052199 0.113302
1.184255 -0.047979 -0.187721
1.201980 -0.048697 -0.147706
1.194445 -0.048600 -0.104587
1.227290 -0.050151 -0.064373
1.246761 -0.051165 -0.021781
1.140731 -0.047611 -0.305924
1.270700 -0.053036 0.022199
1.152642 -0.048310 -0.266342
1.275129 -0.053444 0.066885
1.167103 -0.049120 -0.227063
1.311823 -0.055211 0.114871
1.180222 -0.049879 -0.187096
1.209826 -0.051130 -0.148681
1.200330 -0.050938 -0.105110
1.219219 -0.051953 -0.063955
1.246669 -0.053341 -0.021781
1.144506 -0.049770 -0.306959
1.268608 -0.055167 0.022165
1.136981 -0.049642 -0.262743
1.263062 -0.055146 0.066257
1.174861 -0.051501 -0.228589
1.303763 -0.057152 0.114174
1.180133 -0.051938 -0.187096
1.199819 -0.052805 -0.147462
1.206211 -0.053297 -0.105633
1.219126 -0.054081 -0.063955
1.254565 -0.055872 -0.021920
1.144418 -0.051768 -0.306959
1.276500 -0.057742 0.022304
1.150520 -0.052245 -0.265892
1.258973 -0.057170 0.066048
1.168886 -0.053283 -0.227444
1.327545 -0.060516 0.116266
1.189907 -0.054450 -0.188660
1.199726 -0.054899 -0.147462
1.208107 -0.055494 -0.105807
1.223020 -0.056393 -0.064164
1.252468 -0.057970 -0.021885
1.136607 -0.053402 -0.304889
1.284387 -0.060346 0.022444
1.140694 -0.053794 -0.263643
1.270842 -0.059931 0.066676
1.170752 -0.055416 -0.227826
1.301566 -0.061608 0.114000
1.197703 -0.056901 -0.189911
1.209542 -0.057464 -0.148681
1.196067 -0.057033 -0.104761
1.232895 -0.059005 -0.064687
1.246373 -0.059868 -0.021781
1.132653 -0.055198 -0.303854
1.278288 -0.062295 0.022339
1.160063 -0.056737 -0.268142
1.274725 -0.062344 0.066885
1.168693 -0.057363 -0.227444
1.305436 -0.064075 0.114348
1.189710 -0.058603 -0.188660
1.207457 -0.059477 -0.148437
1.207906 -0.059710 -0.105807
1.242764 -0.061651 -0.065211
1.250261 -0.062242 -0.021850
1.147990 -0.057954 -0.307995
1.268192 -0.064022 0.022165
1.142446 -0.057874 -0.264093
1.278603 -0.064771 0.067095
1.170552 -0.059502 -0.227826
1.293383 -0.065746 0.113302
1.183687 -0.060377 -0.187721
1.213299 -0.061888 -0.149168
1.197851 -0.061309 -0.104936
1.230687 -0.063205 -0.064583
1.256142 -0.064732 -0.021955
1.138241 -0.059453 -0.305406
1.276066 -0.066652 0.022304
1.150127 -0.060276 -0.265892
1.272505 -0.066689 0.066781
1.178288 -0.061958 -0.229352
1.323111 -0.069573 0.115917
1.187536 -0.062444 -0.188347
1.203278 -0.063482 -0.147949
1.207690 -0.063926 -0.105807
1.218608 -0.064718 -0.063955
1.260021 -0.067138 -0.022025
1.151639 -0.062169 -0.309030
1.275948 -0.068880 0.022304
1.142247 -0.061662 -0.264093
1.266404 -0.068586 0.066467
1.174268 -0.063596 -0.228589
1.309074 -0.070897 0.114697
1.189398 -0.064624 -0.188660
1.207129 -0.065798 -0.148437
1.209577 -0.065932 -0.105981
1.226482 -0.067068 -0.064373
1.255920 -0.068898 -0.021955
1.143824 -0.063549 -0.306959
1.285821 -0.071438 0.022479
1.163541 -0.064848 -0.269041
1.282248 -0.071464 0.067304
1.180036 -0.065974 -0.229734
1.320884 -0.073849 0.115743
1.197173 -0.067142 -0.189911
1.207025 -0.067694 -0.148437
1.201503 -0.067595 -0.105284
1.234339 -0.069659 -0.064792
1.255798 -0.071089 -0.021955
1.139854 -0.065324 -0.305924
1.289687 -0.073911 0.022549
1.145916 -0.065872 -0.264992
1.278133 -0.073473 0.067095
1.181879 -0.068147 -0.230116
1.296884 -0.074778 0.113651
1.185221 -0.068547 -0.188034
1.216813 -0.070374 -0.149656
1.197405 -0.069461 -0.104936
1.234216 -0.071813 -0.064792
1.255672 -0.073281 -0.021955
1.137810 -0.067200 -0.305406
1.279575 -0.075573 0.022374
1.159417 -0.068679 -0.268142
1.283984 -0.076058 0.067409
1.181759 -0.070209 -0.230116
1.322607 -0.078577 0.115917
1.189043 -0.070850 -0.188660
1.220652 -0.072734 -0.150143
1.205238 -0.072027 -0.105633
1.234089 -0.073967 -0.064792
1.263526 -0.075953 -0.022095
1.141547 -0.069420 -0.306442
1.281437 -0.077927 0.022409
1.137899 -0.069398 -0.263193
1.291824 -0.078785 0.067827
1.181634 -0.072272 -0.230116
1.312524 -0.080277 0.115046
1.190889 -0.073047 -0.188973
1.212598 -0.074378 -0.149168
1.205110 -0.074130 -0.105633
1.229971 -0.075875 -0.064583
1.263392 -0.078158 -0.022095
1.141424 -0.071412 -0.306442
1.287287 -0.080538 0.022514
1.161115 -0.072848 -0.268592
1.271751 -0.079789 0.066781
1.179547 -0.074211 -0.229734
1.322325 -0.083194 0.115917
1.196675 -0.075498 -0.189911
1.200579 -0.075744 -0.147706
1.222875 -0.077365 -0.107202
1.235816 -0.078401 -0.064897
1.255271 -0.079855 -0.021955
1.141298 -0.073404 -0.306442
1.289140 -0.082913 0.022549
1.157097 -0.074623 -0.267692
1.281575 -0.082651 0.067304
1.177456 -0.076143 -0.229352
1.316213 -0.085116 0.115394
1.194570 -0.077459 -0.189599
1.216292 -0.078867 -0.149656
1.204844 -0.078336 -0.105633
1.237671 -0.080687 -0.065001
1.255130 -0.082046 -0.021955
1.133458 -0.074887 -0.304371
1.288993 -0.085163 0.022549
1.158909 -0.076771 -0.268142
1.285415 -0.085152 0.067513
1.179281 -0.078328 -0.229734
1.304134 -0.086620 0.114348
1.196404 -0.079675 -0.189911
1.214172 -0.080858 -0.149412
1.214645 -0.081103 -0.106504
1.233542 -0.082581 -0.064792
1.262965 -0.084772 -0.022095
1.141035 -0.077388 -0.306442
1.278867 -0.086736 0.022374
1.164606 -0.079191 -0.269491
1.295228 -0.088073 0.068037
1.185018 -0.080786 -0.230879
1.323859 -0.090252 0.116091
1.188380 -0.081224 -0.188660
1.225912 -0.083789 -0.150874
1.210526 -0.082950 -0.106156
1.241367 -0.085281 -0.065211
1.262816 -0.086976 -0.022095
1.140898 -0.079379 -0.306442
1.290683 -0.089801 0.022583
1.154746 -0.080545 -0.267242
1.287102 -0.089777 0.067618
1.179000 -0.082444 -0.229734
1.311774 -0.091728 0.115046
1.194162 -0.083504 -0.189599
1.221804 -0.085651 -0.150387
1.218330 -0.085621 -0.106853
1.233246 -0.086886 -0.064792
1.266651 -0.089462 -0.022165
1.146539 -0.081783 -0.307995
1.288529 -0.091911 0.022549
1.154618 -0.082359 -0.267242
1.286944 -0.092023 0.067618
1.172994 -0.083875 -0.228589
1.331501 -0.095210 0.116789
1.199926 -0.086012 -0.190537
1.213732 -0.087214 -0.149412
1.220181 -0.087678 -0.107027
1.233108 -0.088823 -0.064792
1.264515 -0.091307 -0.022130
1.140628 -0.083162 -0.306442
1.296361 -0.094516 0.022688
1.166134 -0.085226 -0.269941
1.286797 -0.094045 0.067618
1.174804 -0.086066 -0.228971
1.311463 -0.096078 0.115046
1.199774 -0.088106 -0.190537
1.219533 -0.089557 -0.150143
1.212078 -0.089222 -0.106330
1.232952 -0.090975 -0.064792
1.262359 -0.093366 -0.022095
1.140482 -0.085153 -0.306442
1.290212 -0.096332 0.022583
1.152380 -0.086243 -0.266792
1.292606 -0.096738 0.067932
1.178568 -0.088410 -0.229734
1.327187 -0.099559 0.116440
1.199618 -0.090200 -0.190537
1.219375 -0.091685 -0.150143
1.205960 -0.090888 -0.105807
1.240757 -0.093729 -0.065211
1.258206 -0.095268 -0.022025
1.144184 -0.087438 -0.307477
1.290042 -0.098584 0.022583
1.173602 -0.089892 -0.271741
1.296418 -0.099299 0.068141
1.182327 -0.090768 -0.230497
1.311119 -0.100655 0.115046
1.195520 -0.091990 -0.189911
1.231088 -0.094727 -0.151605
1.221692 -0.094219 -0.107202
1.240592 -0.095894 -0.065211
1.266013 -0.098081 -0.022165
1.144029 -0.089434 -0.307477
1.287874 -0.100679 0.022549
1.148187 -0.089961 -0.265892
1.292261 -0.101249 0.067932
1.184124 -0.092985 -0.230879
1.332790 -0.104659 0.116963
1.199296 -0.094387 -0.190537
1.215089 -0.095630 -0.149656
1.209608 -0.095411 -0.106156
1.228476 -0.097115 -0.064583
1.273814 -0.100922 -0.022304
1.147723 -0.091739 -0.308512
1.297663 -0.103724 0.022723
1.161626 -0.093054 -0.269041
1.276155 -0.102229 0.067095
1.187873 -0.095365 -0.231642
1.322676 -0.106188 0.116091
1.203067 -0.096797 -0.191163
1.212942 -0.097591 -0.149412
1.229299 -0.099123 -0.107899
1.236268 -0.099902 -0.065001
1.269649 -0.102823 -0.022234
1.143710 -0.093427 -0.307477
1.301466 -0.106314 0.022793
1.167288 -0.095558 -0.270391
1.291900 -0.105759 0.067932
1.174008 -0.096315 -0.228971
1.338374 -0.109799 0.117486
1.206834 -0.099220 -0.191789
1.214748 -0.099870 -0.149656
1.213239 -0.099960 -0.106504
1.240073 -0.102388 -0.065211
1.265482 -0.104709 -0.022165
1.147396 -0.095745 -0.308512
1.287329 -0.107421 0.022549
1.172945 -0.098083 -0.271741
1.299674 -0.108680 0.068351
1.183621 -0.099183 -0.230879
1.306414 -0.109473 0.114697
1.210596 -0.101657 -0.192414
1.228419 -0.103153 -0.151362
1.221004 -0.102745 -0.107202
1.253824 -0.105727 -0.065943
1.265298 -0.106917 -0.022165
1.147227 -0.097747 -0.308512
1.293117 -0.110177 0.022653
1.151414 -0.098306 -0.266792
1.305453 -0.111458 0.068665
1.191270 -0.101918 -0.232405
1.337983 -0.114470 0.117486
1.198608 -0.102757 -0.190537
1.222304 -0.104788 -0.150631
1.214868 -0.104365 -0.106679
1.247667 -0.107402 -0.065629
1.269094 -0.109469 -0.022234
1.150904 -0.100084 -0.309548
1.298899 -0.112954 0.022758
1.172596 -0.102176 -0.271741
1.299287 -0.113216 0.068351
1.195002 -0.104339 -0.233169
1.313963 -0.114726 0.115394
1.202362 -0.105193 -0.191163
1.224096 -0.107095 -0.150874
1.218653 -0.106833 -0.107027
1.229572 -0.108006 -0.064687
1.276868 -0.112385 -0.022374
1.158425 -0.102775 -0.311618
1.298700 -0.115221 0.022758
1.170475 -0.104050 -0.271291
1.293119 -0.114953 0.068037
1.186996 -0.105728 -0.231642
1.345513 -0.119847 0.118183
1.210047 -0.107994 -0.192414
1.223907 -0.109231 -0.150874
1.226403 -0.109669 -0.107725
1.243306 -0.111400 -0.065420
1.268704 -0.113898 -0.022234
1.150548 -0.104101 -0.309548
1.298497 -0.117487 0.022758
1.170291 -0.106093 -0.271291
1.292917 -0.117210 0.068037
1.188765 -0.107977 -0.232024
1.317523 -0.119672 0.115743
1.209857 -0.110106 -0.192414
1.217784 -0.110827 -0.150143
1.218273 -0.111086 -0.107027
1.251066 -0.114296 -0.065839
1.266512 -0.115930 -0.022199
1.146517 -0.105754 -0.308512
1.292317 -0.119202 0.022653
1.181747 -0.109211 -0.273990
1.300665 -0.120201 0.068455
1.186620 -0.109871 -0.231642
1.333183 -0.123441 0.117137
1.201795 -0.111487 -0.191163
1.225495 -0.113686 -0.151118
1.210142 -0.112474 -0.106330
1.246887 -0.116109 -0.065629
1.268298 -0.118326 -0.022234
1.150177 -0.108116 -0.309548
1.296088 -0.121832 0.022723
1.158273 -0.109081 -0.268592
1.308407 -0.123220 0.068874
1.198154 -0.113048 -0.233932
1.317097 -0.124270 0.115743
1.199632 -0.113399 -0.190850
1.237153 -0.116945 -0.152580
1.213911 -0.114962 -0.106679
1.242706 -0.117908 -0.065420
1.268090 -0.120540 -0.022234
1.153833 -0.110492 -0.310583
1.297864 -0.124284 0.022758
1.167780 -0.112033 -0.270841
1.298249 -0.124550 0.068351
1.197955 -0.115139 -0.233932
1.344644 -0.129238 0.118183
1.209264 -0.116439 -0.192414
1.227067 -0.118153 -0.151362
1.229574 -0.118611 -0.108073
1.242498 -0.120077 -0.065420
1.283801 -0.124294 -0.022514
1.161329 -0.113255 -0.312653
1.301626 -0.126937 0.022828
1.179220 -0.115208 -0.273540
1.292067 -0.126233 0.068037
1.191890 -0.116656 -0.232787
1.326570 -0.129838 0.116614
1.209079 -0.118338 -0.192414
1.226859 -0.120295 -0.151362
1.233331 -0.121146 -0.108422
1.246262 -0.122636 -0.065629
1.275622 -0.125750 -0.022374
1.153440 -0.114519 -0.310583
1.305382 -0.129604 0.022898
1.157706 -0.114942 -0.268592
1.297807 -0.129081 0.068351
1.185844 -0.117945 -0.231642
1.338260 -0.133104 0.117660
1.212802 -0.120840 -0.193040
1.228622 -0.122633 -0.151605
1.225209 -0.122292 -0.107725
1.250043 -0.124991 -0.065839
1.267464 -0.126957 -0.022234
1.153259 -0.116330 -0.310583
1.301198 -0.131253 0.022828
1.180770 -0.119314 -0.273990
1.307538 -0.132123 0.068874
1.197356 -0.121201 -0.233932
1.316221 -0.133233 0.115743
1.208659 -0.122558 -0.192414
1.230403 -0.124763 -0.151849
1.224993 -0.124430 -0.107725
1.261744 -0.128386 -0.066467
1.279176 -0.130385 -0.022444
1.158819 -0.118935 -0.312136
1.294999 -0.132911 0.022723
1.165052 -0.119780 -0.270391
1.311279 -0.134814 0.069083
1.191284 -0.122687 -0.232787
1.345715 -0.138591 0.118357
1.216303 -0.125478 -0.193666
1.240057 -0.127929 -0.153068
1.220811 -0.126159 -0.107376
1.241652 -0.128531 -0.065420
1.278947 -0.132618 -0.022444
1.162453 -0.121358 -0.313171
1.304709 -0.136210 0.022898
1.174532 -0.122827 -0.272641
1.309055 -0.136894 0.068979
1.206689 -0.126402 -0.235840
1.323674 -0.138657 0.116440
1.212153 -0.127189 -0.193040
1.239831 -0.130093 -0.153068
1.234459 -0.129747 -0.108596
1.241426 -0.130698 -0.065420
1.294623 -0.136527 -0.022723
1.166081 -0.123795 -0.314206
1.304470 -0.138487 0.022898
1.156875 -0.123022 -0.268592
1.300870 -0.138334 0.068560
1.192801 -0.127053 -0.233169
1.351166 -0.143921 0.118880
1.208001 -0.128885 -0.192414
1.229733 -0.131203 -0.151849
1.244136 -0.132960 -0.109468
1.249139 -0.133715 -0.065839
1.274500 -0.136655 -0.022374
1.158181 -0.125001 -0.312136
1.314167 -0.141836 0.023072
1.177971 -0.127345 -0.273540
1.314527 -0.142107 0.069293
1.190626 -0.128923 -0.232787
1.323182 -0.143276 0.116440
1.219557 -0.132271 -0.194292
1.217661 -0.132065 -0.150387
1.224095 -0.132979 -0.107725
1.262803 -0.137407 -0.066571
1.270283 -0.138446 -0.022304
1.157961 -0.127022 -0.312136
1.303978 -0.143039 0.022898
1.179684 -0.129613 -0.273990
1.312291 -0.144183 0.069188
1.192350 -0.131215 -0.233169
1.340754 -0.147547 0.118009
1.211470 -0.133534 -0.193040
1.239133 -0.136583 -0.153068
1.227822 -0.135553 -0.108073
1.264546 -0.139831 -0.066676
1.277990 -0.141543 -0.022444
1.165417 -0.129899 -0.314206
1.297765 -0.144650 0.022793
1.163962 -0.129942 -0.270391
1.317992 -0.147138 0.069502
1.199924 -0.134169 -0.234695
1.330594 -0.148780 0.117137
1.207309 -0.135208 -0.192414
1.242839 -0.139187 -0.153555
1.233523 -0.138362 -0.108596
1.252392 -0.140700 -0.066048
1.285689 -0.144668 -0.022583
1.161349 -0.131498 -0.313171
1.307445 -0.148040 0.022967
1.171479 -0.132852 -0.272191
1.315749 -0.149213 0.069397
1.203589 -0.136706 -0.235458
1.356068 -0.154025 0.119403
1.218848 -0.138655 -0.194292
1.238649 -0.140907 -0.153068
1.231300 -0.140289 -0.108422
1.244207 -0.141979 -0.065629
1.291395 -0.147593 -0.022688
1.168795 -0.134407 -0.315242
1.307185 -0.150322 0.022967
1.157694 -0.133335 -0.269041
1.309534 -0.150823 0.069083
1.203349 -0.138807 -0.235458
1.337983 -0.154337 0.117835
1.212717 -0.140102 -0.193353
1.234457 -0.142613 -0.152580
1.246887 -0.144270 -0.109816
1.259829 -0.145990 -0.066467
1.283190 -0.148924 -0.022549
1.166640 -0.136223 -0.314724
1.310893 -0.153067 0.023037
1.178750 -0.137846 -0.273990
1.307285 -0.152877 0.068979
1.199205 -0.140450 -0.234695
1.349585 -0.158062 0.118880
1.230128 -0.144289 -0.196169
1.238150 -0.145230 -0.153068
1.240697 -0.145748 -0.109293
1.271474 -0.149589 -0.067095
1.278957 -0.150695 -0.022479
1.160645 -0.137577 -0.313171
1.304666 -0.154648 0.022932
1.193989 -0.141741 -0.277590
1.312967 -0.155865 0.069293
