# This PCD file was generated using the MATLAB® pcwrite function
# from Computer Vision System Toolbox®.
# .PCD v.7 - Point Cloud Data file format
VERSION .7
FIELDS x y z
SIZE 4 4 4
TYPE F F F
COUNT 1 1 1
WIDTH 1713
HEIGHT 1
VIEWPOINT 0 0 0 1 0 0 0
POINTS 1713
DATA ascii
1.612264 1.154695 -0.243495
1.614277 1.151878 -0.243495
1.617903 1.150209 -0.243739
1.616669 1.145089 -0.243251
1.636565 1.154899 -0.317249
1.647858 1.162868 -0.247639
1.618989 1.138689 -0.313495
1.620656 1.139439 -0.243251
1.638769 1.148331 -0.316936
1.619390 1.134331 -0.242764
1.642390 1.146600 -0.317249
1.635819 1.142013 -0.244957
1.624929 1.130196 -0.313495
1.624773 1.130087 -0.243007
1.618781 1.121733 -0.311930
1.633269 1.131773 -0.243982
1.620736 1.118906 -0.311930
1.633608 1.127793 -0.243739
1.629196 1.120554 -0.313182
1.645387 1.131690 -0.245201
1.627891 1.115476 -0.312556
1.660460 1.137793 -0.247151
1.665120 1.140558 -0.176578
1.628204 1.111518 -0.312243
1.639491 1.119223 -0.243739
1.657234 1.130912 -0.175532
1.628508 1.107564 -0.311930
1.643083 1.117477 -0.243982
1.637784 1.113456 -0.173266
1.633709 1.106936 -0.312556
1.640101 1.111267 -0.243251
1.647974 1.116182 -0.174137
1.630726 1.100768 -0.311617
1.643683 1.109514 -0.243495
1.633404 1.102160 -0.172394
1.640841 1.103432 -0.313182
1.640675 1.103320 -0.242764
1.628711 1.094861 -0.171697
1.627600 1.090819 -0.380855
1.639483 1.098367 -0.312556
1.665687 1.115923 -0.246176
1.628964 1.090908 -0.171522
1.634400 1.091246 -0.382000
1.638111 1.093311 -0.311930
1.652772 1.103096 -0.243982
1.629208 1.086959 -0.171348
1.649379 1.097091 -0.385053
1.640017 1.090449 -0.311930
1.648083 1.095813 -0.243007
1.632762 1.085216 -0.171522
1.649655 1.093125 -0.384671
1.641917 1.087586 -0.311930
1.648338 1.091839 -0.242764
1.637976 1.084564 -0.171871
1.641730 1.083755 -0.382381
1.648759 1.087983 -0.312869
1.651897 1.090054 -0.243007
1.639867 1.081703 -0.171871
1.645258 1.081967 -0.382763
1.652306 1.086188 -0.313182
1.655457 1.088259 -0.243251
1.638422 1.076651 -0.171522
1.637291 1.072639 -0.380473
1.642632 1.075727 -0.310992
1.659014 1.086456 -0.243495
1.646966 1.078156 -0.172220
1.645737 1.074072 -0.382000
1.646162 1.073938 -0.311305
1.657583 1.081389 -0.243007
1.643839 1.072014 -0.171697
1.639380 1.065846 -0.380092
1.653002 1.074293 -0.312243
1.656138 1.076332 -0.242520
1.654061 1.074571 -0.172568
1.649477 1.068320 -0.382000
1.654874 1.071407 -0.312243
1.664680 1.077755 -0.243495
1.645898 1.065187 -0.171522
1.644740 1.061182 -0.380473
1.650102 1.064234 -0.310992
1.661554 1.071620 -0.242764
1.641057 1.057994 -0.170825
1.663105 1.068925 -0.384289
1.651956 1.061352 -0.310992
1.670102 1.073010 -0.243739
1.649606 1.059435 -0.171522
1.646780 1.054376 -0.380092
1.653807 1.058467 -0.310992
1.666957 1.066883 -0.243007
1.654809 1.058702 -0.171871
1.661860 1.059945 -0.383144
1.655651 1.055580 -0.310992
1.683880 1.073577 -0.245201
1.658335 1.056883 -0.172045
1.643823 1.044410 -0.378565
1.665829 1.057983 -0.312556
1.665643 1.057865 -0.242276
1.655131 1.050783 -0.171522
1.644822 1.041421 -0.449452
1.653938 1.046789 -0.380473
1.659142 1.050083 -0.310992
1.685940 1.066631 -0.244957
1.656962 1.047893 -0.171522
1.667881 1.052355 -0.455301
1.660561 1.047332 -0.381618
1.659302 1.046132 -0.310679
1.677723 1.057337 -0.243495
1.660292 1.046352 -0.171697
1.664766 1.046331 -0.453951
1.657400 1.041299 -0.380473
1.662798 1.044285 -0.310992
1.669295 1.048365 -0.242033
1.665491 1.045570 -0.172045
1.664937 1.042390 -0.453501
1.660879 1.039445 -0.380855
1.667968 1.043476 -0.311617
1.671122 1.045450 -0.242033
1.663934 1.040550 -0.171697
1.651873 1.030201 -0.449452
1.652694 1.030313 -0.378565
1.669786 1.040564 -0.311617
1.674629 1.043582 -0.242276
1.669130 1.039751 -0.172045
1.665255 1.034515 -0.452602
1.664497 1.033642 -0.380855
1.671600 1.037648 -0.311617
1.678135 1.041705 -0.242520
1.667556 1.034735 -0.171697
1.663744 1.029556 -0.451702
1.662959 1.028670 -0.380092
1.673408 1.034729 -0.311617
1.683327 1.040862 -0.243007
1.671055 1.032870 -0.171871
1.724593 1.065547 -0.106242
1.657244 1.021538 -0.449452
1.679795 1.035035 -0.383526
1.675212 1.031806 -0.311617
1.678380 1.033758 -0.242033
1.676248 1.032041 -0.172220
1.726450 1.062536 -0.106242
1.670649 1.025782 -0.452602
1.676580 1.029020 -0.382381
1.675147 1.028141 -0.311305
1.680182 1.030827 -0.242033
1.676348 1.028073 -0.172045
1.672258 1.023157 -0.452602
1.666470 1.019215 -0.379710
1.681995 1.028307 -0.312243
1.681979 1.027893 -0.242033
1.672861 1.022321 -0.171522
1.723147 1.052639 -0.105823
1.680697 1.024293 -0.454401
1.676629 1.021412 -0.381618
1.680413 1.023314 -0.311617
1.686982 1.027315 -0.242520
1.671239 1.017329 -0.171174
1.674153 1.016302 -0.452152
1.680088 1.019502 -0.382000
1.675440 1.016283 -0.310366
1.692167 1.026429 -0.243007
1.676419 1.016476 -0.171522
1.692651 1.025913 -0.103730
1.674258 1.012369 -0.451702
1.663383 1.005397 -0.377802
1.680593 1.015400 -0.310992
1.692256 1.022447 -0.242764
1.678191 1.013548 -0.171522
1.699568 1.026054 -0.104044
1.669344 1.005424 -0.449902
1.685318 1.014645 -0.382381
1.682362 1.012465 -0.310992
1.687235 1.015397 -0.241789
1.686786 1.014726 -0.172220
1.691086 1.016912 -0.103416
1.689570 1.013993 -0.527991
1.681123 1.008525 -0.452602
1.660147 0.995547 -0.376275
1.690904 1.013590 -0.312243
1.692410 1.014492 -0.242276
1.681719 1.007684 -0.171522
1.704853 1.021142 -0.104149
1.699628 1.015998 -0.530579
1.677862 1.002590 -0.451252
1.683793 1.005735 -0.381236
1.689279 1.008611 -0.311617
1.695883 1.012554 -0.242520
1.676631 1.000664 -0.170825
1.703202 1.016119 -0.103939
1.694758 1.009077 -0.528508
1.672911 0.995674 -0.449452
1.670361 0.993760 -0.377802
1.684245 1.001623 -0.310366
1.697647 1.009593 -0.242520
1.686938 1.002827 -0.171697
1.706690 1.014164 -0.104044
1.683224 0.998235 -0.524367
1.677999 0.994739 -0.450352
1.692361 1.002854 -0.382381
1.685990 0.998682 -0.310366
1.699406 1.006629 -0.242520
1.685257 0.997850 -0.171348
1.701582 1.007115 -0.103625
1.694944 1.001190 -0.527473
1.678055 0.990818 -0.449902
1.690727 0.997903 -0.381618
1.691134 0.997745 -0.310992
1.697742 1.001644 -0.242033
1.692145 0.997943 -0.171871
1.708499 1.007186 -0.103939
1.691694 0.995291 -0.525920
1.694899 0.996779 -0.453951
1.689081 0.992961 -0.380855
1.699685 0.998795 -0.312243
1.697776 0.997673 -0.241789
1.692166 0.993979 -0.171697
1.711976 1.005215 -0.104044
1.683428 0.986476 -0.522814
1.694955 0.992835 -0.453501
1.687423 0.988027 -0.380092
1.701252 0.996124 -0.312243
1.708081 0.999722 -0.243007
1.688739 0.988007 -0.171174
1.713728 1.002225 -0.104044
1.693489 0.988407 -0.525403
1.688097 0.985260 -0.451252
1.699147 0.991312 -0.382381
1.692749 0.987182 -0.310366
1.709822 0.996740 -0.243007
1.688567 0.984349 -0.171000
1.706672 0.994504 -0.103521
1.696710 0.986716 -0.525920
1.688130 0.981332 -0.450802
1.697480 0.986371 -0.381618
1.697886 0.986211 -0.310992
1.707953 0.992058 -0.242520
1.704067 0.989403 -0.172394
1.708405 0.991524 -0.103521
1.698429 0.983753 -0.525920
1.681407 0.973502 -0.448552
1.692402 0.979474 -0.380092
1.703024 0.985224 -0.311617
1.699372 0.983112 -0.241058
1.700617 0.983436 -0.171871
1.713592 0.990540 -0.103730
1.700143 0.980788 -0.525920
1.694921 0.977381 -0.451702
1.690707 0.974558 -0.379328
1.704741 0.982251 -0.311617
1.711406 0.986091 -0.242520
1.695425 0.976489 -0.171174
1.717049 0.988543 -0.103835
1.695153 0.973969 -0.523850
1.701694 0.977332 -0.453051
1.695811 0.973561 -0.380092
1.703027 0.977307 -0.310992
1.709681 0.981126 -0.242033
1.690214 0.969562 -0.170477
1.723969 0.988526 -0.104149
1.701880 0.973887 -0.525403
1.705088 0.975329 -0.453501
1.695804 0.969624 -0.379710
1.697870 0.970412 -0.309740
1.711391 0.978140 -0.242033
1.698823 0.970565 -0.171174
1.725692 0.985515 -0.104149
1.705256 0.971872 -0.525920
1.693242 0.964634 -0.449902
1.709435 0.973464 -0.382381
1.706427 0.971357 -0.310992
1.709645 0.973188 -0.241545
1.700515 0.967598 -0.171174
1.715257 0.975590 -0.103416
1.706949 0.968894 -0.525920
1.681364 0.953984 -0.446303
1.706009 0.967573 -0.381236
1.711557 0.970326 -0.311617
1.711341 0.970203 -0.241545
1.709134 0.968558 -0.171871
1.722170 0.975548 -0.103730
1.710319 0.966865 -0.526438
1.706779 0.964469 -0.452602
1.697438 0.958801 -0.378947
1.709808 0.965394 -0.310992
1.723403 0.973071 -0.243007
1.702147 0.960676 -0.171000
1.727350 0.974503 -0.103939
1.700221 0.957243 -0.522814
1.713555 0.964356 -0.453951
1.704242 0.958725 -0.380092
1.711490 0.962408 -0.310992
1.721638 0.968115 -0.242520
1.702084 0.956728 -0.170825
1.727306 0.970509 -0.103835
1.706944 0.957109 -0.524367
1.710135 0.958507 -0.452602
1.704200 0.954789 -0.379710
1.706273 0.955559 -0.309740
1.719861 0.963169 -0.242033
1.703751 0.953757 -0.170825
1.742941 0.975295 -0.104672
1.711985 0.956012 -0.525403
1.687983 0.942223 -0.446303
1.714436 0.956596 -0.381618
1.714839 0.956428 -0.310992
1.723274 0.961132 -0.242276
1.707153 0.951751 -0.171000
1.728939 0.963501 -0.103730
1.718716 0.955840 -0.526956
1.706658 0.948744 -0.450802
1.714388 0.952648 -0.381236
1.719959 0.955353 -0.311617
1.723213 0.957160 -0.242033
1.715780 0.952639 -0.171697
1.732365 0.961451 -0.103835
1.708552 0.946287 -0.523332
1.713426 0.948595 -0.452152
1.704023 0.943001 -0.378565
1.724915 0.954563 -0.312243
1.723143 0.953190 -0.241789
1.713953 0.947714 -0.171348
1.735788 0.959392 -0.103939
1.706818 0.941437 -0.522297
1.714913 0.945902 -0.452152
1.710660 0.943167 -0.379710
1.723118 0.949644 -0.311617
1.726543 0.951138 -0.242033
1.711949 0.943098 -0.171000
1.740792 0.958591 -0.104149
1.709987 0.939685 -0.522814
1.714854 0.941970 -0.451702
1.719187 0.943960 -0.381236
1.715950 0.942183 -0.310053
1.738477 0.954156 -0.243495
1.711845 0.939151 -0.170825
1.738959 0.953632 -0.103939
1.711625 0.936699 -0.522814
1.695817 0.928048 -0.446303
1.718946 0.940315 -0.380855
1.715859 0.938238 -0.309740
1.727946 0.944456 -0.241789
1.722060 0.941239 -0.171697
1.736950 0.948983 -0.103730
1.721739 0.938332 -0.525403
1.712997 0.933182 -0.450352
1.719023 0.936075 -0.380473
1.728067 0.940608 -0.311617
1.727849 0.940489 -0.241545
1.727364 0.939835 -0.172045
1.738768 0.945647 -0.103730
1.779706 0.967508 -0.035359
1.714884 0.930719 -0.522814
1.721475 0.933908 -0.452152
1.718929 0.932137 -0.380092
1.733179 0.939474 -0.312243
1.734722 0.940311 -0.242276
1.721994 0.933023 -0.171348
1.743929 0.944513 -0.103939
1.765565 0.955832 -0.035044
1.714806 0.926807 -0.522297
1.726532 0.932754 -0.453051
1.722280 0.930068 -0.380473
1.731339 0.934571 -0.311617
1.736361 0.937282 -0.242276
1.711347 0.923393 -0.170128
1.749091 0.943364 -0.104149
1.763710 0.950853 -0.034975
1.721525 0.926558 -0.523850
1.726441 0.928816 -0.452602
1.722172 0.926131 -0.380092
1.729488 0.929677 -0.310992
1.743240 0.937069 -0.243007
1.723486 0.926063 -0.171174
1.747215 0.938420 -0.103939
1.767129 0.948718 -0.035010
1.726545 0.925378 -0.524885
1.707446 0.914757 -0.447203
1.730708 0.926832 -0.381618
1.734591 0.928522 -0.311617
1.739622 0.931215 -0.242276
1.728613 0.924932 -0.171522
1.745328 0.933485 -0.103730
1.763491 0.942804 -0.034905
1.728157 0.922362 -0.524885
1.729672 0.922784 -0.452602
1.727126 0.921038 -0.380473
1.730980 0.922705 -0.310679
1.739493 0.927243 -0.242033
1.731983 0.922852 -0.171697
1.746954 0.930438 -0.103730
1.754544 0.934086 -0.034695
1.728058 0.918439 -0.524367
1.715791 0.911535 -0.448552
1.725263 0.916180 -0.379710
1.744801 0.926166 -0.312869
1.744615 0.926068 -0.242520
1.728311 0.917026 -0.171174
1.748576 0.927387 -0.103730
1.750871 0.928213 -0.034591
1.724536 0.912710 -0.522814
1.743218 0.922208 -0.455301
1.730331 0.915004 -0.380473
1.734190 0.916657 -0.310679
1.744474 0.922093 -0.242276
1.722863 0.910285 -0.170477
1.757256 0.928065 -0.104149
1.754257 0.926089 -0.034626
1.726127 0.909699 -0.522814
1.718963 0.905540 -0.448552
1.731925 0.911982 -0.380473
1.733880 0.913012 -0.310366
1.749594 0.920896 -0.242764
1.727975 0.909132 -0.170825
1.751802 0.921278 -0.103730
1.766490 0.928609 -0.034835
1.731133 0.908480 -0.523850
1.732462 0.909178 -0.451702
1.740310 0.912908 -0.382000
1.735471 0.909984 -0.310366
1.747682 0.915998 -0.242276
1.732930 0.908267 -0.171174
1.753248 0.918524 -0.103730
1.778576 0.931399 -0.035044
1.742830 0.911130 -0.526956
1.732320 0.905250 -0.451252
1.734940 0.906234 -0.380473
1.738808 0.907867 -0.310679
1.745600 0.911414 -0.241789
1.738046 0.907084 -0.171522
1.756618 0.916388 -0.103835
1.762468 0.919047 -0.034695
1.734136 0.902734 -0.523850
1.739083 0.904924 -0.452602
1.727810 0.898675 -0.378565
1.745647 0.907565 -0.311617
1.748949 0.909282 -0.242033
1.734322 0.901294 -0.171000
1.761760 0.915161 -0.104044
1.762294 0.915048 -0.034660
1.727134 0.895261 -0.521262
1.726817 0.894715 -0.449002
1.738093 0.900172 -0.380473
1.747229 0.904517 -0.311617
1.748770 0.905315 -0.241789
1.737662 0.899180 -0.171174
1.765129 0.913003 -0.104149
1.765665 0.912890 -0.034695
1.735560 0.895790 -0.523332
1.740499 0.897954 -0.452152
1.734426 0.894438 -0.379328
1.741781 0.897846 -0.310366
1.762699 0.908629 -0.243495
1.739229 0.896146 -0.171174
1.757841 0.905348 -0.103625
1.767256 0.909807 -0.034695
1.737121 0.892759 -0.523332
1.733397 0.890462 -0.449902
1.751703 0.899480 -0.382763
1.750375 0.898413 -0.311617
1.758984 0.902832 -0.242764
1.746109 0.895837 -0.171697
1.759419 0.902278 -0.103625
1.779518 0.912194 -0.034905
1.747275 0.894126 -0.525920
1.726274 0.882999 -0.447653
1.739286 0.889272 -0.379710
1.751941 0.895356 -0.311617
1.765860 0.902470 -0.243495
1.749444 0.893695 -0.171871
1.760991 0.899207 -0.103625
1.772202 0.904541 -0.034730
1.745391 0.889321 -0.524885
1.750386 0.891483 -0.453501
1.740836 0.886235 -0.379710
1.764064 0.897673 -0.313495
1.762125 0.896686 -0.242764
1.743897 0.887028 -0.171174
1.771460 0.900658 -0.104149
1.766647 0.897823 -0.034591
1.740049 0.882777 -0.522814
1.755416 0.890188 -0.454401
1.751135 0.887633 -0.381618
1.758580 0.891020 -0.312243
1.763688 0.893608 -0.242764
1.738333 0.880382 -0.170477
1.769465 0.895760 -0.103939
1.780702 0.901057 -0.034835
1.743311 0.880610 -0.523332
1.741310 0.879218 -0.450352
1.750929 0.883691 -0.381236
1.749550 0.882612 -0.310366
1.765244 0.890530 -0.242764
1.746983 0.880935 -0.171174
1.769242 0.891771 -0.103835
1.776914 0.895250 -0.034730
1.751749 0.881039 -0.525403
1.748066 0.878803 -0.451702
1.752469 0.880633 -0.381236
1.754618 0.881331 -0.310992
1.766796 0.887448 -0.242764
1.753860 0.880566 -0.171697
1.765441 0.885995 -0.103521
1.785623 0.895734 -0.034870
1.751557 0.877114 -0.524885
1.742627 0.872262 -0.449902
1.757514 0.879331 -0.382000
1.759533 0.880342 -0.311617
1.786097 0.893241 -0.245201
1.760740 0.880176 -0.172220
1.770557 0.884698 -0.103730
1.778239 0.888148 -0.034695
1.751356 0.873194 -0.524367
1.759691 0.877349 -0.453951
1.755379 0.874819 -0.381236
1.766372 0.879911 -0.312556
1.768106 0.880390 -0.242520
1.751420 0.872081 -0.171174
1.786249 0.889036 -0.104567
1.783213 0.887135 -0.034765
1.742344 0.865286 -0.521262
1.761219 0.874276 -0.453951
1.758662 0.872625 -0.381618
1.762443 0.874501 -0.311617
1.773043 0.879375 -0.243007
1.749369 0.867252 -0.170825
1.787798 0.885916 -0.104567
1.790134 0.886684 -0.034870
1.750779 0.865669 -0.523332
1.760844 0.870645 -0.453501
1.756510 0.868122 -0.380855
1.755112 0.867050 -0.310053
1.772796 0.875400 -0.242764
1.757875 0.868032 -0.171522
1.767696 0.872499 -0.103311
1.791525 0.883872 -0.034870
1.757486 0.865172 -0.524885
1.734535 0.853498 -0.446303
1.766983 0.869080 -0.382763
1.762091 0.866292 -0.310992
1.774321 0.872305 -0.242764
1.759538 0.864657 -0.171522
1.774746 0.871745 -0.103625
1.800398 0.883955 -0.035010
1.764197 0.864654 -0.526438
1.764023 0.864186 -0.453501
1.759681 0.861678 -0.380855
1.770697 0.866690 -0.312243
1.765142 0.863972 -0.241301
1.768203 0.865086 -0.172220
1.774470 0.867769 -0.103521
1.791159 0.875543 -0.034800
1.758759 0.858184 -0.524367
1.749765 0.853417 -0.449452
1.761182 0.858606 -0.380855
1.777383 0.866504 -0.313182
1.773786 0.864367 -0.242276
1.766128 0.860254 -0.171871
1.777778 0.865545 -0.103625
1.785492 0.868915 -0.034660
1.758517 0.854270 -0.523850
1.770384 0.860035 -0.454401
1.762529 0.855837 -0.380855
1.768230 0.858226 -0.311305
1.784222 0.865602 -0.243495
1.758514 0.853131 -0.171000
1.784527 0.865365 -0.103939
1.794052 0.869598 -0.034800
1.758117 0.850665 -0.523332
1.750831 0.846761 -0.449002
1.767554 0.854470 -0.381618
1.767947 0.854279 -0.310992
1.785579 0.862799 -0.243495
1.760001 0.850060 -0.171000
1.796826 0.867460 -0.104567
1.800970 0.869073 -0.034905
1.763081 0.849271 -0.524367
1.834005 0.883436 0.035533
1.766352 0.850468 -0.452602
1.776119 0.854789 -0.383144
1.772996 0.852904 -0.311617
1.778138 0.855378 -0.242276
1.765073 0.848713 -0.171348
1.780336 0.855671 -0.103521
1.804287 0.866794 -0.034940
1.768044 0.847864 -0.525403
1.837347 0.881098 0.035568
1.744989 0.836433 -0.446753
1.766986 0.846598 -0.380855
1.778045 0.851515 -0.312243
1.781419 0.853131 -0.242520
1.770146 0.847352 -0.171697
1.798041 0.860320 -0.104463
1.798581 0.860193 -0.034800
1.759061 0.839783 -0.522297
1.824445 0.870998 0.035289
1.767551 0.843458 -0.452152
1.768460 0.843513 -0.380855
1.784877 0.850961 -0.313182
1.782905 0.850020 -0.242520
1.768024 0.842547 -0.171348
1.795934 0.855463 -0.104253
1.794663 0.854473 -0.034695
1.760524 0.836712 -0.522297
1.813320 0.861804 0.035044
1.781342 0.846225 -0.455301
1.777024 0.843793 -0.382381
1.773868 0.841916 -0.310992
1.786179 0.847759 -0.242764
1.764092 0.836899 -0.170825
1.808253 0.857461 -0.104881
1.805187 0.855622 -0.034870
1.765474 0.835290 -0.523332
1.794938 0.849231 0.034660
1.758153 0.831450 -0.449002
1.782044 0.842369 -0.383144
1.775334 0.838818 -0.310992
1.794835 0.848032 -0.243739
1.769153 0.835519 -0.171174
1.800715 0.850042 -0.104358
1.803061 0.850763 -0.034800
1.775668 0.836323 -0.525920
1.794609 0.845244 0.034626
1.768417 0.832532 -0.451252
1.783511 0.839257 -0.383144
1.780371 0.837400 -0.311617
1.785535 0.839828 -0.242276
1.774215 0.834126 -0.171522
1.793158 0.842650 -0.103835
1.811782 0.851016 -0.034940
1.773626 0.831583 -0.524885
1.797892 0.842960 0.034660
1.778690 0.833578 -0.453501
1.781418 0.834477 -0.382381
1.785408 0.835966 -0.312243
1.801380 0.843445 -0.244226
1.779277 0.832717 -0.171871
1.803671 0.843750 -0.104358
1.806019 0.844465 -0.034800
1.773324 0.827669 -0.524367
1.802984 0.841512 0.034730
1.781909 0.831297 -0.453951
1.775754 0.828048 -0.380855
1.794026 0.836187 -0.313495
1.795652 0.836945 -0.243251
1.780728 0.829611 -0.171871
1.808762 0.842288 -0.104567
1.803864 0.839624 -0.034730
1.764254 0.819689 -0.521262
1.795382 0.834151 0.034556
1.786892 0.829826 -0.454851
1.780758 0.826600 -0.381618
1.788315 0.829729 -0.312243
1.815117 0.842165 -0.245689
1.776751 0.823986 -0.171348
1.813854 0.840809 -0.104777
1.805327 0.836474 -0.034730
1.777956 0.822284 -0.524885
1.804096 0.834373 0.034695
1.781262 0.823436 -0.453051
1.785762 0.825139 -0.382381
1.780650 0.822777 -0.310679
1.802167 0.832336 -0.243739
1.778186 0.820884 -0.171348
1.811691 0.835969 -0.104567
1.806784 0.833321 -0.034730
1.779389 0.819180 -0.524885
1.801916 0.829551 0.034626
1.782553 0.820637 -0.453051
1.790623 0.823974 -0.383144
1.787467 0.822143 -0.311617
1.796403 0.825873 -0.242764
1.788524 0.822251 -0.172220
1.803928 0.828952 -0.104044
1.818994 0.835490 -0.034940
1.789454 0.820410 -0.527473
1.806853 0.828387 0.034695
1.785754 0.818337 -0.453501
1.786704 0.818395 -0.382000
1.790696 0.819845 -0.311930
1.795893 0.822224 -0.242520
1.793580 0.820787 -0.172568
1.809005 0.827464 -0.104253
1.816812 0.830652 -0.034870
1.789126 0.816483 -0.526956
1.811934 0.826892 0.034765
1.772996 0.808749 -0.449902
1.786343 0.814461 -0.381618
1.797516 0.819175 -0.312869
1.813583 0.826497 -0.244714
1.784131 0.812700 -0.171522
1.815899 0.826788 -0.104567
1.821900 0.829135 -0.034940
1.785271 0.810962 -0.525403
1.806092 0.820420 0.034626
1.790374 0.812904 -0.453951
1.791338 0.812964 -0.382381
1.795346 0.814405 -0.312243
1.809599 0.820870 -0.243982
1.783732 0.808762 -0.171348
1.819159 0.824441 -0.104672
1.816058 0.822654 -0.034800
1.788444 0.808642 -0.525920
1.805699 0.816444 0.034591
1.798894 0.812988 -0.455751
1.790965 0.809028 -0.382000
1.787762 0.807207 -0.310679
1.811028 0.817712 -0.243982
1.786957 0.806467 -0.171522
1.820595 0.821265 -0.104672
1.824782 0.822772 -0.034940
1.788091 0.804726 -0.525403
1.808945 0.814111 0.034626
1.789647 0.805050 -0.453051
1.797745 0.808317 -0.383144
1.796376 0.807323 -0.311930
1.807021 0.812108 -0.243251
1.795632 0.806612 -0.172220
1.812916 0.813996 -0.104149
1.829865 0.821223 -0.035010
1.794782 0.803973 -0.526956
1.814013 0.812588 0.034695
1.796385 0.804314 -0.454401
1.799154 0.805178 -0.383144
1.801388 0.805800 -0.312556
1.804812 0.807332 -0.242764
1.800675 0.805103 -0.172568
1.816157 0.811646 -0.104253
1.822166 0.813950 -0.034835
1.790889 0.798479 -0.525403
1.824561 0.813491 0.034870
1.781766 0.794039 -0.450352
1.786209 0.795646 -0.380092
1.808206 0.805065 -0.313495
1.826167 0.813061 -0.245445
1.791155 0.797100 -0.171522
1.824870 0.811722 -0.104672
1.819929 0.809143 -0.034765
1.794046 0.796136 -0.525920
1.822322 0.808683 0.034800
1.802744 0.799620 -0.455301
1.796569 0.796505 -0.382000
1.802384 0.798707 -0.312243
1.814878 0.804243 -0.243739
1.792543 0.793973 -0.171522
1.826284 0.808535 -0.104672
1.828653 0.809202 -0.034905
1.795432 0.793004 -0.525920
1.810925 0.799847 0.034556
1.782744 0.787027 -0.449902
1.797956 0.793368 -0.382000
1.800160 0.793966 -0.311617
1.838074 0.810689 -0.246664
1.801219 0.794057 -0.172220
1.827693 0.805347 -0.104672
1.826402 0.804399 -0.034835
1.798582 0.790646 -0.526438
1.815980 0.798294 0.034626
1.800172 0.790970 -0.453951
1.801136 0.791019 -0.382381
1.810587 0.794793 -0.313182
1.810404 0.794712 -0.242764
1.802602 0.790912 -0.172220
1.823609 0.799748 -0.104358
1.835130 0.804420 -0.034975
1.808809 0.791378 -0.529026
1.824699 0.798330 0.034765
1.801550 0.787826 -0.453951
1.809709 0.791019 -0.383908
1.806541 0.789259 -0.312243
1.811788 0.791551 -0.242764
1.807632 0.789359 -0.172568
1.828662 0.798163 -0.104567
1.829199 0.798018 -0.034835
1.801332 0.784363 -0.526438
1.837090 0.799933 0.034975
1.802922 0.784682 -0.453951
1.802086 0.783944 -0.382000
1.815163 0.789255 -0.313495
1.813167 0.788387 -0.242764
1.805352 0.784615 -0.172220
1.839212 0.798950 -0.105091
1.830590 0.794823 -0.034835
1.797380 0.778913 -0.524885
1.831144 0.793545 0.034835
1.815018 0.786182 -0.456651
1.887698 0.817663 0.107812
1.808856 0.783137 -0.383144
1.811098 0.783732 -0.312556
1.821828 0.788375 -0.243739
1.799404 0.778300 -0.171522
1.842437 0.796530 -0.105195
1.830138 0.790834 -0.034800
1.805832 0.778835 -0.526956
1.825181 0.787181 0.034695
1.805650 0.778383 -0.453951
1.806614 0.778425 -0.382381
1.812464 0.780570 -0.312556
1.823201 0.785195 -0.243739
1.802590 0.775945 -0.171697
1.825478 0.785420 -0.104149
1.837027 0.790009 -0.034905
1.807188 0.775683 -0.526956
1.835740 0.787938 0.034870
1.799842 0.772157 -0.452152
1.864844 0.800044 0.106347
1.815188 0.778366 -0.383908
1.820949 0.780836 -0.313808
1.837340 0.787486 -0.245445
1.807604 0.774367 -0.172045
1.830518 0.783804 -0.104358
1.843918 0.789162 -0.035010
1.815646 0.775563 -0.529026
1.840791 0.786304 0.034940
1.808221 0.772392 -0.453951
1.884606 0.804630 0.107393
1.818214 0.776284 -0.384289
1.820492 0.776882 -0.313495
1.822278 0.777268 -0.243251
1.817981 0.775435 -0.172917
1.837259 0.783278 -0.104672
1.837797 0.783129 -0.034870
1.811528 0.770442 -0.527473
1.838343 0.781846 0.034870
1.816741 0.772283 -0.455751
1.884030 0.800888 0.107289
1.814145 0.770807 -0.383144
1.830936 0.777564 -0.315059
1.830942 0.777189 -0.244226
1.811996 0.769147 -0.172220
1.840461 0.780851 -0.104777
1.835479 0.778359 -0.034800
1.809446 0.765457 -0.526438
1.836158 0.776757 0.034800
1.819880 0.769871 -0.456201
1.887404 0.798047 0.107393
1.811871 0.766110 -0.382381
1.825013 0.771291 -0.313808
1.828638 0.772447 -0.243739
1.809798 0.764117 -0.171871
1.854838 0.782752 -0.105509
1.844340 0.777942 -0.034940
1.814340 0.763797 -0.527473
1.833824 0.771999 0.034730
1.799801 0.757306 -0.450802
1.892475 0.796301 0.107603
1.811529 0.761869 -0.382000
1.820893 0.765807 -0.312869
1.829983 0.769254 -0.243739
1.818477 0.764044 -0.172568
1.839628 0.772553 -0.104567
1.851226 0.777044 -0.035044
1.812107 0.759136 -0.526438
1.838858 0.770343 0.034800
1.815367 0.760502 -0.454401
1.855174 0.776798 0.105405
1.827210 0.765089 -0.385053
1.824049 0.763391 -0.313182
1.834986 0.767592 -0.244226
1.817836 0.760418 -0.172394
1.837154 0.768122 -0.104358
1.850600 0.773363 -0.035010
1.825778 0.761495 -0.530061
1.845602 0.769763 0.034905
1.818490 0.758082 -0.454851
1.856393 0.773882 0.105405
1.823107 0.759632 -0.383908
1.830850 0.762485 -0.314120
1.832524 0.763182 -0.243739
1.819161 0.757243 -0.172394
1.844024 0.767215 -0.104672
1.848253 0.768598 -0.034940
1.816399 0.753863 -0.526956
1.852484 0.768839 0.035010
1.827011 0.757894 -0.456651
1.831913 0.759927 0.103939
1.817175 0.753443 -0.382381
1.834003 0.760044 -0.314433
1.833854 0.759982 -0.243739
1.816799 0.752543 -0.172045
1.856432 0.768581 -0.105300
1.838506 0.760782 -0.034730
1.810570 0.747742 -0.524885
1.850126 0.764079 0.034940
1.831933 0.756191 -0.457550
1.829544 0.755205 0.103730
1.818488 0.750269 -0.382381
1.828022 0.753830 -0.313182
1.837012 0.757537 -0.243982
1.816267 0.748611 -0.171871
1.857771 0.765339 -0.105300
1.847227 0.760618 -0.034870
1.819019 0.747518 -0.526956
1.836660 0.754768 0.034660
1.826040 0.750031 -0.455751
1.845639 0.758081 0.104567
1.827059 0.750077 -0.383908
1.829334 0.750638 -0.313182
1.843841 0.756591 -0.244714
1.817571 0.745441 -0.171871
1.857256 0.761338 -0.105195
1.850402 0.758151 -0.034905
1.827474 0.747267 -0.529026
1.845378 0.754589 0.034800
1.823738 0.745368 -0.454851
1.834017 0.749570 0.103835
1.832000 0.748371 -0.384671
1.834299 0.748938 -0.313808
1.841483 0.751871 -0.244226
1.824403 0.744526 -0.172394
1.854883 0.756586 -0.104986
1.859130 0.757940 -0.035044
1.828775 0.744077 -0.529026
1.848545 0.752121 0.034835
1.828647 0.743652 -0.455751
1.826073 0.742605 0.103311
1.826029 0.742216 -0.383144
1.842924 0.748709 -0.315059
1.853827 0.753139 -0.245689
1.834930 0.745088 -0.173266
1.850649 0.751094 -0.104672
1.854890 0.752440 -0.034940
1.824699 0.738708 -0.527473
1.862830 0.754145 0.035079
1.838974 0.744114 -0.458000
1.834772 0.742414 0.103730
1.823681 0.737557 -0.382381
1.846059 0.746231 -0.315372
1.840416 0.743950 -0.243739
1.825144 0.737406 -0.172220
1.855661 0.749360 -0.104881
1.850638 0.746955 -0.034835
1.822402 0.734079 -0.526438
1.854869 0.747157 0.034905
1.834847 0.738720 -0.456651
1.843475 0.742194 0.104149
1.826787 0.735105 -0.382763
1.840028 0.740060 -0.314120
1.849078 0.743700 -0.244714
1.826428 0.734219 -0.172220
1.877352 0.754310 -0.106033
1.859362 0.746705 -0.034975
1.827266 0.732334 -0.527473
1.850602 0.741686 0.034800
1.836133 0.735517 -0.456651
1.852184 0.741946 0.104567
1.839003 0.736294 -0.385053
1.839483 0.736113 -0.313808
1.852217 0.741208 -0.244957
1.827706 0.731031 -0.172220
1.848992 0.739170 -0.104358
1.860662 0.743458 -0.034975
1.828541 0.729145 -0.527473
1.861180 0.742160 0.034975
1.830173 0.729425 -0.454851
1.853476 0.738713 0.104567
1.845757 0.735262 -0.386197
1.835259 0.730710 -0.312869
1.844285 0.734304 -0.243739
1.836384 0.730787 -0.172917
1.855847 0.738156 -0.104672
1.865673 0.741687 -0.035044
1.838790 0.729515 -0.530061
1.860614 0.738173 0.034940
1.831444 0.726229 -0.454851
1.832483 0.726641 0.103311
1.837911 0.728423 -0.384289
1.843878 0.730416 -0.314120
1.845564 0.731084 -0.243739
1.841362 0.729047 -0.173266
1.855276 0.734181 -0.104567
1.863245 0.736960 -0.034975
1.840060 0.726304 -0.530061
1.873060 0.739329 0.035149
1.839960 0.725893 -0.456651
1.844896 0.727840 0.103939
1.830048 0.721614 -0.382381
1.848826 0.728645 -0.314746
1.850532 0.729317 -0.244226
1.837070 0.723641 -0.172743
1.863987 0.733870 -0.104986
1.858947 0.731509 -0.034870
1.826940 0.717442 -0.525920
1.868763 0.733866 0.035044
1.848480 0.725527 -0.458450
1.859178 0.729726 0.104672
1.842270 0.722720 -0.384671
1.851807 0.726461 -0.315059
1.862890 0.730434 -0.245689
1.830911 0.717525 -0.172045
1.878284 0.735714 -0.105719
1.865807 0.730451 -0.034975
1.829989 0.714955 -0.526438
1.857004 0.725509 0.034800
1.842357 0.719787 -0.456651
1.860448 0.726481 0.104672
1.841575 0.719112 -0.384289
1.840190 0.718201 -0.312869
1.856765 0.724295 -0.244714
1.841316 0.718269 -0.172917
1.864550 0.726958 -0.104881
1.870678 0.728971 -0.035044
1.838312 0.714880 -0.528508
1.863732 0.724765 0.034905
1.839977 0.715159 -0.455751
1.856002 0.721388 0.104358
1.844657 0.716607 -0.384671
1.850649 0.718562 -0.314433
1.857900 0.721378 -0.244714
1.846282 0.716497 -0.173266
1.865816 0.723703 -0.104881
1.875677 0.727150 -0.035114
1.848565 0.715156 -0.531097
1.872454 0.724398 0.035044
1.846675 0.714055 -0.457101
1.859121 0.718868 0.104463
1.840411 0.711263 -0.383526
1.855585 0.716755 -0.315059
1.866563 0.720995 -0.245689
1.845671 0.712556 -0.173091
1.865213 0.719726 -0.104777
1.869480 0.720998 -0.034975
1.838992 0.707766 -0.527991
1.873715 0.721130 0.035044
1.840644 0.708032 -0.455301
1.858510 0.714904 0.104358
1.848980 0.710868 -0.385053
1.854989 0.712807 -0.314746
1.856701 0.713465 -0.244226
1.846912 0.709333 -0.173091
1.877654 0.720764 -0.105405
1.874470 0.719166 -0.035044
1.833009 0.701792 -0.525920
1.874971 0.717858 0.035044
1.858257 0.711087 -0.459350
1.861620 0.712373 0.104463
1.839215 0.703431 -0.382763
1.858076 0.710274 -0.315059
1.857943 0.710223 -0.244226
1.844424 0.704687 -0.172743
1.884507 0.719623 -0.105719
1.875722 0.715894 -0.035044
1.845063 0.702717 -0.529026
1.868746 0.711737 0.034905
1.848568 0.703682 -0.456651
1.870327 0.711965 0.104881
1.853284 0.705108 -0.385434
1.851927 0.704221 -0.313808
1.866602 0.709802 -0.245201
1.845652 0.701466 -0.172743
1.874557 0.712078 -0.105091
1.876968 0.712619 -0.035044
1.853513 0.702233 -0.531097
1.873726 0.709891 0.034975
1.846148 0.699075 -0.455751
1.864095 0.705871 0.104463
1.858185 0.703262 -0.386197
1.858696 0.703084 -0.314746
1.886405 0.713566 -0.247639
1.846873 0.698244 -0.172743
1.877665 0.709512 -0.105195
1.887563 0.712874 -0.035219
1.863774 0.702403 -0.533685
1.886189 0.710851 0.035184
1.856483 0.699286 -0.458000
1.857848 0.699800 0.104044
1.853897 0.697942 -0.385053
1.861769 0.700535 -0.315059
1.856063 0.698388 -0.243495
1.859278 0.699227 -0.173789
1.884510 0.708341 -0.105509
1.877573 0.705359 -0.035010
1.857762 0.696437 -0.531614
1.883682 0.706154 0.035114
1.859526 0.696729 -0.458450
1.864677 0.698659 0.104358
1.845920 0.691263 -0.383144
1.874089 0.701439 -0.316936
1.883307 0.704889 -0.246907
1.853031 0.693189 -0.173091
1.883873 0.704351 -0.105405
1.884420 0.704181 -0.035114
1.849924 0.689819 -0.529026
1.881164 0.701468 0.035044
1.868043 0.696204 -0.460250
1.873380 0.698193 0.104777
1.847124 0.688040 -0.383144
1.866054 0.694722 -0.315372
1.871512 0.696753 -0.245201
1.850504 0.688564 -0.172743
1.888843 0.702454 -0.105614
1.881898 0.699498 -0.035044
1.854747 0.687933 -0.530061
1.863636 0.691230 0.034695
1.854638 0.687523 -0.456651
1.870850 0.693533 0.104567
1.853844 0.686862 -0.384289
1.861707 0.689405 -0.314433
1.896925 0.702447 -0.248370
1.859177 0.688099 -0.173440
1.882573 0.696386 -0.105195
1.894369 0.700373 -0.035254
1.865008 0.688038 -0.532650
1.876097 0.692129 0.034905
1.850350 0.682264 -0.455301
1.875805 0.691650 0.104777
1.869778 0.689056 -0.387342
1.918090 0.706860 0.178844
1.861054 0.685472 -0.314120
1.873932 0.690216 -0.245201
1.856635 0.683478 -0.173091
1.887535 0.694478 -0.105405
1.897466 0.697756 -0.035289
1.864392 0.684116 -0.532132
1.884811 0.691609 0.035044
1.860686 0.682388 -0.457550
1.862009 0.682873 0.103939
1.863604 0.683089 -0.385816
1.915579 0.702140 0.178495
1.869666 0.684941 -0.315372
1.875134 0.686944 -0.245201
1.865309 0.682976 -0.173789
1.886868 0.690496 -0.105300
1.893046 0.692382 -0.035184
1.865583 0.680861 -0.532132
1.897286 0.692432 0.035254
1.865535 0.680475 -0.458450
1.870703 0.682360 0.104358
1.862949 0.679163 -0.385434
1.928033 0.702890 0.179541
1.880139 0.685058 -0.316936
1.898712 0.691826 -0.248126
1.859010 0.676992 -0.173091
1.886194 0.686519 -0.105195
1.886735 0.686343 -0.035044
1.852241 0.672331 -0.527991
1.883455 0.683661 0.034975
1.872216 0.679211 -0.459800
1.877524 0.681137 0.104672
1.864132 0.675910 -0.385434
1.923638 0.697486 0.179018
1.873903 0.679084 -0.315685
1.877521 0.680395 -0.245201
1.862062 0.674424 -0.173266
1.900535 0.687984 -0.105928
1.893571 0.685090 -0.035149
1.860680 0.671721 -0.530061
1.884645 0.680372 0.034975
1.866066 0.673297 -0.458000
1.882468 0.679215 0.104881
1.872695 0.675321 -0.386961
1.926726 0.694805 0.179192
1.869393 0.674129 -0.314746
1.878705 0.677116 -0.245201
1.857613 0.669148 -0.172743
1.892337 0.681284 -0.105405
1.900409 0.683815 -0.035254
1.869122 0.671084 -0.532132
1.887712 0.677758 0.035010
1.868956 0.671024 -0.458450
1.879890 0.674580 0.104672
1.873754 0.672378 -0.386961
1.918438 0.688413 0.178321
1.876145 0.672866 -0.315685
1.876147 0.672497 -0.244714
1.869915 0.670263 -0.173789
1.893404 0.678311 -0.105405
1.901481 0.680829 -0.035254
1.873813 0.669447 -0.533167
1.890657 0.675465 0.035044
1.870124 0.667761 -0.458450
1.873424 0.668939 0.104253
1.869377 0.667127 -0.385816
1.923390 0.686402 0.178669
1.879177 0.670254 -0.315998
1.897768 0.676885 -0.247395
1.874836 0.668336 -0.174137
1.892704 0.674334 -0.105300
1.897015 0.675497 -0.035149
1.865877 0.662941 -0.530579
1.899370 0.674841 0.035184
1.874959 0.665800 -0.459350
1.882117 0.668342 0.104672
1.868689 0.663206 -0.385434
1.907686 0.677047 0.177100
1.884068 0.668293 -0.316623
1.882109 0.667598 -0.245201
1.868487 0.662401 -0.173440
1.899526 0.673031 -0.105614
1.896306 0.671517 -0.035114
1.865209 0.659041 -0.530061
1.900545 0.671526 0.035184
1.879793 0.663825 -0.460250
1.892696 0.668381 0.105195
1.869844 0.659943 -0.385434
1.899472 0.670400 0.176229
1.881505 0.663690 -0.315998
1.909480 0.673558 -0.248613
1.869640 0.659139 -0.173440
1.910117 0.673033 -0.106137
1.903134 0.670199 -0.035219
1.873647 0.658346 -0.532132
1.894168 0.665557 0.035044
1.877272 0.659251 -0.459350
1.891976 0.664415 0.105091
1.870993 0.656679 -0.385434
1.902519 0.667744 0.176403
1.880796 0.659752 -0.315685
1.895666 0.664968 -0.246664
1.870788 0.655874 -0.173440
1.901864 0.666396 -0.105614
1.906187 0.667538 -0.035254
1.876617 0.655712 -0.532650
1.895326 0.662249 0.035044
1.871061 0.653404 -0.457550
1.889362 0.659795 0.104881
1.875843 0.654707 -0.386197
1.914967 0.668363 0.177449
1.885676 0.657769 -0.316311
1.889327 0.659043 -0.245689
1.875693 0.653920 -0.173789
1.895479 0.660448 -0.105195
1.918681 0.668155 -0.035463
1.877759 0.652435 -0.532650
1.900257 0.660253 0.035114
1.877721 0.652054 -0.458900
1.886737 0.655185 0.104672
1.871419 0.649501 -0.385053
1.916131 0.665019 0.177449
1.884954 0.653830 -0.315998
1.882972 0.653142 -0.244714
1.882479 0.652602 -0.174311
1.909840 0.661715 -0.105928
1.910396 0.661534 -0.035289
1.880720 0.649787 -0.533167
1.908967 0.659547 0.035254
1.886224 0.651321 -0.460700
1.891653 0.653196 0.104881
1.876261 0.647515 -0.385816
1.905989 0.657774 0.176403
1.891695 0.652471 -0.316936
1.891616 0.652443 -0.245689
1.876080 0.646719 -0.173614
1.907215 0.657080 -0.105719
1.905875 0.656245 -0.035184
1.874543 0.643994 -0.531097
1.906333 0.654915 0.035184
1.878142 0.644864 -0.458450
1.900346 0.652488 0.105300
1.877388 0.644238 -0.385816
1.910903 0.655739 0.176752
1.892831 0.649168 -0.316936
1.892752 0.649141 -0.245689
1.873436 0.642152 -0.173266
1.915917 0.656339 -0.106137
1.910802 0.654213 -0.035254
1.882977 0.643220 -0.533167
1.896119 0.647709 0.034975
1.888486 0.644733 -0.460700
1.903373 0.649815 0.105405
1.884084 0.642863 -0.386961
1.919587 0.654976 0.177449
1.893961 0.645865 -0.316936
1.925822 0.656730 -0.249832
1.876441 0.639524 -0.173440
1.913279 0.651706 -0.105928
1.913833 0.651523 -0.035289
1.887755 0.641174 -0.534203
1.901033 0.645684 0.035044
1.880382 0.638304 -0.458450
1.906395 0.647134 0.105509
1.898217 0.643989 -0.389632
1.916954 0.650345 0.177100
1.895085 0.642557 -0.316936
1.891246 0.641256 -0.245201
1.888876 0.640084 -0.174486
1.908738 0.646444 -0.105614
1.922544 0.650746 -0.035428
1.888871 0.637879 -0.534203
1.909736 0.644925 0.035184
1.888879 0.637513 -0.460250
1.890490 0.638057 0.104567
1.880736 0.634400 -0.385816
1.925637 0.649546 0.177798
1.894220 0.638949 -0.316623
1.920578 0.647466 -0.248857
1.897542 0.639331 -0.175183
1.913649 0.644386 -0.105823
1.914201 0.644200 -0.035254
1.889982 0.634580 -0.534203
1.926024 0.646682 0.035463
1.886183 0.633305 -0.459350
1.902961 0.638570 0.105195
1.883591 0.632070 -0.386197
1.924766 0.645887 0.177623
1.902824 0.638154 -0.317875
1.897237 0.635911 -0.245689
1.887210 0.632550 -0.174137
1.916553 0.642014 -0.105928
1.911417 0.639923 -0.035184
1.876318 0.626715 -0.530061
1.911864 0.638588 0.035184
1.900224 0.634332 -0.462499
1.907751 0.636845 0.105405
1.886554 0.629403 -0.386579
1.918331 0.640004 0.176926
1.900187 0.633582 -0.317249
1.902000 0.634186 -0.246176
1.884531 0.627996 -0.173789
1.923355 0.640562 -0.106242
1.918224 0.638480 -0.035289
1.892076 0.628310 -0.534203
1.912976 0.635250 0.035184
1.895780 0.629173 -0.461150
1.910756 0.634143 0.105509
1.891376 0.627345 -0.387342
1.921336 0.637282 0.177100
1.891915 0.627157 -0.315685
1.914410 0.634614 -0.247639
1.896971 0.628466 -0.174834
1.922574 0.636575 -0.106137
1.923132 0.636388 -0.035359
1.900507 0.627429 -0.536273
1.914081 0.631911 0.035184
1.889473 0.623421 -0.459350
1.908066 0.629555 0.105300
1.901791 0.627117 -0.389250
1.930014 0.636424 0.177798
1.894883 0.624472 -0.315998
1.898546 0.625680 -0.245445
1.894280 0.623907 -0.174486
1.917991 0.631346 -0.105823
1.926139 0.633655 -0.035393
1.897928 0.622907 -0.535238
1.922781 0.631063 0.035324
1.897965 0.622552 -0.461150
1.899673 0.623112 0.104777
1.893555 0.620738 -0.387342
1.936802 0.634915 0.178321
1.903479 0.623624 -0.317249
1.920386 0.629164 -0.248126
1.895367 0.620601 -0.174486
1.920988 0.628618 -0.105928
1.921540 0.628428 -0.035289
1.899013 0.619593 -0.535238
1.939088 0.632669 0.035603
1.895343 0.618029 -0.460250
1.908353 0.622271 0.105195
1.889035 0.615609 -0.386197
1.924646 0.627214 0.177100
1.906443 0.620912 -0.317562
1.906381 0.620892 -0.246176
1.890763 0.615441 -0.173963
1.925881 0.626501 -0.106137
1.918831 0.623836 -0.035219
1.892741 0.613893 -0.533167
1.932581 0.626815 0.035463
1.905688 0.617726 -0.462499
1.915136 0.620789 0.105509
1.895710 0.614125 -0.387342
1.927634 0.624467 0.177275
1.909402 0.618193 -0.317875
1.937679 0.627348 -0.250076
1.888043 0.610913 -0.173614
1.938374 0.626825 -0.106765
1.931334 0.624176 -0.035428
1.893809 0.610589 -0.533167
1.918446 0.618532 0.035184
1.903053 0.613203 -0.461600
1.914316 0.616832 0.105405
1.904254 0.613223 -0.388869
1.934410 0.622934 0.177798
1.906718 0.613649 -0.317249
1.912316 0.615451 -0.246664
1.904280 0.612498 -0.175009
1.924253 0.618551 -0.105928
1.932420 0.620805 -0.035428
1.902231 0.609641 -0.535238
1.927140 0.617625 0.035324
1.900409 0.608692 -0.460700
1.917291 0.614099 0.105509
1.920280 0.614687 -0.391922
1.939289 0.620772 0.178146
1.905904 0.609719 -0.316936
1.937967 0.619976 -0.249832
1.901551 0.607960 -0.174660
1.925330 0.615192 -0.105928
1.937310 0.618648 -0.035498
1.906973 0.607493 -0.536273
1.932026 0.615474 0.035393
1.907039 0.607147 -0.462049
1.912651 0.608933 0.105195
1.904512 0.605976 -0.388487
1.946066 0.619198 0.178669
1.908742 0.607322 -0.317249
1.910669 0.607569 -0.246176
1.915901 0.608864 -0.175880
1.932111 0.613644 -0.106242
1.934575 0.614056 -0.035428
1.908031 0.604164 -0.536273
1.940723 0.614515 0.035533
1.907991 0.604151 -0.462049
1.899846 0.601207 -0.387342
1.937538 0.613135 0.177798
1.917333 0.606374 -0.318501
1.940119 0.613207 -0.249832
1.914955 0.605253 -0.175706
1.929264 0.609405 -0.106033
1.926003 0.608006 -0.035254
1.901607 0.598845 -0.534203
1.934056 0.609064 0.035393
1.920195 0.604330 -0.464749
1.922280 0.604986 0.105614
1.915875 0.602604 -0.390395
1.938605 0.609753 0.177798
1.918388 0.603026 -0.318501
1.916461 0.602420 -0.246664
1.908405 0.599522 -0.175009
1.939852 0.609029 -0.106556
1.936601 0.607637 -0.035428
1.906336 0.596679 -0.535238
1.931299 0.604493 0.035324
1.910088 0.597487 -0.462049
1.913802 0.598649 0.105091
1.913176 0.598087 -0.389632
1.937765 0.605774 0.177623
1.917552 0.599088 -0.318188
1.925089 0.601442 -0.247639
1.905645 0.595002 -0.174660
1.942819 0.606237 -0.106661
1.941477 0.605447 -0.035498
1.907375 0.593350 -0.535238
1.939989 0.603496 0.035463
1.907406 0.592996 -0.461150
1.932009 0.600645 0.106033
1.917967 0.595912 -0.390395
1.946430 0.604756 0.178321
1.916709 0.595153 -0.317875
1.918553 0.595726 -0.246664
1.918098 0.595219 -0.175706
1.936243 0.600479 -0.106242
1.946351 0.603240 -0.035568
1.917636 0.592874 -0.537826
1.941040 0.600110 0.035463
1.915886 0.591967 -0.462949
1.915252 0.591404 -0.389632
1.953194 0.603120 0.178844
1.921520 0.592972 -0.318501
1.995462 0.615791 0.256413
1.923383 0.593547 -0.247151
1.919134 0.591870 -0.175706
1.944923 0.599451 -0.106661
1.941667 0.598077 -0.035463
1.907588 0.586123 -0.534720
1.957376 0.601421 0.035743
1.920642 0.589766 -0.463849
1.926457 0.591552 0.105614
1.914405 0.587485 -0.389250
1.948529 0.597957 0.178321
1.926328 0.590777 -0.319126
2.004125 0.614636 0.257388
1.950985 0.598339 -0.250563
1.912544 0.586184 -0.175009
1.945966 0.596056 -0.106661
1.942708 0.594688 -0.035463
1.906760 0.582228 -0.534203
1.950773 0.595667 0.035603
1.923532 0.586982 -0.464299
1.928572 0.588153 -0.391922
1.947664 0.593975 0.178146
1.923578 0.586262 -0.318501
1.986206 0.605350 0.254951
1.925443 0.586830 -0.247151
1.909752 0.581684 -0.174660
1.954647 0.594984 -0.107079
1.939917 0.590132 -0.035393
1.911471 0.580021 -0.535238
1.944155 0.589939 0.035463
1.917094 0.581361 -0.462499
1.936155 0.587141 0.106033
1.923959 0.583077 -0.390777
1.950604 0.591152 0.178321
1.918926 0.581186 -0.317562
1.964462 0.594977 0.252026
1.945463 0.589223 -0.249588
1.910765 0.578349 -0.174660
1.948035 0.589260 -0.106661
1.948600 0.589060 -0.035533
1.923578 0.580029 -0.538344
1.945182 0.586544 0.035463
1.905045 0.574079 -0.459350
1.936253 0.583115 -0.393067
1.957356 0.589471 0.178844
1.925613 0.579543 -0.318501
1.946488 0.585826 0.249588
1.927480 0.580105 -0.247151
1.923219 0.578458 -0.175706
1.933759 0.581260 -0.105823
1.957286 0.587958 -0.035673
1.924587 0.576672 -0.538344
1.953865 0.585444 0.035603
1.920978 0.575226 -0.462949
1.926713 0.576943 0.105405
1.931625 0.578046 -0.391922
1.964109 0.587766 0.179367
1.926520 0.576518 -0.318501
1.953213 0.584135 0.250320
1.934195 0.578447 -0.247882
1.928043 0.576242 -0.176055
1.948166 0.581884 -0.106556
1.950645 0.582254 -0.035533
1.921888 0.572210 -0.537308
1.962550 0.584317 0.035743
1.923747 0.572764 -0.463399
1.925004 0.572771 -0.390395
1.957391 0.582408 0.178669
1.938884 0.576533 -0.320378
1.961740 0.583329 0.251295
1.931396 0.573940 -0.247395
1.921306 0.570942 -0.175357
1.952907 0.579961 -0.106765
1.951557 0.579189 -0.035533
1.907965 0.564804 -0.533167
1.955795 0.578963 0.035603
1.930350 0.571063 -0.464749
1.940107 0.573950 0.106033
1.929766 0.570524 -0.391158
1.956494 0.578426 0.178495
1.939887 0.573149 -0.320378
1.968466 0.581593 0.252026
1.941813 0.573718 -0.248613
1.912746 0.564766 -0.174486
1.953917 0.576552 -0.106765
1.952565 0.575782 -0.035533
1.916361 0.563653 -0.535238
1.952966 0.574419 0.035533
1.925735 0.566045 -0.463399
1.939190 0.570000 0.105928
1.932643 0.567708 -0.391540
1.961324 0.576133 0.178844
1.929513 0.566424 -0.318501
1.956145 0.574242 0.250320
1.954240 0.573683 -0.250076
1.925200 0.564793 -0.175532
1.954920 0.573140 -0.106765
1.961243 0.574623 -0.035673
1.926613 0.563017 -0.537826
1.965482 0.574376 0.035743
1.919238 0.560497 -0.461600
1.934430 0.564934 0.105614
1.943054 0.567085 -0.393448
1.964239 0.573268 0.179018
1.932394 0.563608 -0.318813
1.960955 0.571938 0.250807
1.941898 0.566380 -0.248370
1.930009 0.562546 -0.175880
1.953999 0.569170 -0.106661
1.962242 0.571199 -0.035673
1.936870 0.562346 -0.540414
1.966482 0.570944 0.035743
1.929571 0.559862 -0.463849
1.934612 0.560959 -0.391540
1.969063 0.570949 0.179367
1.937170 0.561334 -0.319439
1.958138 0.567409 0.250320
1.958138 0.567409 -0.250320
1.938642 0.561393 -0.176578
1.954990 0.565759 -0.106661
1.955553 0.565551 -0.035533
1.934136 0.557894 -0.539379
1.975161 0.569728 0.035882
1.934290 0.557573 -0.464749
1.947905 0.561498 0.106242
1.931816 0.556495 -0.390777
1.968142 0.566959 0.179192
1.941943 0.559045 -0.320065
1.972478 0.567835 0.252026
1.936234 0.557401 -0.247395
1.931960 0.555806 -0.175880
1.961733 0.564001 -0.106975
1.960381 0.563241 -0.035603
1.922107 0.550793 -0.535755
1.968463 0.564076 0.035743
1.946501 0.557415 -0.467448
1.938446 0.554743 -0.391922
1.961467 0.561331 0.178495
1.944815 0.556198 -0.320378
1.977283 0.565484 0.252513
1.967740 0.562755 -0.251295
1.929096 0.551338 -0.175532
1.970396 0.562770 -0.107393
1.961361 0.559818 -0.035603
1.932355 0.550082 -0.538344
1.961751 0.558450 0.035603
1.945596 0.553484 -0.466998
1.949853 0.554695 0.106242
1.952631 0.555116 -0.394593
1.966277 0.558995 0.178844
1.943883 0.552263 -0.320065
1.959172 0.556607 -0.250076
1.933889 0.549059 -0.175880
1.971376 0.559330 -0.107393
1.966182 0.557486 -0.035673
1.933312 0.546709 -0.538344
1.966571 0.556114 0.035673
1.937183 0.547437 -0.464749
1.961154 0.553843 -0.396120
1.974918 0.557730 0.179541
1.946745 0.549406 -0.320378
1.973513 0.556961 -0.251782
1.938679 0.546764 -0.176229
1.956969 0.551555 -0.106556
1.971002 0.555137 -0.035743
1.939843 0.544900 -0.539897
1.971389 0.553761 0.035743
1.941888 0.545109 -0.465649
1.949855 0.547345 0.106137
1.948886 0.546706 -0.393448
1.981644 0.555896 0.180064
1.945799 0.545474 -0.320065
1.949635 0.546549 -0.248613
1.947305 0.545530 -0.176926
1.969469 0.551368 -0.107184
1.966191 0.550080 -0.035638
1.938931 0.540995 -0.539379
1.976205 0.551395 0.035812
1.944713 0.542242 -0.466099
1.936598 0.539615 -0.390777
1.969176 0.548693 0.178844
1.954360 0.544197 -0.321316
1.975446 0.550068 -0.251782
1.936737 0.538926 -0.175880
1.974277 0.549000 -0.107393
1.967148 0.546648 -0.035638
1.930563 0.535030 -0.536791
1.977164 0.547945 0.035812
1.955047 0.541448 -0.468348
1.957528 0.542135 0.106451
1.954566 0.540948 -0.394211
1.972051 0.545787 0.179018
1.953308 0.540600 -0.321004
1.963010 0.542916 -0.250076
1.933834 0.534483 -0.175532
1.975232 0.545554 -0.107393
1.970027 0.543745 -0.035673
1.940807 0.534224 -0.539379
1.974262 0.543432 0.035743
1.950258 0.536825 -0.466998
1.960397 0.539247 0.106556
1.951628 0.536835 -0.393448
1.978669 0.544273 0.179541
1.946630 0.535095 -0.319752
1.967783 0.540541 -0.250563
1.946198 0.534611 -0.176578
1.976087 0.542450 -0.107393
1.974735 0.541708 -0.035743
1.954687 0.534743 -0.543002
1.975113 0.540331 0.035743
1.949313 0.532906 -0.466549
1.959315 0.535640 0.106451
1.952562 0.533428 -0.393448
1.993070 0.544494 0.180761
1.955183 0.533778 -0.321004
1.982035 0.541109 -0.252270
1.950973 0.532262 -0.176926
1.965469 0.535848 -0.106765
1.979536 0.539313 -0.035812
1.951889 0.530317 -0.541967
1.983772 0.538979 0.035882
1.954001 0.530524 -0.467448
1.958319 0.531697 0.106347
1.961069 0.532076 -0.394975
1.982480 0.537885 0.179715
1.950392 0.528814 -0.320065
1.958069 0.530895 -0.249101
1.955745 0.529898 -0.177275
1.974113 0.534505 -0.107184
1.972753 0.533768 -0.035673
1.945351 0.524896 -0.539897
1.992432 0.537600 0.036022
1.954924 0.527113 -0.467448
1.963101 0.529318 0.106556
1.950621 0.525588 -0.392685
1.983415 0.534424 0.179715
1.964665 0.529004 -0.322255
1.960909 0.527993 -0.249345
1.945123 0.523378 -0.176229
1.978900 0.532096 -0.107393
1.975613 0.530843 -0.035708
1.951863 0.523000 -0.541449
1.981778 0.531015 0.035812
1.961488 0.525213 -0.468798
1.965951 0.526408 0.106661
1.959121 0.524213 -0.394211
1.980496 0.529932 0.179367
1.957952 0.523533 -0.321004
1.988676 0.531748 -0.252757
1.946033 0.519983 -0.176229
1.979825 0.528642 -0.107393
1.982333 0.528940 -0.035812
1.950906 0.519096 -0.540932
1.978837 0.526528 0.035743
1.960519 0.521288 -0.468348
1.976518 0.525542 0.107184
1.965725 0.522304 -0.395356
1.979492 0.525962 0.179192
1.956953 0.519608 -0.320691
1.978090 0.525220 -0.251295
1.946938 0.516586 -0.176229
1.980745 0.525185 -0.107393
1.983253 0.525479 -0.035812
1.951808 0.515691 -0.540932
1.983619 0.524096 0.035812
1.953889 0.515875 -0.466549
1.967777 0.519542 0.106661
