# This PCD file was generated using the MATLAB® pcwrite function
# from Computer Vision System Toolbox®.
# .PCD v.7 - Point Cloud Data file format
VERSION .7
FIELDS x y z
SIZE 4 4 4
TYPE F F F
COUNT 1 1 1
WIDTH 1731
HEIGHT 1
VIEWPOINT 0 0 0 1 0 0 0
POINTS 1731
DATA ascii
1.166934 0.702274 -0.364935
1.170221 0.704252 0.023840
1.167240 0.702181 -0.314482
1.168918 0.703190 0.071491
1.165961 0.701135 -0.264461
1.179850 0.709487 0.120449
1.164819 0.700171 -0.215254
1.179055 0.708728 0.168911
1.187562 0.713841 -0.170130
1.157896 0.695734 -0.118183
1.179681 0.708545 -0.072119
1.177815 0.707144 -0.023980
1.163187 0.697257 -0.363382
1.178309 0.706321 0.023980
1.166792 0.699140 -0.314032
1.159864 0.694989 0.070863
1.168868 0.700108 -0.264843
1.167412 0.699236 0.119055
1.167734 0.699152 -0.215567
1.175180 0.703610 0.168180
1.180290 0.706669 -0.168911
1.165947 0.697805 -0.118880
1.174060 0.702383 -0.071700
1.185913 0.709192 -0.024119
1.167719 0.697205 -0.364417
1.182974 0.706313 0.024049
1.154623 0.689114 -0.310432
1.155930 0.689894 0.070549
1.165030 0.695049 -0.263698
1.177186 0.702301 0.119926
1.168953 0.697112 -0.215567
1.178112 0.702574 0.168423
1.174702 0.700540 -0.167936
1.160317 0.691688 -0.118183
1.178716 0.702377 -0.071910
1.175123 0.699958 -0.023875
1.162292 0.691217 -0.362347
1.180767 0.702204 0.023980
1.160849 0.690085 -0.311782
1.158849 0.688896 0.070654
1.157803 0.688000 -0.261790
1.174985 0.698210 0.119578
1.170167 0.695071 -0.215567
1.184456 0.703559 0.169155
1.179336 0.700517 -0.168423
1.158096 0.687628 -0.117835
1.178223 0.699299 -0.071805
1.166024 0.691784 -0.023665
1.151862 0.682296 -0.358723
1.173388 0.695047 0.023805
1.167083 0.691036 -0.313132
1.165206 0.689924 0.070968
1.153933 0.682978 -0.260645
1.171058 0.693113 0.119055
1.167978 0.691016 -0.214941
1.175431 0.695426 0.167692
1.178848 0.697447 -0.168180
1.155865 0.683577 -0.117486
1.177722 0.696226 -0.071700
1.165508 0.688730 -0.023631
1.153051 0.680284 -0.358723
1.169433 0.689949 0.023700
1.158216 0.683058 -0.310432
1.159526 0.683831 0.070549
1.158506 0.682957 -0.261408
1.151669 0.678927 0.116963
1.162375 0.684965 -0.213690
1.173223 0.691357 0.167205
1.176643 0.693373 -0.167692
1.150190 0.677514 -0.116789
1.175493 0.692142 -0.071491
1.166708 0.686695 -0.023631
1.155902 0.679249 -0.359241
1.168911 0.686894 0.023665
1.151005 0.676100 -0.308183
1.160718 0.681806 0.070549
1.161389 0.681928 -0.261790
1.183778 0.695075 0.120101
1.161865 0.681935 -0.213377
1.172716 0.688304 0.166961
1.171004 0.687299 -0.166717
1.154807 0.677521 -0.117137
1.173254 0.688069 -0.071282
1.169630 0.685669 -0.023665
1.155419 0.676255 -0.358723
1.170108 0.684852 0.023665
1.142090 0.668187 -0.305484
1.153287 0.674737 0.070026
1.149019 0.671971 -0.258737
1.162631 0.679932 0.117835
1.157938 0.676915 -0.212438
1.167061 0.682248 0.165986
1.168774 0.683250 -0.166230
1.159428 0.677516 -0.117486
1.171003 0.684006 -0.071072
1.162190 0.678585 -0.023491
1.148252 0.669373 -0.356135
1.179939 0.687845 0.023840
1.153358 0.672079 -0.308183
1.156188 0.673728 0.070130
1.151887 0.670953 -0.259119
1.150044 0.669879 0.116440
1.165827 0.679073 -0.213690
1.175111 0.684206 0.166961
1.169965 0.681210 -0.166230
1.151999 0.670480 -0.116614
1.172196 0.681960 -0.071072
1.161644 0.675550 -0.023456
1.139395 0.661548 -0.353029
1.165574 0.676748 0.023526
1.156097 0.671245 -0.308633
1.157363 0.671710 0.070130
1.147846 0.666186 -0.257974
1.152818 0.669072 0.116614
1.160176 0.673072 -0.212438
1.179619 0.684351 0.167448
1.172869 0.680162 -0.166474
1.142710 0.662672 -0.115569
1.169810 0.678115 -0.070863
1.159244 0.671720 -0.023386
1.147122 0.663627 -0.355100
1.166636 0.674916 0.023526
1.147145 0.663373 -0.305933
1.161874 0.671891 0.070340
1.147307 0.663199 -0.257592
1.176408 0.680021 0.118880
1.152797 0.666105 -0.210874
1.173936 0.678319 0.166474
1.175655 0.679312 -0.166717
1.147315 0.662670 -0.115917
1.172721 0.677071 -0.070968
1.158682 0.668696 -0.023351
1.148278 0.661624 -0.355100
1.160881 0.668885 0.023386
1.134791 0.653589 -0.302334
1.156122 0.665875 0.069921
1.153567 0.664134 -0.258737
1.153420 0.664049 0.116440
1.150534 0.662121 -0.210248
1.171677 0.674289 0.165986
1.164795 0.670328 -0.165011
1.151924 0.662654 -0.116266
1.160050 0.667058 -0.070130
1.165049 0.669663 -0.023456
1.154458 0.662503 -0.356653
1.160313 0.665863 0.023351
1.142692 0.655486 -0.304134
1.152085 0.660874 0.069607
1.144505 0.656261 -0.256447
1.158033 0.664018 0.116789
1.149974 0.659129 -0.209935
1.165963 0.668294 0.165011
1.159074 0.664345 -0.164036
1.153079 0.660642 -0.116266
1.164678 0.667018 -0.070340
1.162745 0.665641 -0.023386
1.142195 0.652818 -0.352512
1.168418 0.667806 0.023491
1.147218 0.655424 -0.305034
1.144566 0.653909 0.069083
1.143944 0.653288 -0.256066
1.147080 0.655079 0.115569
1.163131 0.663977 -0.212125
1.167128 0.666258 0.165011
1.160232 0.662322 -0.164036
1.142116 0.651717 -0.115046
1.162371 0.663005 -0.070130
1.143059 0.651725 -0.022967
1.133259 0.645089 -0.349406
1.157416 0.658841 0.023247
1.150054 0.654384 -0.305484
1.154385 0.656849 0.069607
1.143376 0.650320 -0.255684
1.156880 0.658001 0.116440
1.153985 0.656088 -0.210248
1.161386 0.660296 0.164036
1.159661 0.659315 -0.163792
1.131127 0.642831 -0.113825
1.167000 0.662948 -0.070340
1.156367 0.656641 -0.023212
1.137744 0.645016 -0.350441
1.155085 0.654847 0.023177
1.139327 0.645651 -0.302334
1.153792 0.653848 0.069502
1.141093 0.646389 -0.254921
1.140691 0.646161 0.114697
1.143095 0.647260 -0.208058
1.162537 0.658268 0.164036
1.167719 0.661202 -0.164767
1.144385 0.647726 -0.115046
1.162940 0.657960 -0.070026
1.150548 0.650684 -0.023072
1.135504 0.641130 -0.349406
1.156226 0.652830 0.023177
1.131967 0.638872 -0.300085
1.146235 0.646925 0.068979
1.150769 0.649219 -0.256829
1.159171 0.653959 0.116440
1.145944 0.646234 -0.208371
1.156767 0.652338 0.163061
1.158496 0.653313 -0.163305
1.216610 0.685804 0.221198
1.142042 0.643770 -0.114697
1.151906 0.649066 -0.069293
1.165621 0.656526 -0.023351
1.143357 0.642934 -0.351476
1.160850 0.652771 0.023247
1.134779 0.637850 -0.300535
1.138657 0.640030 0.068455
1.141631 0.641440 -0.254539
1.144677 0.643152 0.114871
1.153960 0.648102 -0.209622
1.161366 0.652261 0.163549
1.152712 0.647401 -0.162330
1.179910 0.662406 0.214315
1.148376 0.644702 -0.115220
1.156521 0.649010 -0.069502
1.151069 0.645686 -0.023037
1.134364 0.635274 -0.348370
1.167222 0.653676 0.023351
1.132489 0.633965 -0.299635
1.143257 0.639994 0.068665
1.135896 0.635611 -0.253013
1.154491 0.646017 0.115743
1.155089 0.646087 -0.209622
1.164235 0.651203 0.163792
1.155573 0.646357 -0.162574
1.150029 0.642994 0.208684
1.139065 0.636864 -0.114174
1.154165 0.645041 -0.069293
1.152194 0.643676 -0.023037
1.125348 0.627647 -0.345265
1.152643 0.642871 0.023037
1.148913 0.640528 -0.303684
1.142628 0.637024 0.068560
1.140433 0.635539 -0.253776
1.134732 0.632362 0.113651
1.145861 0.638302 -0.207745
1.167104 0.650135 0.164036
1.160168 0.646271 -0.163061
1.154601 0.642907 0.209309
1.134953 0.631966 -0.113651
1.157034 0.643997 -0.069397
1.144579 0.636802 -0.022863
1.129819 0.627559 -0.346300
1.148519 0.637946 0.022932
1.132991 0.629062 -0.299185
1.150723 0.638907 0.068979
1.132958 0.628784 -0.251868
1.153255 0.640049 0.115394
1.138336 0.631510 -0.206181
1.150878 0.638468 0.161599
1.157822 0.642320 -0.162574
1.150539 0.638017 0.208371
1.136054 0.629985 -0.113651
1.145929 0.635198 -0.068665
1.156183 0.640619 -0.023072
1.134293 0.627456 -0.347335
1.149630 0.635940 0.022932
1.122150 0.620483 -0.296036
1.137854 0.629166 0.068141
1.140926 0.630605 -0.253394
1.143908 0.632253 0.114348
1.141165 0.630478 -0.206494
1.145041 0.632619 0.160624
1.158941 0.640298 -0.162574
1.167214 0.644602 0.211187
1.126688 0.622221 -0.112605
1.141790 0.630302 -0.068351
1.148545 0.633770 -0.022898
1.128619 0.621746 -0.345265
1.147236 0.632003 0.022863
1.135180 0.625103 -0.299185
1.126703 0.620435 0.067409
1.138585 0.626720 -0.252631
1.141518 0.628334 0.114000
1.143885 0.629637 -0.206806
1.153100 0.634446 0.161599
1.146143 0.630619 -0.160624
1.147567 0.631141 0.207432
1.145229 0.629856 -0.114348
1.148138 0.631195 -0.068665
1.144392 0.628875 -0.022793
1.128008 0.618847 -0.344747
1.155350 0.633847 0.023002
1.131035 0.620507 -0.297835
1.127784 0.618468 0.067409
1.125797 0.617379 -0.249578
1.130275 0.619834 0.112780
1.141518 0.625740 -0.206181
1.150614 0.630726 0.161111
1.154206 0.632433 -0.161599
1.148557 0.629338 0.207432
1.125250 0.616567 -0.112257
1.142122 0.625553 -0.068246
1.133100 0.620354 -0.022549
1.122198 0.613368 -0.342676
1.151080 0.629154 0.022898
1.135537 0.620401 -0.298735
1.142776 0.624356 0.068246
1.128596 0.616353 -0.249960
1.147093 0.626455 0.114348
1.135673 0.619961 -0.204929
1.155198 0.630619 0.161599
1.158682 0.632522 -0.162086
1.154855 0.630170 0.208371
1.119329 0.610784 -0.111559
1.153732 0.629297 -0.068874
1.146471 0.625077 -0.022793
1.119874 0.609561 -0.341641
1.134613 0.617584 0.022549
1.126347 0.612830 -0.296036
1.143864 0.622361 0.068246
1.134844 0.617197 -0.251105
1.130682 0.614933 0.112605
1.126340 0.612317 -0.203052
1.144088 0.621965 0.159893
1.159785 0.630498 -0.162086
1.155953 0.628154 0.208371
1.127395 0.612636 -0.112257
1.142543 0.620609 -0.068141
1.142288 0.620212 -0.022688
1.124332 0.609447 -0.342676
1.142721 0.619415 0.022688
1.113708 0.603437 -0.292436
1.134412 0.614655 0.067618
1.135920 0.615215 -0.251105
1.135257 0.614856 0.112954
1.134356 0.614112 -0.204303
1.139935 0.617132 0.159161
1.152155 0.623748 -0.160868
1.160522 0.628016 0.208996
1.128463 0.610667 -0.112257
1.134841 0.613862 -0.067618
1.148646 0.621071 -0.022793
1.125394 0.607484 -0.342676
1.147319 0.619319 0.022758
1.113045 0.600566 -0.291986
1.119664 0.604138 0.066676
1.131808 0.610435 -0.249960
1.136329 0.612874 0.112954
1.138903 0.614006 -0.204929
1.141010 0.615142 0.159161
1.141010 0.615142 -0.159161
1.149444 0.619430 0.206806
1.136543 0.612477 -0.112954
1.132394 0.609987 -0.067409
1.130360 0.608637 -0.022409
1.126453 0.605519 -0.342676
1.153683 0.620156 0.022863
1.120958 0.602312 -0.293786
1.120717 0.602183 0.066676
1.119035 0.601028 -0.246907
1.126865 0.605233 0.111908
1.129531 0.606411 -0.203052
1.145580 0.615027 0.159649
1.149078 0.616905 -0.160136
1.147042 0.615555 0.206181
1.127077 0.604840 -0.111908
1.129937 0.606121 -0.067199
1.134946 0.608553 -0.022479
1.110476 0.594435 -0.337500
1.144186 0.612479 0.022653
1.125444 0.602193 -0.294686
1.130571 0.604937 0.067199
1.125276 0.601852 -0.248052
1.122649 0.600447 0.111385
1.125361 0.601645 -0.202113
1.148402 0.613963 0.159893
1.153654 0.616771 -0.160624
1.149857 0.614482 0.206494
1.114073 0.595359 -0.110513
1.141563 0.609794 -0.067827
1.139534 0.608455 -0.022549
1.114922 0.594313 -0.338535
1.138194 0.606718 0.022514
1.121333 0.597480 -0.293336
1.136913 0.605781 0.067513
1.126324 0.599887 -0.248052
1.121937 0.597550 0.111211
1.119435 0.595966 -0.200862
1.147720 0.611024 0.159649
1.149472 0.611957 -0.159893
1.147440 0.610619 0.205868
1.118628 0.595286 -0.110862
1.128519 0.600297 -0.066990
1.140595 0.606465 -0.022549
1.115957 0.592367 -0.338535
1.139251 0.604731 0.022514
1.108603 0.588215 -0.289737
1.134440 0.601924 0.067304
1.125635 0.597000 -0.247670
1.130019 0.599325 0.111908
1.120474 0.594012 -0.200862
1.133000 0.600652 0.157455
1.141769 0.605301 -0.158674
1.148504 0.608615 0.205868
1.116144 0.591467 -0.110513
1.126035 0.596457 -0.066781
1.138117 0.602602 -0.022479
1.120405 0.592223 -0.339571
1.140305 0.602742 0.022514
1.111351 0.587189 -0.290187
1.112532 0.587813 0.065943
1.124939 0.594117 -0.247288
1.136348 0.600143 0.112431
1.121405 0.592251 -0.200862
1.141068 0.602381 0.158430
1.130535 0.596821 -0.156968
1.146071 0.604766 0.205242
1.124223 0.593237 -0.111211
1.127075 0.594491 -0.066781
1.135629 0.598749 -0.022409
1.112890 0.585768 -0.336982
1.146664 0.603545 0.022618
1.115721 0.587258 -0.291087
1.120626 0.589590 0.066362
1.120659 0.589607 -0.246144
1.130237 0.594647 0.111734
1.136424 0.597649 -0.203365
1.140256 0.599664 0.158186
1.135090 0.596694 -0.157455
1.131283 0.594693 0.202426
1.105754 0.581273 -0.109293
1.129775 0.593649 -0.066885
1.122405 0.589526 -0.022130
1.105254 0.579533 -0.334394
1.135213 0.595243 0.022374
1.115018 0.584405 -0.290637
1.121551 0.587829 0.066362
1.119948 0.586739 -0.245762
1.125979 0.589899 0.111211
1.126966 0.590166 -0.201488
1.139542 0.596752 0.157943
1.137784 0.595831 -0.157699
1.137569 0.595466 0.203365
1.108532 0.580266 -0.109468
1.132579 0.592601 -0.066990
1.130520 0.591273 -0.022269
1.109689 0.579391 -0.335429
1.139796 0.595111 0.022444
1.107398 0.577950 -0.288387
1.131429 0.590491 0.066885
1.120970 0.584784 -0.245762
1.119940 0.584247 0.110513
1.110479 0.579064 -0.198359
1.137062 0.592926 0.157455
1.144103 0.596598 -0.158430
1.145614 0.597131 0.204616
1.097176 0.571884 -0.108247
1.110585 0.578627 -0.065629
1.131551 0.589299 -0.022269
1.115840 0.580127 -0.336982
1.126639 0.585742 0.022165
1.106676 0.575118 -0.287937
1.114735 0.579306 0.065839
1.121989 0.582826 -0.245762
1.128031 0.585965 0.111211
1.118500 0.580766 -0.199610
1.124001 0.583623 0.155505
1.136333 0.590026 -0.157211
1.143147 0.593311 0.203991
1.114088 0.578229 -0.109816
1.120458 0.581287 -0.066153
1.136128 0.589164 -0.022339
1.108273 0.573738 -0.334394
1.134763 0.587452 0.022304
1.107678 0.573185 -0.287937
1.108649 0.573688 0.065420
1.117773 0.578162 -0.244617
1.129052 0.583996 0.111211
1.119512 0.578813 -0.199610
1.132071 0.585307 0.156480
1.123255 0.580749 -0.155262
1.130142 0.584060 0.201488
1.115096 0.576284 -0.109816
1.116147 0.576580 -0.065839
1.122940 0.579841 -0.022060
1.105838 0.570033 -0.333359
1.135787 0.585470 0.022304
1.106945 0.570359 -0.287487
1.111424 0.572667 0.065525
1.104817 0.569018 -0.241564
1.121213 0.577463 0.110339
1.127546 0.580476 -0.200862
1.133091 0.583330 0.156480
1.124267 0.578787 -0.155262
1.120621 0.576663 0.199610
1.098384 0.565220 -0.108073
1.150507 0.591788 0.251486
1.115376 0.573717 -0.065734
1.122172 0.576966 -0.022025
1.093082 0.561045 -0.329218
1.129691 0.579835 0.022165
1.116608 0.572873 -0.289737
1.110645 0.569814 0.065420
1.112796 0.570672 -0.243091
1.118673 0.573686 0.109991
1.110978 0.569496 -0.197733
1.137641 0.583163 0.156968
1.119975 0.574108 -0.154530
1.126900 0.577408 0.200549
1.094049 0.560576 -0.107550
1.111042 0.569038 -0.065420
1.117837 0.572273 -0.021920
1.102661 0.563532 -0.331806
1.116456 0.570582 0.021885
1.107193 0.565604 -0.287038
1.115195 0.569692 0.065629
1.113790 0.568730 -0.243091
1.116124 0.569921 0.109642
1.108452 0.565759 -0.197107
1.131585 0.577567 0.155993
1.129816 0.576664 -0.155749
1.141983 0.582623 0.203052
1.100350 0.561382 -0.108073
1.120930 0.571636 -0.065943
1.125961 0.573953 -0.022060
1.107086 0.563359 -0.332841
1.124579 0.572260 0.022025
1.090809 0.554837 -0.282539
1.107286 0.563218 0.065106
1.113032 0.565895 -0.242709
1.115341 0.567069 0.109468
1.109437 0.563824 -0.197107
1.132591 0.575591 0.155993
1.120203 0.569295 -0.154287
1.132431 0.575261 0.201175
1.094223 0.555852 -0.107376
1.104118 0.560636 -0.064897
1.130527 0.573797 -0.022130
1.114961 0.564918 -0.334912
1.129144 0.572104 0.022095
1.105684 0.559975 -0.286138
1.097577 0.555870 0.064478
1.108763 0.561292 -0.241564
1.119884 0.566922 0.109816
1.112183 0.562778 -0.197420
1.130051 0.571820 0.155505
1.121195 0.567339 -0.154287
1.128145 0.570609 0.200236
1.100525 0.556639 -0.107899
1.117571 0.565016 -0.065629
1.120818 0.566411 -0.021920
1.093523 0.551660 -0.328183
1.130140 0.570133 0.022095
1.094479 0.551903 -0.282988
1.087845 0.548558 0.063850
1.102728 0.555821 -0.240038
1.117314 0.563172 0.109468
1.120219 0.564392 -0.198672
1.134593 0.571634 0.155993
1.120410 0.564489 -0.154043
1.113261 0.560643 0.197420
1.090818 0.549340 -0.106853
1.107852 0.557676 -0.065001
1.114660 0.560860 -0.021781
1.101389 0.553219 -0.330253
1.120412 0.562774 0.021885
1.107632 0.556112 -0.286138
1.099511 0.552035 0.064478
1.103697 0.553895 -0.240038
1.114734 0.559434 0.109119
1.103449 0.553771 -0.195543
1.128491 0.566093 0.155018
1.119620 0.561642 -0.153799
1.123067 0.563126 0.198985
1.082870 0.542970 -0.105981
1.119685 0.561430 0.243472
1.112395 0.557531 -0.065211
1.108485 0.555331 -0.021641
1.091986 0.546111 -0.327147
1.121392 0.560817 0.021885
1.094561 0.547399 -0.282539
1.111192 0.555473 0.065106
1.104565 0.552161 -0.240038
1.117393 0.558573 0.109293
1.100880 0.550079 -0.194917
1.122276 0.560770 0.154043
1.120598 0.559687 -0.153799
1.125717 0.562243 0.199298
1.096199 0.547500 -0.107202
1.108367 0.553336 0.240801
1.102547 0.550431 -0.064583
1.123670 0.560732 -0.021920
1.098030 0.546979 -0.328700
1.118692 0.557272 0.021816
1.097259 0.546356 -0.282988
1.087032 0.541264 0.063641
1.110800 0.552857 -0.241183
1.113015 0.553960 0.108770
1.098301 0.546397 -0.194292
1.123253 0.558810 0.154043
1.109035 0.551737 -0.152093
1.130234 0.562037 0.199923
1.095368 0.544699 -0.107027
1.105815 0.549653 0.240038
1.105295 0.549394 -0.064687
1.124648 0.558770 -0.021920
1.093791 0.542487 -0.327147
1.121455 0.556207 0.021850
1.087735 0.539246 -0.280289
1.095133 0.542914 0.064059
1.088894 0.539585 -0.236222
1.117551 0.553785 0.109119
1.099253 0.544479 -0.194292
1.124227 0.556849 0.154043
1.117111 0.553325 -0.153068
1.115281 0.552175 0.197107
1.085604 0.537482 -0.105981
1.117330 0.552947 0.242327
1.100882 0.544807 -0.064373
1.111282 0.549713 -0.021641
1.099933 0.543143 -0.328700
1.124217 0.555134 0.021885
1.104401 0.545110 -0.284338
1.092497 0.539234 0.063850
1.103920 0.544633 -0.239275
1.111368 0.548308 0.108422
1.107289 0.546054 -0.195543
1.125197 0.554886 0.154043
1.109174 0.546984 -0.151849
1.114471 0.549355 0.196795
1.088328 0.536468 -0.106156
1.095399 0.539716 0.237366
1.110789 0.547299 -0.064897
1.112240 0.547772 -0.021641
1.081809 0.531847 -0.323006
1.112622 0.546995 0.021641
1.093108 0.537166 -0.281189
1.098814 0.539970 0.064164
1.097820 0.539243 -0.237748
1.106959 0.543732 0.107899
1.110013 0.544991 -0.195856
1.126164 0.552921 0.154043
1.115473 0.547672 -0.152580
1.113654 0.546539 0.196482
1.080319 0.530179 -0.105284
1.115728 0.547314 0.241564
1.111743 0.545359 -0.064897
1.113194 0.545830 -0.021641
1.094881 0.535904 -0.326630
1.104594 0.540658 0.021466
1.097545 0.536970 -0.282089
1.103343 0.539806 0.064373
1.096996 0.536464 -0.237366
1.107906 0.541799 0.107899
1.096765 0.536114 -0.193353
1.116426 0.545725 0.152580
1.125343 0.550084 -0.153799
1.114607 0.544594 0.196482
1.081243 0.528292 -0.105284
1.107309 0.540789 -0.064583
1.106957 0.540378 -0.021501
1.092342 0.532299 -0.325594
1.110929 0.541357 0.021571
1.070449 0.521400 -0.274890
1.091714 0.531757 0.063641
1.103226 0.537126 -0.238511
1.116015 0.543353 0.108596
1.099475 0.535063 -0.193666
1.117377 0.543775 0.152580
1.113807 0.542038 -0.152093
1.117332 0.543512 0.196795
1.082163 0.526405 -0.105284
1.105273 0.537407 0.238893
1.093882 0.531868 -0.063745
1.125884 0.547186 -0.021850
1.086316 0.527019 -0.323524
1.104676 0.535926 0.021432
1.094153 0.530584 -0.280739
1.080061 0.523750 0.062908
1.100628 0.533488 -0.237748
1.113376 0.539667 0.108247
1.095074 0.530559 -0.192727
1.118325 0.541824 0.152580
1.107606 0.536631 -0.151118
1.100500 0.532951 0.193666
1.083081 0.524515 -0.105284
1.107392 0.536050 -0.064478
1.107036 0.535640 -0.021466
1.095933 0.529323 -0.326112
1.112812 0.537475 0.021571
1.079283 0.521049 -0.276690
1.091765 0.527075 0.063536
1.090949 0.526447 -0.235458
1.103550 0.532527 0.107202
1.106674 0.533796 -0.194605
1.115693 0.538146 0.152093
1.106753 0.533834 -0.150874
1.097870 0.529314 0.193040
1.080405 0.520894 -0.104936
1.117753 0.538660 0.241183
1.102928 0.531515 -0.064164
1.104367 0.531971 -0.021397
1.081186 0.519875 -0.321453
1.102936 0.530333 0.021362
1.095998 0.526762 -0.280739
1.094483 0.526034 0.063641
1.100714 0.528792 -0.237366
1.097294 0.527149 0.106504
1.096920 0.526733 -0.192727
1.113051 0.534480 0.151605
1.107683 0.531902 -0.150874
1.105916 0.530816 0.194292
1.074128 0.515558 -0.104238
1.090371 0.523120 0.235077
1.114659 0.534773 -0.064792
1.107096 0.530907 -0.021432
1.087319 0.520489 -0.323006
1.096645 0.524954 0.021222
1.081095 0.517278 -0.276690
1.097202 0.524985 0.063745
1.076840 0.515011 -0.232024
1.101808 0.526952 0.106853
1.094273 0.523114 -0.192102
1.113983 0.532536 0.151605
1.110401 0.530824 -0.151118
1.106840 0.528885 0.194292
1.078621 0.515401 -0.104587
1.096597 0.523755 0.236222
1.104777 0.527662 -0.064164
1.100803 0.525528 -0.021292
1.086481 0.517760 -0.322489
1.097559 0.523039 0.021222
1.087274 0.517905 -0.278040
1.080085 0.514480 0.062698
1.095463 0.521571 -0.235840
1.108122 0.527598 0.107376
1.100444 0.523942 -0.193040
1.107740 0.527179 0.150631
1.102363 0.524620 -0.149899
1.104194 0.525255 0.193666
1.083118 0.515229 -0.104936
1.093872 0.520345 0.235458
1.089463 0.518014 -0.063222
1.116167 0.530473 -0.021571
1.090874 0.517519 -0.323524
1.109310 0.526265 0.021432
1.072240 0.508679 -0.273990
1.088200 0.516017 0.063117
1.073220 0.508914 -0.230879
1.105349 0.524149 0.107027
1.092431 0.517791 -0.191476
1.106773 0.524588 0.150387
1.105071 0.523545 -0.150143
1.101447 0.521829 0.193040
1.080324 0.511821 -0.104587
1.112522 0.526837 0.239275
1.102911 0.522286 -0.063955
1.098925 0.520164 -0.021222
1.082952 0.511678 -0.320936
1.106520 0.522814 0.021362
1.088986 0.514296 -0.278040
1.083591 0.511748 0.062803
1.086534 0.512907 -0.233550
1.100857 0.519668 0.106504
1.100479 0.519255 -0.192727
1.114868 0.526044 0.151362
1.098711 0.518420 -0.149168
1.098783 0.518220 0.192414
1.072206 0.505685 -0.103715
1.088578 0.513175 0.233932
1.105627 0.521212 -0.064059
1.094404 0.515688 -0.021117
1.083844 0.509787 -0.320936
1.096573 0.515775 0.021152
1.074010 0.504933 -0.273990
1.089905 0.512406 0.063117
1.092758 0.513514 -0.234695
1.094550 0.514356 0.105807
1.097808 0.515653 -0.192102
1.121175 0.526629 0.152093
1.106801 0.519878 -0.150143
1.106838 0.519659 0.193666
1.064069 0.499579 -0.102844
1.100136 0.516279 0.236222
1.099303 0.515887 -0.063641
1.109786 0.520571 -0.021397
1.074234 0.502980 -0.317830
1.093850 0.512164 0.021083
1.089009 0.509666 -0.277590
1.087180 0.508810 0.062908
1.070535 0.500792 -0.229734
1.097250 0.513289 0.105981
1.080812 0.505370 -0.188973
1.100514 0.514582 0.149168
1.114900 0.521308 -0.151118
1.107744 0.517727 0.193666
1.075770 0.502783 -0.103890
1.088585 0.508541 0.233550
1.092963 0.510587 -0.063222
1.151160 0.537774 0.293336
1.092574 0.510172 -0.021048
1.085617 0.506001 -0.320936
1.094742 0.510254 0.021083
1.065167 0.496243 -0.271291
1.082635 0.504381 0.062594
1.089205 0.507211 -0.233550
1.101757 0.513056 0.106330
1.090647 0.507651 -0.190537
1.094211 0.509310 0.148193
1.097811 0.510985 -0.148681
1.106855 0.514960 0.193353
1.073032 0.499224 -0.103541
1.091251 0.507468 0.233932
1.095664 0.509520 -0.063327
1.106154 0.514399 0.281639
1.111596 0.516693 -0.021397
1.079488 0.500853 -0.318865
1.102887 0.511710 0.021222
1.089014 0.505041 -0.277140
1.079890 0.500810 0.062384
1.093651 0.506960 -0.234313
1.099036 0.509456 0.105981
1.089739 0.504916 -0.190224
1.100502 0.509903 0.148924
1.093297 0.506565 -0.147949
1.104167 0.511366 0.192727
1.077518 0.499025 -0.103890
1.090353 0.504738 0.233550
1.085677 0.502573 -0.062698
1.101745 0.510011 0.280289
1.094348 0.506356 -0.021048
1.082115 0.499778 -0.319383
1.100147 0.508106 0.021152
1.073970 0.495789 -0.273091
1.086202 0.501436 0.062698
1.058881 0.488600 -0.226681
1.092686 0.504198 0.105284
1.088825 0.502186 -0.189911
1.103193 0.508812 0.149168
1.094180 0.504656 -0.147949
1.092500 0.503650 0.190537
1.071150 0.493807 -0.103192
1.109063 0.511051 0.237366
1.099249 0.506529 -0.063431
1.098863 0.506118 -0.021117
1.070699 0.492240 -0.315759
1.097399 0.504515 0.021083
1.096082 0.503678 -0.278489
1.079816 0.496204 0.062280
1.082926 0.497403 -0.231642
1.084512 0.498132 0.104413
1.073543 0.492867 -0.187096
1.118512 0.513512 0.151118
1.098667 0.504402 -0.148437
1.096968 0.503390 0.191163
1.068388 0.490275 -0.102844
1.083186 0.496836 0.231642
1.096501 0.502944 -0.063222
1.092891 0.501288 0.277590
1.094291 0.501699 -0.021013
1.078583 0.493586 -0.317830
1.089186 0.498439 0.020908
1.066833 0.487984 -0.270841
1.089762 0.498472 0.062803
1.082007 0.494696 -0.231261
1.092628 0.499552 0.105110
1.077995 0.492634 -0.187721
1.103157 0.504133 0.148924
1.090519 0.498357 -0.147218
1.099642 0.502295 0.191476
1.063806 0.485926 -0.102321
1.084051 0.494945 0.231642
1.090110 0.497711 -0.062803
1.095537 0.500189 0.278040
1.100623 0.502279 -0.021117
1.072410 0.488500 -0.315759
1.079136 0.491563 0.020699
1.080098 0.491774 -0.273990
1.077906 0.490776 0.062070
1.068573 0.486301 -0.228208
1.091685 0.496819 0.104936
1.093237 0.497296 -0.190224
1.087773 0.494810 0.146731
1.093193 0.497276 -0.147462
1.100517 0.500376 0.191476
1.070093 0.486543 -0.102844
1.086701 0.493864 0.232024
1.089159 0.494981 -0.062698
1.082215 0.491826 0.274440
1.105139 0.502011 -0.021187
1.083818 0.491414 -0.318865
1.089098 0.493808 0.020873
1.061430 0.481039 -0.269041
1.075123 0.487245 0.061861
1.078362 0.488486 -0.230116
1.103439 0.499846 0.105981
1.076108 0.487239 -0.187096
1.097676 0.497005 0.147949
1.085018 0.491273 -0.146243
1.095990 0.496010 0.190537
1.070941 0.484674 -0.102844
1.089350 0.492776 0.232405
1.090021 0.493080 -0.062698
1.083072 0.489936 0.274440
1.093259 0.494315 -0.020943
1.072348 0.483959 -0.315242
1.095426 0.494374 0.020978
1.078256 0.486398 -0.273091
1.068689 0.482083 0.061442
1.059525 0.477727 -0.225918
1.084330 0.488911 0.104064
1.087763 0.490230 -0.188973
1.096732 0.494272 0.147706
1.091303 0.491825 -0.146974
1.082445 0.487606 0.188034
1.069969 0.481986 -0.102669
1.102739 0.496517 0.235077
1.089058 0.490357 -0.062594
1.083925 0.488046 0.274440
1.088649 0.489944 -0.020838
1.067905 0.479712 -0.313689
1.092639 0.490822 0.020908
1.070214 0.480524 -0.270841
1.071351 0.481035 0.061547
1.081851 0.485523 -0.230497
1.081547 0.485386 0.103715
1.074198 0.481863 -0.186470
1.095782 0.491545 0.147462
1.092160 0.489920 -0.146974
1.094110 0.490565 0.189911
1.061718 0.476042 -0.101798
1.089272 0.488168 0.232024
1.088090 0.487638 -0.062489
1.081219 0.484559 0.273540
1.094977 0.490496 -0.020943
1.068740 0.477847 -0.313689
1.089843 0.487282 0.020838
1.078167 0.481836 -0.272641
1.077659 0.481609 0.061861
1.057601 0.472424 -0.225155
1.078754 0.481873 0.103367
1.067822 0.476765 -0.185218
1.089388 0.486394 0.146487
1.093013 0.488013 -0.146974
1.091356 0.487045 0.189286
1.057089 0.471752 -0.101275
1.079364 0.481468 0.229734
1.081643 0.482484 -0.062070
1.083843 0.483465 0.273990
1.092179 0.486955 -0.020873
1.066043 0.474410 -0.312653
1.087038 0.483754 0.020768
1.061201 0.472034 -0.268142
1.078498 0.479728 0.061861
1.088922 0.484136 -0.231642
1.081414 0.480798 0.103541
1.083094 0.481319 -0.187721
1.084793 0.482074 0.145756
1.088421 0.483687 -0.146243
1.095815 0.486743 0.189911
1.063373 0.472333 -0.101798
1.076614 0.477989 0.228971
1.080659 0.479785 -0.061966
1.079342 0.479200 0.272641
1.102167 0.489103 -0.021048
1.081000 0.478808 -0.316795
1.084224 0.480236 0.020699
1.072715 0.474914 -0.270841
1.068376 0.472993 0.061233
1.059244 0.468729 -0.225155
1.089540 0.482135 0.104238
1.080319 0.477830 -0.187096
1.080186 0.477771 0.145025
1.080186 0.477771 -0.145025
1.089436 0.481635 0.188660
1.066018 0.471282 -0.101972
1.088222 0.480871 0.231261
1.086975 0.480320 -0.062280
1.074829 0.474953 0.271291
1.092043 0.482332 -0.020838
1.069460 0.471465 -0.313171
1.086890 0.479149 0.020733
1.059276 0.466755 -0.267242
1.067373 0.470322 0.061128
1.070841 0.471628 -0.227444
1.077615 0.474612 0.103018
1.077536 0.474352 -0.186470
1.088286 0.479084 0.145999
1.090103 0.479884 -0.146243
1.086659 0.478142 0.188034
1.061368 0.467013 -0.101449
1.080073 0.475019 0.229352
1.078670 0.474402 -0.061756
1.079224 0.474646 0.272191
1.085561 0.477206 -0.020699
1.063205 0.466493 -0.311100
1.080400 0.474038 0.020594
1.083290 0.475080 -0.273091
1.073679 0.470865 0.061442
1.057278 0.463453 -0.224391
1.067494 0.467931 0.101972
1.078362 0.472470 -0.186470
1.100030 0.481964 0.147462
1.090939 0.477981 -0.146243
1.094730 0.479414 0.189286
1.054882 0.461963 -0.100752
1.077304 0.471559 0.228589
1.086815 0.475722 -0.062175
1.083621 0.474324 0.273091
1.093720 0.478517 -0.020838
1.065788 0.465410 -0.311618
1.073896 0.468950 0.020454
1.060899 0.463055 -0.267242
1.076330 0.469790 0.061547
1.070681 0.467102 -0.227063
1.075613 0.469254 0.102669
1.068321 0.465850 -0.184593
1.086313 0.473695 0.145512
1.088132 0.474489 -0.145756
1.091943 0.475924 0.188660
1.059339 0.461714 -0.101101
1.074525 0.468110 0.227826
1.080319 0.470634 -0.061756
1.082661 0.471654 0.272641
1.090887 0.475010 -0.020768
1.064827 0.462779 -0.311100
1.078380 0.468670 0.020524
1.063493 0.461979 -0.267692
1.071652 0.465523 0.061233
1.078698 0.468360 -0.228589
1.085569 0.471343 0.103541
1.072756 0.465558 -0.185218
1.065286 0.462316 0.142587
1.083495 0.470219 -0.145025
1.096396 0.475590 0.189286
1.056487 0.458279 -0.100752
1.071738 0.464671 0.227063
1.073810 0.465569 -0.061338
1.083482 0.469763 0.272641
1.089879 0.472311 -0.020733
1.070952 0.463221 -0.312653
1.082867 0.468375 0.020594
1.048199 0.453162 -0.263643
1.059630 0.458104 0.060500
1.048877 0.453238 -0.222102
1.086390 0.469448 0.103541
1.077194 0.465252 -0.185844
1.080670 0.466753 0.144537
1.078847 0.465966 -0.144293
1.086344 0.468978 0.187409
1.064603 0.459592 -0.101449
1.083363 0.467467 0.229352
1.074620 0.463694 -0.061338
1.073565 0.463239 0.269941
1.081521 0.466448 -0.020559
1.066436 0.459059 -0.311100
1.083683 0.466484 0.020594
1.068679 0.459804 -0.268592
1.064098 0.457833 0.060710
1.064095 0.457611 -0.225155
1.067074 0.458893 0.101624
1.074294 0.461998 -0.185218
1.083307 0.465649 0.144781
1.079659 0.464082 -0.144293
1.079901 0.463962 0.186157
1.058081 0.454588 -0.100752
1.078685 0.463440 0.228208
1.077263 0.462606 -0.061442
1.069000 0.459058 0.268592
1.067633 0.458250 -0.020280
1.051253 0.450351 -0.306442
1.077143 0.461442 0.020454
1.060444 0.454288 -0.266342
1.068567 0.457547 0.060919
1.050374 0.449757 -0.222102
1.060467 0.454078 0.100926
1.067835 0.457013 -0.183967
1.082212 0.463166 0.144537
1.080467 0.462197 -0.144293
1.080628 0.462265 0.186157
1.055130 0.451358 -0.100403
1.075882 0.460012 0.227444
1.077989 0.460913 -0.061442
1.068007 0.456426 0.268142
1.083062 0.462859 -0.020559
1.062621 0.453247 -0.309548
1.070509 0.456611 0.020315
1.063028 0.453200 -0.266792
1.069285 0.455868 0.060919
1.067412 0.454850 -0.225536
1.061258 0.452228 0.100926
1.064996 0.453601 -0.183341
1.072060 0.456610 0.143075
1.081192 0.460499 -0.144293
1.088703 0.463473 0.187409
1.052250 0.447954 -0.100055
1.069457 0.455060 0.225918
1.075116 0.457468 -0.061233
1.074103 0.457037 0.269491
1.078347 0.458621 -0.020454
1.061633 0.450636 -0.309030
1.073145 0.455523 0.020350
1.051259 0.446017 -0.263643
1.064563 0.451661 0.060605
1.053745 0.446854 -0.222483
1.073051 0.455041 0.101972
1.063967 0.450970 -0.183028
1.063717 0.450864 0.141856
1.081994 0.458611 -0.144293
1.089510 0.461573 0.187409
1.054865 0.446895 -0.100229
1.077481 0.456254 0.227444
1.072234 0.454033 -0.061024
1.071310 0.453641 0.268592
1.079146 0.456737 -0.020454
1.067756 0.451038 -0.310583
1.079465 0.455984 0.020454
1.064603 0.449487 -0.266792
1.059829 0.447472 0.060291
1.065376 0.449594 -0.224773
1.070173 0.451619 0.101624
1.070213 0.451416 -0.183967
1.069990 0.451321 0.142587
1.068161 0.450550 -0.142343
1.083034 0.456601 0.186157
1.061151 0.447375 -0.100752
1.071039 0.451324 0.225918
1.076706 0.453712 -0.061233
1.068508 0.450257 0.267692
1.076256 0.453301 -0.020384
1.057856 0.444682 -0.307477
1.080259 0.454099 0.020454
1.051013 0.441590 -0.263193
1.062450 0.446395 0.060396
1.046248 0.439373 -0.220575
1.065448 0.447436 0.101101
1.067357 0.448018 -0.183341
1.079928 0.453295 0.143806
1.079928 0.453295 -0.143806
1.076542 0.451653 0.184906
1.049069 0.440127 -0.099532
1.077256 0.451731 0.227063
1.077496 0.451832 -0.061233
1.063901 0.446131 0.266342
1.062291 0.445238 -0.020105
1.051502 0.439853 -0.305406
1.073671 0.449127 0.020315
1.075155 0.449527 -0.269041
1.059542 0.442999 0.060186
1.059693 0.442845 -0.223247
1.060713 0.443271 0.100578
1.064491 0.444632 -0.182715
1.075222 0.449114 0.143075
1.088044 0.454470 -0.144781
1.080975 0.451296 0.185531
1.051674 0.439063 -0.099706
1.072608 0.447582 0.225918
1.074597 0.448412 -0.061024
1.066477 0.445024 0.266792
1.064912 0.444153 -0.020140
1.055835 0.439502 -0.306442
1.063376 0.442641 0.020105
1.050749 0.437169 -0.262743
1.067690 0.444218 0.060605
1.055026 0.438733 -0.222102
1.067004 0.443714 0.101101
1.061618 0.441257 -0.182090
1.065006 0.442665 0.141612
1.081504 0.449522 -0.143806
1.081761 0.449408 0.185531
1.052439 0.437226 -0.099706
1.062508 0.441193 0.223628
1.068000 0.443473 -0.060605
1.061852 0.440920 0.265442
1.067533 0.443060 -0.020175
1.102686 0.457650 0.319900
1.053031 0.436180 -0.305406
1.067842 0.442315 0.020175
1.053311 0.436081 -0.263193
1.059237 0.438534 0.060082
1.068489 0.442146 -0.224773
1.069618 0.442613 0.101275
1.055084 0.436383 -0.180838
1.062108 0.439288 0.141125
1.082286 0.447634 -0.143806
1.086195 0.449029 0.186157
1.055042 0.436150 -0.099880
1.068720 0.441586 0.224773
1.068772 0.441608 -0.060605
1.060819 0.438322 0.264992
1.079394 0.445776 -0.020384
1.078485 0.445401 0.312653
1.060935 0.437286 -0.307477
1.068612 0.440450 0.020175
1.046863 0.431272 -0.261393
1.050767 0.432880 0.059558
1.052920 0.433553 -0.221338
1.072231 0.441504 0.101449
1.059498 0.436045 -0.181464
1.062873 0.437434 0.141125
1.073887 0.441967 -0.142587
1.079669 0.444126 0.184906
1.052116 0.432792 -0.099532
1.071305 0.440467 0.225155
1.062152 0.436704 -0.060186
1.074622 0.441611 -0.020280
1.063179 0.436909 0.307995
1.058122 0.433968 -0.306442
1.076780 0.441620 0.020315
1.056630 0.433140 -0.263643
1.058913 0.434076 0.059977
1.053676 0.431714 -0.221338
1.058250 0.433589 0.100055
1.071226 0.438687 -0.183341
1.061798 0.434826 0.140881
1.074657 0.440092 -0.142587
1.076787 0.440745 0.184280
1.052870 0.430955 -0.099532
1.075706 0.440083 0.225918
1.075853 0.440143 -0.060919
1.051521 0.430188 0.262293
1.062434 0.434437 -0.020035
1.062152 0.434322 0.307477
1.048146 0.427741 -0.303336
1.075698 0.438984 0.020280
1.053775 0.429823 -0.262743
1.054121 0.429964 0.059663
1.054428 0.429874 -0.221338
1.049781 0.427980 0.099183
1.061014 0.432344 -0.181464
1.069909 0.435969 0.141856
1.075424 0.438216 -0.142587
1.077554 0.438864 0.184280
1.049930 0.427614 -0.099183
1.063744 0.433023 0.223247
1.076619 0.438264 -0.060919
1.050465 0.427618 0.261843
1.061339 0.431829 -0.020000
1.062908 0.432467 0.307477
1.052471 0.427364 -0.304371
1.054229 0.428078 0.019861
1.047301 0.425052 -0.260943
1.062272 0.431128 0.060082
1.040622 0.422130 -0.218286
1.059757 0.429893 0.100055
1.052613 0.426780 -0.179900
1.055951 0.428133 0.139906
1.079866 0.437830 -0.143075
1.085642 0.439951 0.185531
1.046982 0.424284 -0.098835
1.057220 0.428219 0.221720
1.069978 0.433386 -0.060500
1.060241 0.429442 0.264093
1.062091 0.429975 -0.020000
1.063662 0.430611 0.307477
1.056797 0.426974 -0.305406
1.066099 0.430732 0.020070
1.037199 0.418846 -0.258244
1.055615 0.426283 0.059663
1.061383 0.428396 -0.222483
1.056811 0.426550 0.099706
1.055189 0.425681 -0.180213
1.054855 0.425547 0.139662
1.069583 0.431488 -0.141612
1.082743 0.436578 0.184906
1.051416 0.423947 -0.099183
1.063428 0.428574 0.222865
1.055913 0.425545 -0.059663
1.051952 0.423949 0.261843
1.066550 0.429615 -0.020070
1.071579 0.431641 0.309548
1.057541 0.425128 -0.305406
1.064994 0.428124 0.020035
1.046970 0.420667 -0.260493
1.048945 0.421461 0.059244
1.045733 0.419958 -0.219049
1.061252 0.426190 0.100055
1.063263 0.426782 -0.181464
1.061123 0.425923 0.140393
1.066650 0.428142 -0.141125
1.076171 0.431746 0.183654
1.055853 0.423594 -0.099532
1.060530 0.425256 0.222102
1.069630 0.428905 -0.060396
1.059873 0.424777 -0.019931
1.074124 0.430489 0.310065
1.051106 0.420413 -0.303336
1.071309 0.428493 0.020140
1.044084 0.417393 -0.259594
1.047824 0.418888 0.059140
1.042818 0.416675 -0.218286
1.050893 0.419901 0.099009
1.058503 0.422728 -0.180525
1.058178 0.422599 0.139906
1.069239 0.427016 -0.141368
1.069584 0.426937 0.182403
1.052890 0.420274 -0.099183
1.063094 0.424131 0.222483
1.064812 0.424817 -0.060082
1.049468 0.418483 -0.019721
1.067696 0.425752 0.307995
1.035684 0.412149 -0.298677
1.072056 0.426623 0.020140
1.057486 0.420611 -0.262743
1.052266 0.418534 0.059349
1.050841 0.417756 -0.219812
1.051624 0.418067 0.099009
1.055494 0.419605 -0.179900
1.066293 0.423683 0.140881
1.071828 0.425883 -0.141612
1.070328 0.425070 0.182403
1.044363 0.414758 -0.098312
1.056461 0.419563 0.220957
1.076690 0.427379 -0.060710
1.046912 0.415559 0.260043
1.053914 0.418126 -0.019791
1.064846 0.422463 0.306959
1.045383 0.413896 -0.301265
1.059784 0.419598 0.019896
1.038215 0.411058 -0.257794
1.058566 0.418902 0.059663
1.038717 0.411048 -0.217141
1.055985 0.417881 0.099358
1.048877 0.414857 -0.178648
1.052190 0.416167 0.138931
1.072569 0.424011 -0.141612
1.074668 0.424840 0.183028
1.046866 0.413850 -0.098486
1.053540 0.416275 0.220194
1.062500 0.419816 -0.059872
1.053073 0.415879 0.261393
1.058289 0.417939 -0.019861
1.060118 0.418661 0.305406
1.053221 0.415087 -0.303336
1.053000 0.415000 0.019756
1.037117 0.408531 -0.257344
1.057364 0.416507 0.059558
1.054047 0.414988 -0.220194
1.056712 0.416038 0.099358
1.049600 0.413025 -0.178648
1.049220 0.412876 0.138444
1.071387 0.421599 -0.141368
1.079084 0.424410 0.183654
1.053149 0.414210 -0.099009
1.046956 0.411563 0.218667
1.057654 0.415769 -0.059558
1.041029 0.409234 0.258244
1.070185 0.420479 -0.020070
1.064443 0.418223 0.306442
1.053944 0.413248 -0.303336
1.064893 0.417542 0.019966
1.036015 0.406009 -0.256894
1.043213 0.408830 0.058721
1.041974 0.408136 -0.217522
1.053727 0.412739 0.099009
1.053998 0.412633 -0.179274
1.049939 0.411044 0.138444
1.064727 0.416834 -0.140393
1.072465 0.419647 0.182403
1.055726 0.413097 -0.099183
1.049501 0.410450 0.219049
1.060239 0.414650 -0.059663
1.039927 0.406706 0.257794
1.052292 0.411330 -0.019721
1.072369 0.419178 0.308512
1.047464 0.408600 -0.301265
1.061894 0.414229 0.019896
1.042168 0.406325 -0.258244
1.047647 0.408461 0.058930
1.037197 0.404178 -0.216377
1.052589 0.410176 0.098835
1.054716 0.410792 -0.179274
1.050655 0.409211 0.138444
1.067303 0.415695 -0.140637
1.065833 0.414908 0.181151
1.041592 0.405472 -0.097789
1.055705 0.410754 0.220194
1.062822 0.413523 -0.059768
1.041826 0.405144 -0.019512
1.051493 0.408903 0.302301
1.040972 0.403976 -0.299195
1.058887 0.410928 0.019826
1.044693 0.405210 -0.258694
1.048358 0.406632 0.058930
1.041562 0.403786 -0.217141
1.034727 0.401136 0.097091
1.049906 0.406810 -0.178335
1.056921 0.409528 0.139175
1.069878 0.414549 -0.140881
1.070239 0.414474 0.181777
1.036724 0.401495 -0.097266
1.045435 0.404658 0.217904
1.061680 0.410946 -0.059663
1.035889 0.400963 0.256444
1.044397 0.404047 -0.019547
1.052205 0.407067 0.302301
1.038071 0.400767 -0.298160
1.044678 0.403318 0.019547
1.038126 0.400580 -0.256894
1.049066 0.404801 0.058930
1.049592 0.404793 -0.218667
1.050297 0.405065 0.098486
1.045084 0.402846 -0.177397
1.046520 0.403399 0.137712
1.068747 0.411967 -0.140637
1.063588 0.409765 0.180525
1.041142 0.401117 -0.097614
1.036979 0.399305 0.215996
1.056804 0.406939 -0.059349
1.043861 0.401956 0.258244
1.061896 0.408688 -0.019861
1.051110 0.404537 0.301783
1.042376 0.400339 -0.299195
1.052848 0.404361 0.019686
1.035185 0.397370 -0.255994
1.042313 0.400106 0.058512
1.037466 0.398038 -0.215996
1.051002 0.403232 0.098486
1.045786 0.401021 -0.177397
1.045369 0.400861 0.137469
1.067611 0.409390 -0.140393
1.071680 0.410736 0.181777
1.043701 0.400013 -0.097789
1.046841 0.401006 0.217904
1.059377 0.405809 -0.059454
1.039102 0.398042 0.256894
1.051403 0.402544 -0.019651
1.053619 0.403392 0.302301
1.050291 0.401278 -0.301265
1.053552 0.402523 0.019686
1.035877 0.395563 -0.255994
1.039278 0.396861 0.058302
1.043662 0.398327 -0.217141
1.057288 0.403528 0.099009
1.039102 0.396379 -0.176145
1.047922 0.399744 0.137712
1.057196 0.403281 -0.138931
1.057629 0.403235 0.179274
1.049983 0.400319 -0.098312
1.043870 0.397781 0.217141
1.054485 0.401826 -0.059140
1.042760 0.397149 -0.019477
1.057932 0.402928 0.303336
1.040155 0.395325 -0.298160
1.052384 0.399973 0.019651
1.032922 0.392371 -0.255094
1.045570 0.397175 0.058616
1.035178 0.393021 -0.215233
1.037502 0.393903 0.097091
1.054567 0.400171 -0.178648
1.054186 0.400027 0.138444
1.065322 0.404252 -0.139906
1.058331 0.401389 0.179274
1.035776 0.392834 -0.096917
1.055577 0.400134 0.219430
1.060787 0.402109 -0.059454
1.033196 0.391650 0.255094
1.047192 0.396745 -0.019547
1.058634 0.401080 0.303336
1.030001 0.389411 -0.295054
1.054950 0.398843 0.019686
1.048189 0.396078 -0.258694
1.046261 0.395350 0.058616
1.045046 0.394681 -0.217141
1.040052 0.392795 0.097266
1.044175 0.394144 -0.176771
1.053025 0.397485 0.138200
1.062311 0.400990 -0.139419
1.066423 0.402330 0.180525
1.036460 0.391026 -0.096917
1.045252 0.394134 0.217141
1.061488 0.400256 -0.059454
1.032055 0.389158 0.254645
1.034784 0.389981 -0.019302
1.048486 0.395145 0.300230
1.030679 0.387612 -0.295054
1.048158 0.394186 0.019547
1.028813 0.386706 -0.253745
1.058167 0.397739 0.059244
1.038382 0.390095 -0.215614
1.042601 0.391680 0.097440
1.033766 0.388155 -0.174894
1.044425 0.392158 0.136981
1.068585 0.401229 -0.140150
1.067123 0.400468 0.180525
1.039007 0.389916 -0.097091
1.033071 0.387483 0.214469
1.049094 0.393493 -0.058721
1.038206 0.389409 0.255994
1.057933 0.396598 -0.019721
1.056410 0.396027 0.302301
1.042211 0.389874 -0.298160
1.052590 0.393757 0.019617
1.024011 0.382862 -0.252395
1.043894 0.390296 0.058407
1.035383 0.386908 -0.214851
1.045149 0.390557 0.097614
1.034374 0.386531 -0.174894
1.037670 0.387556 0.136006
1.061845 0.396585 -0.139175
1.064119 0.397223 0.179900
1.039686 0.388102 -0.097091
1.039196 0.387920 0.215614
1.044166 0.389567 -0.058407
1.029755 0.384191 0.253745
1.047381 0.390559 -0.019512
1.053479 0.392832 0.301265
1.046511 0.389402 -0.299195
1.049528 0.390525 0.019547
1.028263 0.382612 -0.253295
1.037085 0.385688 0.057988
1.039670 0.386649 -0.215614
1.043894 0.388220 0.097440
1.040602 0.386790 -0.175832
1.043859 0.388001 0.136737
1.055092 0.391966 -0.138200
1.057335 0.392800 0.178648
1.038426 0.385775 -0.096917
1.038031 0.385422 0.215233
1.048521 0.389317 -0.058616
1.042369 0.386826 -0.019407
1.052284 0.390505 0.300748
1.036251 0.383732 -0.296089
1.050140 0.388875 0.019547
1.039895 0.384875 -0.255994
1.041436 0.385445 0.058198
1.034819 0.382791 -0.214469
1.040832 0.385016 0.097091
1.043128 0.385658 -0.176145
1.044535 0.386178 0.136737
1.057569 0.390997 -0.138444
1.046901 0.386845 0.176771
1.042836 0.385343 -0.097266
1.046069 0.386331 0.216759
1.056693 0.390254 -0.059035
1.025539 0.378749 0.252395
1.041167 0.384313 -0.019372
1.043902 0.385323 0.298160
1.029668 0.379252 -0.294018
1.050817 0.387042 0.019547
1.035079 0.381041 -0.254645
1.040233 0.382938 0.058093
1.028115 0.378273 -0.212943
1.039633 0.382511 0.096917
1.041946 0.383155 -0.175832
1.043344 0.383669 0.136494
1.065702 0.391891 -0.139419
1.054991 0.387743 0.178022
1.032286 0.379398 -0.096220
1.033842 0.379765 0.214088
1.057373 0.388409 -0.059035
1.033516 0.379645 0.254195
1.039959 0.381806 -0.019337
1.039132 0.381503 0.296607
1.030329 0.377455 -0.294018
1.042103 0.381768 0.019372
1.030253 0.377223 -0.253295
1.040900 0.381121 0.058093
1.037992 0.379851 -0.214851
1.038428 0.380011 0.096743
1.035192 0.378622 -0.174581
1.036555 0.379120 0.135519
1.064520 0.389348 -0.139175
1.055667 0.385902 0.178022
1.029204 0.376228 -0.095871
1.027127 0.375266 0.212561
1.041165 0.380395 -0.058093
1.036007 0.378510 0.254645
1.048137 0.382734 -0.019477
1.041611 0.380351 0.297124
1.030986 0.375656 -0.294018
1.040889 0.379264 0.019337
1.025416 0.373424 -0.251945
1.035933 0.377254 0.057779
1.031274 0.375353 -0.213324
1.046579 0.380924 0.097440
1.035851 0.376815 -0.174581
1.033484 0.375954 0.135031
1.059601 0.385454 -0.138444
1.063765 0.386758 0.179274
1.037349 0.377154 -0.096569
1.027781 0.373472 0.212561
1.038074 0.377212 -0.057884
1.041285 0.378174 -0.019337
1.045905 0.379852 0.298160
1.042537 0.377805 -0.297124
1.047189 0.379491 0.019442
1.031563 0.373624 -0.253295
1.030956 0.373404 0.057465
1.035620 0.374889 -0.214088
1.045369 0.378418 0.097266
1.040223 0.376350 -0.175207
1.037872 0.375500 0.135519
1.054672 0.381578 -0.137712
1.045861 0.378184 0.176145
1.034259 0.373988 -0.096220
1.032123 0.373012 0.213324
1.040609 0.376079 -0.057988
1.024493 0.370255 0.251495
1.043824 0.377036 -0.019372
1.044749 0.377370 0.297642
1.025021 0.369435 -0.291948
1.047850 0.377662 0.019442
1.024880 0.369182 -0.251495
1.025969 0.369574 0.057151
1.025189 0.369091 -0.211798
1.036654 0.373219 0.096394
1.042737 0.375203 -0.175519
1.045997 0.376376 0.136494
1.055337 0.379736 -0.137712
1.039085 0.373684 0.174894
1.029285 0.370160 -0.095697
1.036468 0.372539 0.214088
1.052540 0.378316 -0.058616
1.025137 0.368467 0.251495
1.031307 0.370480 -0.019128
1.049043 0.376852 0.298677
1.014753 0.363734 -0.288842
1.040978 0.373134 0.019302
1.031026 0.369365 -0.252845
1.036014 0.371151 0.057674
1.031377 0.369287 -0.212943
1.037304 0.371409 0.096394
1.034091 0.370055 -0.173955
1.046653 0.374550 0.136494
1.061605 0.379901 -0.138444
1.047175 0.374531 0.176145
1.024302 0.366350 -0.095174
1.033419 0.369407 0.213324
1.047557 0.374461 -0.058302
1.025779 0.366676 0.251495
1.037601 0.370698 -0.019233
1.036964 0.370471 0.295054
1.022665 0.364557 -0.290913
1.035977 0.369302 0.019198
1.018820 0.362986 -0.249696
1.038542 0.370012 0.057779
1.030171 0.366827 -0.212561
1.026689 0.365588 0.095348
1.027291 0.365600 -0.172704
1.037954 0.369394 0.135275
1.058526 0.376716 -0.137956
1.044105 0.371379 0.175519
1.019308 0.362559 -0.094651
1.028513 0.365630 0.212180
1.044445 0.371294 -0.058093
1.030090 0.366191 0.252395
1.038247 0.368886 -0.019233
1.030328 0.366073 0.292983
1.026941 0.364063 -0.291948
1.042274 0.369498 0.019302
1.024962 0.363160 -0.251045
1.035421 0.366865 0.057570
1.043764 0.369616 -0.215233
1.044229 0.369781 0.096917
1.027927 0.363807 -0.172704
1.029240 0.364271 0.134056
1.051696 0.372219 -0.136981
1.052201 0.372191 0.176771
1.029331 0.364101 -0.095523
1.025447 0.362526 0.211416
1.041326 0.368139 -0.057884
1.021541 0.361145 0.250146
1.052087 0.371738 -0.019477
1.034608 0.365562 0.294018
1.029397 0.362912 -0.292466
1.044803 0.368344 0.019337
1.018243 0.358779 -0.249246
1.024757 0.361075 0.056942
1.024038 0.360621 -0.211035
1.039235 0.365972 0.096394
1.036014 0.364635 -0.173955
1.033619 0.363793 0.134544
1.041109 0.366429 -0.135519
1.037941 0.365110 0.174268
1.037483 0.364948 -0.096220
1.016818 0.357480 0.209508
1.047619 0.368308 -0.058198
1.016654 0.357422 0.248796
1.031982 0.362609 -0.019093
1.042535 0.366317 0.296089
1.020914 0.357919 -0.289877
1.047331 0.367181 0.019372
1.024385 0.358935 -0.250595
1.025385 0.359286 0.056942
1.017254 0.356238 -0.209508
1.032350 0.361524 0.095697
1.032920 0.361521 -0.173329
1.034253 0.361988 0.134544
1.049242 0.367234 -0.136494
1.034848 0.361993 0.173642
1.021192 0.357216 -0.094651
1.041532 0.364128 0.214469
1.044490 0.365162 -0.057988
1.019116 0.356291 0.249246
1.034501 0.361467 -0.019128
1.028583 0.359399 0.291948
1.010592 0.352321 -0.286772
1.044194 0.364036 0.019302
1.028690 0.358430 -0.251495
1.033555 0.360125 0.057360
1.019728 0.355107 -0.209890
1.031098 0.359066 0.095523
1.026087 0.357121 -0.172078
1.038633 0.361487 0.135031
1.053631 0.366707 -0.136981
1.031747 0.358888 0.173017
1.008642 0.350851 -0.093431
1.023623 0.355862 0.210653
1.037579 0.360714 -0.057570
1.023418 0.355791 0.250146
1.027575 0.357035 -0.018988
1.029209 0.357603 0.291948
1.011205 0.350556 -0.286772
1.033492 0.358282 0.019093
1.018266 0.352805 -0.248796
1.036069 0.358974 0.057465
1.014781 0.351400 -0.208745
1.031723 0.357266 0.095523
1.022975 0.354037 -0.171452
1.039262 0.359673 0.135031
1.046766 0.362270 -0.136006
1.045439 0.361607 0.175207
1.018667 0.352347 -0.094303
1.016820 0.351510 0.209127
1.034432 0.357598 -0.057360
1.018512 0.352095 0.248796
1.031976 0.356547 -0.019058
1.028005 0.355175 0.291430
1.022774 0.352569 -0.289877
1.034115 0.356479 0.019093
1.007825 0.347219 -0.246096
1.021587 0.351961 0.056628
1.026530 0.353463 -0.211035
1.036113 0.356762 0.095871
1.027327 0.353537 -0.172078
1.028626 0.353984 0.133569
1.043642 0.359151 -0.135519
