# This PCD file was generated using the MATLAB® pcwrite function
# from Computer Vision System Toolbox®.
# .PCD v.7 - Point Cloud Data file format
VERSION .7
FIELDS x y z
SIZE 4 4 4
TYPE F F F
COUNT 1 1 1
WIDTH 1685
HEIGHT 1
VIEWPOINT 0 0 0 1 0 0 0
POINTS 1685
DATA ascii
1.080034 0.090694 0.018918
1.009806 0.084618 -0.233949
1.062811 0.089060 0.055895
0.997777 0.083435 -0.194625
1.090018 0.091148 0.095697
1.029544 0.085911 -0.163630
1.101867 0.091946 0.135762
1.036586 0.086499 -0.127719
1.026513 0.085477 -0.090119
1.044960 0.086830 -0.054953
1.050235 0.087084 -0.018395
0.989633 0.081363 -0.266066
1.072219 0.088153 0.018779
1.015779 0.083334 -0.235299
1.078890 0.088511 0.056732
1.019445 0.083456 -0.198823
1.074289 0.087946 0.094303
1.025755 0.083792 -0.163005
1.102026 0.090022 0.135762
1.042671 0.085174 -0.128450
1.014746 0.082714 -0.089073
1.049091 0.085329 -0.055162
1.054372 0.085574 -0.018465
0.997476 0.080255 -0.268137
1.060411 0.085319 0.018569
0.992613 0.079689 -0.229900
1.081034 0.086788 0.056837
1.023503 0.081990 -0.199586
1.084371 0.086866 0.095174
1.021961 0.081687 -0.162379
1.090308 0.087150 0.134300
1.050733 0.083987 -0.129425
1.018860 0.081259 -0.089422
1.037293 0.082548 -0.054534
1.060500 0.084208 -0.018569
1.001466 0.078817 -0.269172
1.068533 0.084095 0.018709
1.002464 0.078720 -0.232149
1.071228 0.084120 0.056313
1.029517 0.080663 -0.200731
1.092466 0.085596 0.095871
1.026041 0.080211 -0.163005
1.080564 0.084473 0.133081
1.040983 0.081379 -0.128207
1.022974 0.079792 -0.089770
1.033453 0.080428 -0.054325
1.068620 0.082976 -0.018709
0.997750 0.076773 -0.268137
1.068678 0.082230 0.018709
1.002600 0.076970 -0.232149
1.065399 0.081791 0.055999
1.015953 0.077817 -0.198060
1.090627 0.083536 0.095697
1.030119 0.078721 -0.163630
1.084668 0.082889 0.133569
1.039144 0.079410 -0.127963
1.023111 0.078006 -0.089770
1.037575 0.078926 -0.054534
1.054806 0.080052 -0.018465
1.005588 0.075611 -0.270207
1.084772 0.081565 0.018988
1.006619 0.075511 -0.233049
1.067531 0.080081 0.056104
1.014130 0.075897 -0.197678
1.088785 0.081484 0.095523
1.038134 0.077512 -0.164882
1.102627 0.082327 0.135762
1.041260 0.077745 -0.128207
1.023246 0.076220 -0.089770
1.041694 0.077411 -0.054743
1.052949 0.078063 -0.018430
0.990305 0.072724 -0.266066
1.072947 0.078792 0.018779
1.006749 0.073755 -0.233049
1.065678 0.078072 0.055999
1.016219 0.074270 -0.198060
1.084951 0.079293 0.095174
1.026447 0.074837 -0.163005
1.090890 0.079536 0.134300
1.037435 0.075639 -0.127719
1.023377 0.074434 -0.089770
1.049796 0.076171 -0.055162
1.063057 0.076947 -0.018604
0.996211 0.071410 -0.267619
1.061115 0.076062 0.018569
1.010764 0.072275 -0.233949
1.079758 0.077208 0.056732
1.028096 0.073334 -0.200349
1.081113 0.077116 0.094825
1.022635 0.072766 -0.162379
1.094988 0.077914 0.134787
1.043505 0.074251 -0.128450
1.019531 0.072365 -0.089422
1.041958 0.073775 -0.054743
1.061194 0.074951 -0.018569
0.994395 0.069710 -0.267101
1.069213 0.074955 0.018709
1.003101 0.070144 -0.232149
1.081870 0.075652 0.056837
1.024293 0.071446 -0.199586
1.097133 0.076527 0.096220
1.022748 0.071159 -0.162379
1.087187 0.075643 0.133813
1.041640 0.072474 -0.128207
1.027594 0.071316 -0.090119
1.034103 0.071587 -0.054325
1.065301 0.073559 -0.018639
0.998370 0.068237 -0.268137
1.073332 0.073361 0.018779
1.003222 0.068393 -0.232149
1.064067 0.072541 0.055895
1.020499 0.069392 -0.198823
1.097265 0.074612 0.096220
1.038638 0.070443 -0.164882
1.091279 0.074013 0.134300
1.029882 0.069849 -0.126744
1.035668 0.070060 -0.090816
1.046182 0.070588 -0.054953
1.061437 0.071431 -0.018569
0.998487 0.066495 -0.268137
1.081440 0.072019 0.018918
1.011117 0.067158 -0.233949
1.066185 0.070816 0.055999
1.012783 0.067092 -0.197297
1.083477 0.071775 0.095000
1.030875 0.068109 -0.163630
1.097349 0.072501 0.135031
1.037926 0.068575 -0.127719
1.023860 0.067466 -0.089770
1.046304 0.068762 -0.054953
1.051583 0.068925 -0.018395
0.987035 0.064002 -0.265031
1.069591 0.069355 0.018709
1.015122 0.065645 -0.234849
1.074279 0.069471 0.056418
1.024653 0.066082 -0.199586
1.081613 0.069755 0.094825
1.034935 0.066564 -0.164256
1.103417 0.070968 0.135762
1.047949 0.067401 -0.128938
1.012046 0.064914 -0.088725
1.054395 0.067446 -0.055371
1.059684 0.067598 -0.018534
0.996786 0.062887 -0.267619
1.065719 0.067236 0.018639
1.007456 0.063384 -0.233049
1.080378 0.067972 0.056732
1.018889 0.063924 -0.198441
1.089687 0.068366 0.095523
1.023220 0.064017 -0.162379
1.093633 0.068423 0.134544
1.046083 0.065448 -0.128694
1.020112 0.063644 -0.089422
1.046538 0.065109 -0.054953
1.059801 0.065749 -0.018534
1.006535 0.061739 -0.270207
1.073818 0.065866 0.018779
1.003675 0.061387 -0.232149
1.076508 0.065842 0.056523
1.024878 0.062505 -0.199586
1.089805 0.066465 0.095523
1.027274 0.062471 -0.163005
1.087806 0.066152 0.133813
1.054122 0.064103 -0.129669
1.036132 0.062828 -0.090816
1.036682 0.062680 -0.054429
1.067898 0.064380 -0.018674
1.012426 0.060327 -0.271760
1.077924 0.064229 0.018849
0.999889 0.059404 -0.231250
1.074628 0.063845 0.056418
1.026945 0.060832 -0.199968
1.101852 0.065269 0.096569
1.023427 0.060624 -0.162379
1.099810 0.064956 0.135275
1.030452 0.060859 -0.126744
1.032262 0.060785 -0.090468
1.042771 0.061222 -0.054743
1.054035 0.061698 -0.018430
0.995173 0.057556 -0.267101
1.082027 0.062579 0.018918
1.003873 0.058059 -0.232149
1.072744 0.061854 0.056313
1.021159 0.058880 -0.198823
1.093997 0.063080 0.095871
1.031419 0.059291 -0.163630
1.091983 0.062772 0.134300
1.038484 0.059515 -0.127719
1.024400 0.058708 -0.089770
1.038878 0.059356 -0.054534
1.054131 0.060043 -0.018430
1.002977 0.056427 -0.269172
1.078131 0.060655 0.018849
1.007864 0.056525 -0.233049
1.084804 0.060840 0.056942
1.021261 0.057098 -0.198823
1.078191 0.060281 0.094477
1.027577 0.057270 -0.163005
1.107947 0.061750 0.136250
1.052451 0.058657 -0.129425
1.020522 0.056699 -0.089422
1.046957 0.057984 -0.054953
1.064217 0.058754 -0.018604
0.999216 0.054465 -0.268137
1.074242 0.058555 0.018779
1.004069 0.054555 -0.232149
1.090892 0.059272 0.057256
1.017438 0.055102 -0.198060
1.088242 0.058937 0.095348
1.027675 0.055477 -0.163005
1.088231 0.058746 0.133813
1.058498 0.057141 -0.130156
1.024598 0.055132 -0.089770
1.043067 0.055943 -0.054743
1.066315 0.057003 -0.018639
1.007026 0.053129 -0.270207
1.074342 0.056680 0.018779
1.004163 0.052802 -0.232149
1.073043 0.056424 0.056313
1.029296 0.053943 -0.200349
1.094312 0.057350 0.095871
1.031716 0.053890 -0.163630
1.094279 0.057158 0.134544
1.046702 0.054673 -0.128694
1.032652 0.053758 -0.090468
1.037180 0.053812 -0.054429
1.072404 0.055452 -0.018744
1.005188 0.051273 -0.269689
1.074439 0.054805 0.018779
1.010092 0.051346 -0.233499
1.061172 0.053942 0.055685
1.021546 0.051749 -0.198823
1.098391 0.055642 0.096220
1.031808 0.052089 -0.163630
1.100325 0.055548 0.135275
1.040848 0.052545 -0.127963
1.032744 0.051955 -0.090468
1.043256 0.052302 -0.054743
1.060516 0.052981 -0.018534
0.995628 0.049043 -0.267101
1.086517 0.053520 0.018988
1.012127 0.049678 -0.233949
1.073233 0.052677 0.056313
1.015752 0.049679 -0.197678
1.096496 0.053628 0.096046
1.039790 0.050673 -0.164882
1.096455 0.053434 0.134787
1.050852 0.051212 -0.129182
1.020893 0.049573 -0.089422
1.051326 0.050867 -0.055162
1.056612 0.050938 -0.018465
1.001501 0.047580 -0.268654
1.082614 0.051433 0.018918
1.018051 0.048188 -0.235299
1.081304 0.051182 0.056732
1.015837 0.047906 -0.197678
1.084647 0.051151 0.095000
1.035930 0.048672 -0.164256
1.110427 0.052172 0.136494
1.044991 0.049098 -0.128450
1.024958 0.047978 -0.089770
1.055403 0.049218 -0.055371
1.056699 0.049093 -0.018465
0.997723 0.045655 -0.267619
1.070716 0.048995 0.018709
1.002560 0.045702 -0.231700
1.095358 0.049932 0.057465
1.019841 0.046311 -0.198441
1.094686 0.049709 0.095871
1.028120 0.046507 -0.163005
1.100601 0.049785 0.135275
1.053007 0.047633 -0.129425
1.029021 0.046368 -0.090119
1.047506 0.047017 -0.054953
1.064774 0.047606 -0.018604
1.005521 0.044254 -0.269689
1.078791 0.047479 0.018849
1.008479 0.044208 -0.233049
1.073495 0.047058 0.056313
1.027766 0.044873 -0.199968
1.102733 0.048146 0.096569
1.028200 0.044713 -0.163005
1.098703 0.047779 0.135031
1.055072 0.045882 -0.129669
1.029101 0.044572 -0.090119
1.039605 0.044845 -0.054534
1.068851 0.045920 -0.018674
1.005597 0.042499 -0.269689
1.082868 0.045764 0.018918
1.008555 0.042447 -0.233049
1.069584 0.045016 0.056104
1.023920 0.042915 -0.199205
1.098834 0.046054 0.096220
1.040118 0.043412 -0.164882
1.102751 0.046026 0.135519
1.039284 0.043377 -0.127719
1.033158 0.042941 -0.090468
1.047664 0.043360 -0.054953
1.064934 0.043889 -0.018604
0.997949 0.040431 -0.267619
1.078950 0.043713 0.018849
1.016416 0.041001 -0.234849
1.079639 0.043551 0.056628
1.012223 0.040655 -0.196915
1.090950 0.043817 0.095523
1.040192 0.041597 -0.164882
1.114731 0.044578 0.136981
1.043325 0.041722 -0.128207
1.033232 0.041137 -0.090468
1.051730 0.041691 -0.055162
1.061012 0.041873 -0.018534
1.007670 0.039063 -0.270207
1.079025 0.041829 0.018849
1.018433 0.039303 -0.235299
1.073726 0.041436 0.056313
1.020140 0.039190 -0.198441
1.083061 0.041607 0.094825
1.036315 0.039630 -0.164256
1.100922 0.042101 0.135275
1.049347 0.040128 -0.128938
1.025338 0.039031 -0.089770
1.051801 0.039855 -0.055162
1.061084 0.040021 -0.018534
1.001945 0.037090 -0.268654
1.075100 0.039798 0.018779
1.016553 0.037453 -0.234849
1.093756 0.040298 0.057360
1.028054 0.037697 -0.199968
1.095078 0.040155 0.095871
1.028487 0.037533 -0.163005
1.100993 0.040179 0.135275
1.055367 0.038514 -0.129669
1.029387 0.037387 -0.090119
1.039893 0.037586 -0.054534
1.069146 0.038456 -0.018674
1.011661 0.035682 -0.271242
1.071171 0.037781 0.018709
1.008826 0.035405 -0.233049
1.081849 0.037968 0.056732
1.032043 0.036040 -0.200731
1.103112 0.038522 0.096569
1.028544 0.035918 -0.163005
1.091142 0.037914 0.134056
1.047497 0.036397 -0.128694
1.035424 0.035796 -0.090642
1.039957 0.035771 -0.054534
1.075207 0.036796 -0.018779
1.009791 0.033851 -0.270725
1.087224 0.036447 0.018988
1.006933 0.033755 -0.232599
1.073928 0.035814 0.056313
1.024249 0.034157 -0.199205
1.089232 0.036324 0.095348
1.028605 0.034122 -0.163005
1.097153 0.036396 0.134787
1.047559 0.034568 -0.128694
1.047427 0.034564 -0.091688
1.051989 0.034531 -0.055162
1.065270 0.034780 -0.018604
1.002120 0.032018 -0.268654
1.091277 0.034867 0.019058
1.022573 0.032493 -0.236199
1.077976 0.034254 0.056523
1.024307 0.032369 -0.199205
1.097259 0.034674 0.096046
1.044453 0.033006 -0.165508
1.109119 0.034856 0.136250
1.051580 0.033048 -0.129182
1.035537 0.032362 -0.090642
1.044062 0.032446 -0.054743
1.061332 0.032798 -0.018534
0.994450 0.030036 -0.266584
1.079343 0.032600 0.018849
1.020675 0.030828 -0.235749
1.084023 0.032552 0.056837
1.028282 0.030878 -0.199968
1.095320 0.032891 0.095871
1.032662 0.030830 -0.163630
1.105204 0.032995 0.135762
1.051636 0.031212 -0.129182
1.027621 0.030499 -0.089945
1.056091 0.031160 -0.055371
1.065380 0.031248 -0.018604
1.002225 0.028520 -0.268654
1.075401 0.030602 0.018779
1.012940 0.028648 -0.233949
1.086075 0.030716 0.056942
1.038152 0.029180 -0.201876
1.095382 0.030789 0.095871
1.028770 0.028736 -0.163005
1.105265 0.030873 0.135762
1.063595 0.029709 -0.130644
1.031660 0.028637 -0.090293
1.052155 0.029022 -0.055162
1.069435 0.029312 -0.018674
1.006136 0.026874 -0.269689
1.083449 0.028939 0.018918
1.011040 0.026828 -0.233499
1.088123 0.028874 0.057046
1.040164 0.027419 -0.202258
1.107384 0.029191 0.096917
1.036718 0.027148 -0.164256
1.097380 0.028736 0.134787
1.051739 0.027541 -0.129182
1.043659 0.027147 -0.091339
1.040225 0.026876 -0.054534
1.069485 0.027445 -0.018674
1.013906 0.025311 -0.271760
1.085497 0.027098 0.018953
1.016930 0.025209 -0.234849
1.078189 0.026727 0.056523
1.024508 0.025218 -0.199205
1.101458 0.027112 0.096394
1.036763 0.025338 -0.164256
1.097428 0.026820 0.134787
1.049801 0.025656 -0.128938
1.051672 0.025519 -0.092036
1.044264 0.025157 -0.054743
1.065533 0.025483 -0.018604
1.006224 0.023362 -0.269689
1.089540 0.025296 0.019023
1.016973 0.023434 -0.234849
1.076237 0.024799 0.056418
1.016700 0.023250 -0.197678
1.099512 0.025143 0.096220
1.032856 0.023439 -0.163630
1.101443 0.024996 0.135275
1.057782 0.024005 -0.129913
1.035780 0.023325 -0.090642
1.050296 0.023468 -0.055057
1.061577 0.023535 -0.018534
0.998537 0.021439 -0.267619
1.083585 0.023265 0.018918
1.028702 0.021907 -0.237548
1.084266 0.023091 0.056837
1.024590 0.021641 -0.199205
1.087602 0.022972 0.095174
1.036845 0.021719 -0.164256
1.109423 0.023239 0.136250
1.051868 0.022033 -0.129182
1.035819 0.021516 -0.090642
1.060320 0.021841 -0.055581
1.065616 0.021763 -0.018604
1.006299 0.019849 -0.269689
1.079625 0.021295 0.018849
1.017048 0.019884 -0.234849
1.094289 0.021394 0.057360
1.032478 0.020005 -0.200731
1.093617 0.021190 0.095697
1.032932 0.019833 -0.163630
1.101523 0.021150 0.135275
1.059844 0.020350 -0.130156
1.035855 0.019709 -0.090642
1.044381 0.019689 -0.054743
1.069651 0.019978 -0.018674
1.006332 0.018093 -0.269689
1.079661 0.019411 0.018849
1.011236 0.018004 -0.233499
1.084340 0.019306 0.056837
1.036437 0.018272 -0.201494
1.105604 0.019492 0.096743
1.032965 0.018031 -0.163630
1.113467 0.019436 0.136737
1.044000 0.018223 -0.128207
1.035888 0.017901 -0.090642
1.040420 0.017798 -0.054534
1.077681 0.018247 -0.018814
1.006362 0.016337 -0.269689
1.083692 0.017592 0.018918
1.005420 0.016146 -0.232149
1.082375 0.017382 0.056732
1.038431 0.016495 -0.201876
1.107629 0.017594 0.096917
1.040895 0.016352 -0.164882
1.097621 0.017243 0.134787
1.044030 0.016401 -0.128207
1.051855 0.016341 -0.092036
1.048437 0.016104 -0.054953
1.065715 0.016183 -0.018604
1.010252 0.014636 -0.270725
1.093719 0.015845 0.019093
1.017138 0.014558 -0.234849
1.092389 0.015635 0.057256
1.022753 0.014460 -0.198823
1.105666 0.015632 0.096743
1.040922 0.014535 -0.164882
1.109558 0.015494 0.136250
1.057951 0.014773 -0.129913
1.043913 0.014394 -0.091339
1.060446 0.014437 -0.055581
1.065742 0.014324 -0.018604
1.006413 0.012823 -0.269689
1.083747 0.013809 0.018918
1.023008 0.012856 -0.236199
1.076438 0.013528 0.056418
1.018851 0.012627 -0.198060
1.085769 0.013456 0.095000
1.040946 0.012718 -0.164882
1.105614 0.013508 0.135762
1.050036 0.012829 -0.128938
1.035967 0.012477 -0.090642
1.052481 0.012492 -0.055162
1.065765 0.012463 -0.018604
0.998707 0.010982 -0.267619
1.079770 0.011873 0.018849
1.026926 0.011113 -0.237098
1.090440 0.011800 0.057151
1.030650 0.010973 -0.200349
1.101729 0.011730 0.096394
1.037016 0.010860 -0.164256
1.105636 0.011579 0.135762
1.063951 0.011142 -0.130644
1.035988 0.010669 -0.090642
1.056496 0.010695 -0.055371
1.071784 0.010663 -0.018709
1.019974 0.009435 -0.273313
1.083789 0.010025 0.018918
1.015252 0.009215 -0.234399
1.088461 0.009879 0.057046
1.036557 0.009227 -0.201494
1.103740 0.009825 0.096569
1.040984 0.009084 -0.164882
1.105654 0.009649 0.135762
1.058014 0.009233 -0.129913
1.039989 0.008895 -0.090991
1.038538 0.008701 -0.054429
1.069801 0.008776 -0.018674
1.018057 0.007641 -0.272795
1.087804 0.008164 0.018988
1.017215 0.007457 -0.234849
1.074497 0.007877 0.056313
1.028719 0.007361 -0.199968
1.107740 0.007927 0.096917
1.044948 0.007477 -0.165508
1.101699 0.007691 0.135275
1.042148 0.007276 -0.127963
1.055942 0.007188 -0.092385
1.048538 0.006954 -0.054953
1.069815 0.006909 -0.018674
1.010342 0.005820 -0.270725
1.089816 0.006277 0.019023
1.007482 0.005803 -0.232599
1.080500 0.006035 0.056628
1.016950 0.005680 -0.197678
1.095797 0.006120 0.095871
1.048910 0.005675 -0.166133
1.117591 0.006047 0.137225
1.052085 0.005509 -0.129182
1.047982 0.005488 -0.091688
1.060531 0.005368 -0.055581
1.069824 0.005228 -0.018674
1.010350 0.004233 -0.270725
1.091824 0.004574 0.019058
1.028927 0.004130 -0.237548
1.086500 0.004362 0.056942
1.024811 0.003935 -0.199205
1.099791 0.004223 0.096220
1.037066 0.003802 -0.164256
1.109659 0.004068 0.136250
1.058047 0.003879 -0.129913
1.036036 0.003617 -0.090642
1.068528 0.003543 -0.055999
1.069832 0.003362 -0.018674
1.006492 0.002459 -0.269689
1.079832 0.002639 0.018849
1.030881 0.002339 -0.237998
1.100487 0.002497 0.057674
1.032670 0.002163 -0.200731
1.103781 0.002311 0.096569
1.033120 0.001984 -0.163630
1.109665 0.002131 0.136250
1.060037 0.002035 -0.130156
1.044011 0.001822 -0.091339
1.056549 0.001659 -0.055371
1.065837 0.001488 -0.018604
1.018086 0.000711 -0.272795
1.083835 0.000757 0.018918
1.019191 0.000533 -0.235299
1.096495 0.000574 0.057465
1.042488 0.000364 -0.202639
1.103784 0.000386 0.096569
1.037073 0.000181 -0.164256
1.113637 0.000195 0.136737
1.060039 0.000185 -0.130156
1.055966 -0.000000 -0.092385
1.048561 -0.000183 -0.054953
1.079835 -0.000377 -0.018849
1.014222 -0.001062 -0.271760
1.087834 -0.001139 0.018988
1.015293 -0.001240 -0.234399
1.086508 -0.001327 0.056942
1.032671 -0.001442 -0.200731
1.115737 -0.001558 0.097614
1.041022 -0.001635 -0.164882
1.101725 -0.001731 0.135275
1.048127 -0.001646 -0.128694
1.055965 -0.001843 -0.092385
1.056548 -0.002028 -0.055371
1.069835 -0.002241 -0.018674
1.014218 -0.002832 -0.271760
1.091830 -0.003049 0.019058
1.017238 -0.003018 -0.234849
1.084507 -0.003218 0.056837
1.018924 -0.003201 -0.198060
1.101786 -0.003461 0.096394
1.044969 -0.003465 -0.165508
1.121571 -0.003719 0.137712
1.058048 -0.003509 -0.129913
1.040021 -0.003630 -0.090991
1.052549 -0.003858 -0.055162
1.069829 -0.004108 -0.018674
1.002621 -0.004550 -0.268654
1.089823 -0.004945 0.019023
1.028923 -0.004849 -0.237548
1.090491 -0.005139 0.057151
1.032660 -0.005047 -0.200731
1.097793 -0.005365 0.096046
1.052862 -0.005329 -0.166759
1.109652 -0.005617 0.136250
1.050100 -0.005315 -0.128938
1.036028 -0.005425 -0.090642
1.076507 -0.005825 -0.056418
1.071820 -0.005986 -0.018709
1.014202 -0.006373 -0.271760
1.087813 -0.006835 0.018988
1.026965 -0.006632 -0.237098
1.096472 -0.007081 0.057465
1.030686 -0.006836 -0.200349
1.099775 -0.007294 0.096220
1.033098 -0.007032 -0.163630
1.109641 -0.007553 0.136250
1.052075 -0.007161 -0.129182
1.043987 -0.007289 -0.091339
1.052529 -0.007532 -0.055162
1.071808 -0.007857 -0.018709
1.010326 -0.008112 -0.270725
1.089799 -0.008750 0.019023
1.023054 -0.008392 -0.236199
1.094461 -0.008978 0.057360
1.046378 -0.008766 -0.203402
1.099760 -0.009214 0.096220
1.037035 -0.008869 -0.164256
1.105656 -0.009456 0.135762
1.054045 -0.009015 -0.129425
1.053934 -0.009198 -0.092211
1.052514 -0.009369 -0.055162
1.075792 -0.009764 -0.018779
1.014174 -0.009913 -0.271760
1.091782 -0.010671 0.019058
1.011346 -0.010062 -0.233499
1.080464 -0.010749 0.056628
1.034582 -0.010473 -0.201113
1.103727 -0.011173 0.096569
1.044919 -0.010760 -0.165508
1.109608 -0.011427 0.136250
1.054028 -0.010854 -0.129425
1.055909 -0.011058 -0.092385
1.056490 -0.011248 -0.055371
1.075773 -0.011641 -0.018779
1.006428 -0.011594 -0.269689
1.093761 -0.012600 0.019093
1.026916 -0.012009 -0.237098
1.086435 -0.012705 0.056942
1.028673 -0.012209 -0.199968
1.105698 -0.013123 0.096743
1.052799 -0.012679 -0.166759
1.109586 -0.013363 0.136250
1.052023 -0.012670 -0.129182
1.047919 -0.012803 -0.091688
1.064457 -0.013191 -0.055790
1.067753 -0.013418 -0.018639
1.010270 -0.013402 -0.270725
1.089738 -0.014456 0.019023
1.019099 -0.013697 -0.235299
1.090405 -0.014655 0.057151
1.036502 -0.014111 -0.201494
1.099697 -0.014972 0.096220
1.052778 -0.014333 -0.166759
1.117501 -0.015409 0.137225
1.065893 -0.014698 -0.130888
1.035942 -0.014465 -0.090642
1.068427 -0.015106 -0.055999
1.073727 -0.015368 -0.018744
1.006381 -0.015107 -0.269689
1.083713 -0.016268 0.018918
1.026870 -0.015414 -0.237098
1.100363 -0.016710 0.057674
1.038442 -0.015769 -0.201876
1.101664 -0.016729 0.096394
1.038926 -0.015958 -0.164569
1.113505 -0.017104 0.136737
1.059911 -0.016465 -0.130156
1.043886 -0.016216 -0.091339
1.060414 -0.016658 -0.055581
1.077700 -0.017118 -0.018814
1.014083 -0.016816 -0.271760
1.089684 -0.018069 0.019023
1.003460 -0.016815 -0.231700
1.092348 -0.018304 0.057256
1.042339 -0.017648 -0.202639
1.103626 -0.018686 0.096569
1.040871 -0.017805 -0.164882
1.113474 -0.019047 0.136737
1.053930 -0.018028 -0.129425
1.051825 -0.018176 -0.092036
1.060383 -0.018509 -0.055581
1.081667 -0.019069 -0.018884
1.017915 -0.018656 -0.272795
1.093650 -0.020044 0.019093
1.019017 -0.018854 -0.235299
1.084326 -0.020063 0.056837
1.028566 -0.019211 -0.199968
1.115543 -0.020835 0.097614
1.044789 -0.019696 -0.165508
1.113439 -0.020990 0.136737
1.047943 -0.019756 -0.128694
1.051791 -0.020012 -0.092036
1.056355 -0.020283 -0.055371
1.073635 -0.020802 -0.018744
1.010155 -0.020278 -0.270725
1.097612 -0.022033 0.019163
1.018982 -0.020633 -0.235299
1.090280 -0.022077 0.057151
1.026568 -0.020966 -0.199586
1.097578 -0.022416 0.096046
1.048703 -0.021601 -0.166133
1.109431 -0.022852 0.136250
1.059815 -0.021830 -0.130156
1.051755 -0.021847 -0.092036
1.060312 -0.022210 -0.055581
1.071598 -0.022634 -0.018709
1.006255 -0.021957 -0.269689
1.093573 -0.023862 0.019093
1.028686 -0.022626 -0.237548
1.086246 -0.023892 0.056942
1.030455 -0.022844 -0.200349
1.103513 -0.024464 0.096569
1.040764 -0.023255 -0.164882
1.113359 -0.024877 0.136737
1.063744 -0.023768 -0.130644
1.031796 -0.023235 -0.090293
1.060272 -0.024061 -0.055581
1.071557 -0.024504 -0.018709
1.021666 -0.024077 -0.273831
1.095529 -0.025818 0.019128
1.026697 -0.024375 -0.237098
1.088200 -0.025835 0.057046
1.038265 -0.024831 -0.201876
1.103468 -0.026390 0.096569
1.040722 -0.025071 -0.164882
1.109345 -0.026724 0.136250
1.069654 -0.025768 -0.131375
1.047688 -0.025422 -0.091688
1.056235 -0.025814 -0.055371
1.079509 -0.026571 -0.018849
1.013897 -0.025664 -0.271760
1.089485 -0.027578 0.019023
1.020808 -0.026018 -0.235749
1.096139 -0.027938 0.057465
1.055883 -0.027096 -0.205310
1.103421 -0.028316 0.096569
1.048575 -0.027092 -0.166133
1.105328 -0.028558 0.135762
1.057701 -0.027327 -0.129913
1.047642 -0.027251 -0.091688
1.052195 -0.027553 -0.055162
1.079461 -0.028455 -0.018849
1.021576 -0.027643 -0.273831
1.093433 -0.029587 0.019093
1.024657 -0.027905 -0.236649
1.092096 -0.029742 0.057256
1.036209 -0.028401 -0.201494
1.109344 -0.030405 0.097091
1.052476 -0.029031 -0.166759
1.117182 -0.030815 0.137225
1.047730 -0.028900 -0.128694
1.059543 -0.029411 -0.092734
1.066121 -0.029779 -0.055895
1.079409 -0.030339 -0.018849
1.013802 -0.029203 -0.271760
1.105373 -0.031841 0.019302
1.024607 -0.029694 -0.236649
1.088049 -0.031532 0.057046
1.030271 -0.030038 -0.200349
1.103315 -0.032167 0.096569
1.056372 -0.030983 -0.167385
1.121095 -0.032882 0.137712
1.055615 -0.030961 -0.129669
1.051524 -0.031025 -0.092036
1.064071 -0.031581 -0.055790
1.069361 -0.031925 -0.018674
1.009887 -0.030855 -0.270725
1.093323 -0.033404 0.019093
1.032345 -0.031721 -0.238448
1.099971 -0.033799 0.057674
1.038066 -0.032078 -0.201876
1.103257 -0.034093 0.096569
1.048425 -0.032399 -0.166133
1.117068 -0.034715 0.137225
1.061512 -0.032988 -0.130400
1.039520 -0.032487 -0.090991
1.075992 -0.033814 -0.056418
1.073301 -0.033917 -0.018744
1.017555 -0.032867 -0.272795
1.095262 -0.035377 0.019128
1.018660 -0.032903 -0.235299
1.101906 -0.035784 0.057779
1.039977 -0.033773 -0.202258
1.097228 -0.035632 0.096046
1.040469 -0.033971 -0.164882
1.105108 -0.036081 0.135762
1.067405 -0.035036 -0.131131
1.047433 -0.034381 -0.091688
1.063960 -0.035109 -0.055790
1.083239 -0.035935 -0.018918
1.017502 -0.034465 -0.272795
1.089209 -0.036894 0.019023
1.016653 -0.034614 -0.234849
1.095860 -0.037311 0.057465
1.047765 -0.035856 -0.203784
1.105129 -0.037820 0.096743
1.048305 -0.036058 -0.166133
1.109011 -0.038146 0.136250
1.061397 -0.036508 -0.130400
1.053345 -0.036415 -0.092211
1.055913 -0.036689 -0.055371
1.081176 -0.037756 -0.018884
1.021302 -0.036379 -0.273831
1.093140 -0.038937 0.019093
1.024381 -0.036667 -0.236649
1.079826 -0.038652 0.056628
1.039852 -0.037403 -0.202258
1.109044 -0.039892 0.097091
1.048241 -0.037888 -0.166133
1.112910 -0.040225 0.136737
1.059348 -0.038289 -0.130156
1.067217 -0.038760 -0.093431
1.067823 -0.038969 -0.055999
1.073115 -0.039349 -0.018744
1.013515 -0.037872 -0.271760
1.101064 -0.041144 0.019233
1.028211 -0.038601 -0.237548
1.091732 -0.040986 0.057256
1.037824 -0.039144 -0.201876
1.101009 -0.041527 0.096394
1.052121 -0.039867 -0.166759
1.112838 -0.042167 0.136737
1.061263 -0.040213 -0.130400
1.055202 -0.040168 -0.092385
1.059770 -0.040527 -0.055581
1.075043 -0.041299 -0.018779
1.017308 -0.039792 -0.272795
1.092998 -0.042753 0.019093
1.032036 -0.040549 -0.238448
1.091658 -0.042891 0.057256
1.041677 -0.041110 -0.202639
1.100934 -0.043448 0.096394
1.052050 -0.041703 -0.166759
1.116730 -0.044267 0.137225
1.067142 -0.042301 -0.131131
1.047167 -0.041692 -0.091688
1.075663 -0.043015 -0.056418
1.078966 -0.043336 -0.018849
1.013376 -0.041410 -0.271760
1.092921 -0.044661 0.019093
1.031964 -0.042350 -0.238448
1.103555 -0.045288 0.057884
1.041604 -0.042928 -0.202639
1.112801 -0.045862 0.097440
1.048035 -0.043193 -0.166133
1.116651 -0.046216 0.137225
1.075000 -0.044492 -0.132106
1.047093 -0.043520 -0.091688
1.071595 -0.044726 -0.056209
1.078888 -0.045219 -0.018849
1.017163 -0.043343 -0.272795
1.092842 -0.046568 0.019093
1.016320 -0.043307 -0.234849
1.095493 -0.046872 0.057465
1.049381 -0.044899 -0.204166
1.102775 -0.047184 0.096569
1.047958 -0.045022 -0.166133
1.112611 -0.047799 0.136737
1.066988 -0.046026 -0.131131
1.062948 -0.045852 -0.093082
1.051570 -0.045545 -0.055162
1.086807 -0.047261 -0.018988
1.024813 -0.045282 -0.274866
1.096763 -0.048461 0.019163
1.024030 -0.045426 -0.236649
1.091427 -0.048416 0.057256
1.037533 -0.046207 -0.201876
1.114633 -0.049641 0.097614
1.047878 -0.046851 -0.166133
1.112525 -0.049741 0.136737
1.055015 -0.047170 -0.129669
1.058885 -0.047528 -0.092734
1.075431 -0.048459 -0.056418
1.086723 -0.049158 -0.018988
1.028592 -0.047248 -0.275901
1.096676 -0.050375 0.019163
1.031736 -0.047573 -0.238448
1.097327 -0.050597 0.057570
1.029606 -0.047655 -0.200349
1.112555 -0.051494 0.097440
1.055688 -0.049046 -0.167385
1.122352 -0.052143 0.137956
1.058897 -0.049195 -0.130156
1.054820 -0.049191 -0.092385
1.075345 -0.050336 -0.056418
1.078646 -0.050679 -0.018849
1.009212 -0.048123 -0.270725
1.092592 -0.052099 0.019093
1.029705 -0.049280 -0.237998
1.095242 -0.052417 0.057465
1.033444 -0.049640 -0.201113
1.110473 -0.053340 0.097266
1.047708 -0.050508 -0.166133
1.120276 -0.054007 0.137712
1.072689 -0.051713 -0.131863
1.052743 -0.050935 -0.092211
1.075256 -0.052213 -0.056418
1.078556 -0.052561 -0.018849
1.026492 -0.050743 -0.275383
1.092499 -0.054006 0.019093
1.031564 -0.051174 -0.238448
1.109112 -0.055021 0.058198
1.049042 -0.052224 -0.204166
1.104409 -0.054981 0.096743
1.043673 -0.052140 -0.165508
1.120180 -0.055962 0.137712
1.072597 -0.053585 -0.131863
1.054642 -0.052872 -0.092385
1.071174 -0.053888 -0.056209
1.076465 -0.054343 -0.018814
1.016755 -0.052040 -0.272795
1.096398 -0.056117 0.019163
1.027581 -0.052774 -0.237548
1.105025 -0.056752 0.057988
1.056792 -0.054459 -0.205692
1.118239 -0.057626 0.097963
1.051471 -0.054369 -0.166759
1.108186 -0.057302 0.136250
1.060608 -0.054842 -0.130400
1.054548 -0.054713 -0.092385
1.067089 -0.055550 -0.055999
1.086353 -0.056743 -0.018988
1.034025 -0.054734 -0.277454
1.094301 -0.057924 0.019128
1.027487 -0.054568 -0.237548
1.090963 -0.057939 0.057256
1.037090 -0.055259 -0.201876
1.120126 -0.059684 0.098137
1.051375 -0.056204 -0.166759
1.116014 -0.059660 0.137225
1.062492 -0.056799 -0.130644
1.070367 -0.057407 -0.093780
1.070979 -0.057627 -0.056209
1.082259 -0.058424 -0.018918
1.016567 -0.055589 -0.272795
1.102185 -0.060271 0.019267
1.031282 -0.056574 -0.238448
1.098837 -0.060280 0.057674
1.033072 -0.056853 -0.201113
1.110074 -0.061091 0.097266
1.059164 -0.058475 -0.168011
1.111944 -0.061389 0.136737
1.062392 -0.058653 -0.130644
1.058329 -0.058614 -0.092734
1.062900 -0.059053 -0.055790
1.078162 -0.060090 -0.018849
1.012611 -0.057146 -0.271760
1.098085 -0.061969 0.019198
1.037018 -0.058705 -0.239798
1.104713 -0.062537 0.057988
1.040811 -0.059102 -0.202639
1.105987 -0.062802 0.096917
1.057089 -0.060211 -0.167698
1.123726 -0.064007 0.138200
1.066251 -0.060733 -0.131131
1.054247 -0.060234 -0.092385
1.074759 -0.061594 -0.056418
1.082049 -0.062201 -0.018918
1.026010 -0.059698 -0.275383
1.087994 -0.063305 0.019023
1.034969 -0.060401 -0.239348
1.112578 -0.064930 0.058407
1.048546 -0.061377 -0.204166
1.107865 -0.064849 0.097091
1.043178 -0.061245 -0.165508
1.119649 -0.065735 0.137712
1.080016 -0.063408 -0.132838
1.058118 -0.062308 -0.092734
1.074650 -0.063470 -0.056418
1.079942 -0.063971 -0.018884
1.027833 -0.061605 -0.275901
1.095866 -0.065682 0.019163
1.017355 -0.061155 -0.235299
1.100501 -0.066153 0.057779
1.054317 -0.063561 -0.205310
1.115705 -0.067262 0.097789
1.050957 -0.063543 -0.166759
1.107644 -0.066970 0.136250
1.073959 -0.064934 -0.132106
1.058008 -0.064155 -0.092734
1.060583 -0.064496 -0.055685
1.093801 -0.066708 -0.019128
1.027723 -0.063398 -0.275901
1.095750 -0.067595 0.019163
1.030862 -0.063773 -0.238448
1.094403 -0.067703 0.057465
1.052245 -0.065280 -0.204929
1.117574 -0.069333 0.097963
1.058742 -0.065683 -0.168011
1.119413 -0.069643 0.137712
1.065919 -0.066315 -0.131131
1.069826 -0.066745 -0.093780
1.066449 -0.066722 -0.055999
1.085700 -0.068116 -0.018988
1.025683 -0.065070 -0.275383
1.101617 -0.069887 0.019267
1.034650 -0.065639 -0.239348
1.100263 -0.069994 0.057779
1.036466 -0.065935 -0.201876
1.109511 -0.070582 0.097266
1.070454 -0.068285 -0.169888
1.119302 -0.071401 0.137712
1.065802 -0.068175 -0.131131
1.057789 -0.067663 -0.092734
1.068336 -0.068524 -0.056104
1.081600 -0.069565 -0.018918
1.015941 -0.066054 -0.272795
1.099511 -0.071488 0.019233
1.038423 -0.067698 -0.240248
1.104138 -0.071982 0.057988
1.050063 -0.068641 -0.204547
1.109386 -0.072519 0.097266
1.050622 -0.068861 -0.166759
1.123138 -0.073614 0.138200
1.073617 -0.070369 -0.132106
1.049717 -0.068986 -0.092036
1.074193 -0.070783 -0.056418
1.081477 -0.071452 -0.018918
1.023534 -0.068342 -0.274866
1.089408 -0.072740 0.019058
1.030526 -0.068989 -0.238448
1.111982 -0.074443 0.058407
1.044065 -0.070079 -0.203402
1.107270 -0.074321 0.097091
1.050500 -0.070695 -0.166759
1.119046 -0.075308 0.137712
1.079434 -0.072642 -0.132838
1.053571 -0.071086 -0.092385
1.082039 -0.073197 -0.056837
1.081351 -0.073340 -0.018918
1.023413 -0.070128 -0.274866
1.097259 -0.075188 0.019198
1.030404 -0.070788 -0.238448
1.097902 -0.075425 0.057674
1.053735 -0.072576 -0.205310
1.115089 -0.076801 0.097789
1.054316 -0.072800 -0.167385
1.114952 -0.076987 0.137225
1.073364 -0.074116 -0.132106
1.065371 -0.073751 -0.093431
1.067962 -0.074117 -0.056104
1.089201 -0.075782 -0.019058
1.034852 -0.072727 -0.277972
1.101116 -0.077384 0.019267
1.030279 -0.072586 -0.238448
1.093784 -0.077060 0.057465
1.049690 -0.074138 -0.204547
1.118928 -0.079028 0.098137
1.054188 -0.074640 -0.167385
1.118776 -0.079214 0.137712
1.065313 -0.075428 -0.131131
1.073190 -0.076174 -0.094128
1.061854 -0.075556 -0.055790
1.085077 -0.077399 -0.018988
1.023162 -0.073700 -0.274866
1.102974 -0.079449 0.019302
1.032094 -0.074525 -0.238898
1.097632 -0.079257 0.057674
1.037810 -0.075119 -0.202258
1.122763 -0.081269 0.098486
1.065877 -0.077338 -0.169262
1.122596 -0.081453 0.138200
1.073099 -0.077862 -0.132106
1.069082 -0.077758 -0.093780
1.089609 -0.079442 -0.057256
1.078958 -0.078855 -0.018884
1.019179 -0.075202 -0.273831
1.098845 -0.081080 0.019233
1.039736 -0.076901 -0.240698
1.101476 -0.081467 0.057884
1.045509 -0.077511 -0.203784
1.110698 -0.082344 0.097440
1.053921 -0.078320 -0.167385
1.126412 -0.083707 0.138687
1.076921 -0.080029 -0.132594
1.053049 -0.078440 -0.092385
1.081501 -0.080749 -0.056837
1.078818 -0.080738 -0.018884
1.026752 -0.077562 -0.275901
1.094714 -0.082696 0.019163
1.029884 -0.077980 -0.238448
1.107306 -0.083842 0.058198
1.053202 -0.079930 -0.205310
1.112539 -0.084433 0.097614
1.049843 -0.079859 -0.166759
1.126264 -0.085673 0.138687
1.088656 -0.082812 -0.134056
1.060857 -0.080884 -0.093082
1.077376 -0.082332 -0.056628
1.082664 -0.082926 -0.018953
1.022762 -0.079056 -0.274866
1.098555 -0.084915 0.019233
1.033633 -0.080078 -0.239348
1.099193 -0.085157 0.057779
1.055018 -0.081920 -0.205692
1.120335 -0.086992 0.098312
1.057580 -0.082305 -0.168011
1.122154 -0.087330 0.138200
1.072677 -0.083480 -0.132106
1.068660 -0.083355 -0.093780
1.073248 -0.083901 -0.056418
1.086504 -0.085128 -0.019023
1.022623 -0.080841 -0.274866
1.102392 -0.087147 0.019302
1.033491 -0.081882 -0.239348
1.095061 -0.086760 0.057570
1.049003 -0.083295 -0.204547
1.134085 -0.090051 0.099532
1.065326 -0.084591 -0.169262
1.122000 -0.089289 0.138200
1.062635 -0.084564 -0.130888
1.072485 -0.085537 -0.094128
1.081064 -0.086411 -0.056837
1.084361 -0.086865 -0.018988
1.034034 -0.083560 -0.277972
1.106225 -0.089393 0.019372
1.033361 -0.083505 -0.239348
1.094908 -0.088671 0.057570
1.037129 -0.083992 -0.202258
1.116069 -0.090385 0.097963
1.069114 -0.086770 -0.169888
1.133730 -0.092014 0.139662
1.068421 -0.086902 -0.131619
1.068377 -0.086898 -0.093780
1.072964 -0.087460 -0.056418
1.078244 -0.088079 -0.018884
1.014648 -0.083598 -0.272795
1.098111 -0.090474 0.019233
1.037098 -0.085629 -0.240248
1.108701 -0.091541 0.058302
1.056547 -0.087421 -0.206074
1.109953 -0.091840 0.097440
1.061087 -0.087983 -0.168636
1.133568 -0.093993 0.139662
1.074219 -0.089072 -0.132350
1.060282 -0.088103 -0.093082
1.084752 -0.090327 -0.057046
1.082074 -0.090294 -0.018953
1.027976 -0.086502 -0.276419
1.093966 -0.092055 0.019163
1.029180 -0.086784 -0.238448
1.114510 -0.093980 0.058616
1.058349 -0.089430 -0.206455
1.117732 -0.094448 0.098137
1.049121 -0.088835 -0.166759
1.117578 -0.094631 0.137712
1.079996 -0.091449 -0.133081
1.064097 -0.090290 -0.093431
1.084593 -0.092220 -0.057046
1.085900 -0.092522 -0.019023
1.025898 -0.088131 -0.275901
1.097789 -0.094307 0.019233
1.029027 -0.088581 -0.238448
1.112354 -0.095754 0.058512
1.060147 -0.091446 -0.206837
1.117566 -0.096399 0.098137
1.052901 -0.091006 -0.167385
1.117411 -0.096582 0.137712
1.065990 -0.092137 -0.131375
1.063938 -0.092147 -0.093431
1.068512 -0.092731 -0.056209
1.089721 -0.094763 -0.019093
1.035365 -0.090765 -0.278489
1.101607 -0.096572 0.019302
1.028871 -0.090376 -0.238448
1.100248 -0.096646 0.057884
1.054119 -0.092780 -0.205692
1.131289 -0.099572 0.099358
1.056676 -0.093191 -0.168011
1.121196 -0.098881 0.138200
1.071760 -0.094521 -0.132106
1.079653 -0.095407 -0.094825
1.076306 -0.095300 -0.056628
1.085570 -0.096312 -0.019023
1.029433 -0.092056 -0.276936
1.107412 -0.099029 0.019407
1.036475 -0.092868 -0.240248
1.108034 -0.099279 0.058302
1.048089 -0.094093 -0.204547
1.121191 -0.100655 0.098486
1.068316 -0.096097 -0.169888
1.124976 -0.101193 0.138687
1.075548 -0.096747 -0.132594
1.069563 -0.096397 -0.093954
1.080117 -0.097538 -0.056837
1.077434 -0.097485 -0.018884
1.027347 -0.093677 -0.276419
1.101263 -0.100417 0.019302
1.044074 -0.095386 -0.242047
1.111838 -0.101576 0.058512
1.051834 -0.096280 -0.205310
1.115061 -0.102067 0.097963
1.060279 -0.097239 -0.168636
1.124797 -0.103156 0.138687
1.073400 -0.098443 -0.132350
1.053521 -0.096805 -0.092559
1.091878 -0.100522 -0.057465
1.087218 -0.100284 -0.019058
1.017564 -0.094576 -0.273831
1.097104 -0.101968 0.019233
1.036145 -0.096485 -0.240248
1.119613 -0.104258 0.058930
1.053619 -0.098298 -0.205692
1.120833 -0.104568 0.098486
1.056173 -0.098722 -0.168011
1.120662 -0.104750 0.138200
1.085086 -0.101424 -0.133813
1.067236 -0.099944 -0.093780
1.083747 -0.101681 -0.057046
1.089033 -0.102369 -0.019093
1.030860 -0.097626 -0.277454
1.100906 -0.104260 0.019302
1.035975 -0.098293 -0.240248
1.109488 -0.105268 0.058407
1.061263 -0.100880 -0.207219
1.126599 -0.107090 0.099009
1.059933 -0.100940 -0.168636
1.124430 -0.107082 0.138687
1.078979 -0.102754 -0.133081
1.074994 -0.102563 -0.094477
1.075615 -0.102812 -0.056628
1.096815 -0.105032 -0.019233
1.032611 -0.099611 -0.277972
1.106693 -0.106757 0.019407
1.039681 -0.100476 -0.241148
1.095386 -0.105860 0.057674
1.047407 -0.101407 -0.204547
1.122444 -0.108672 0.098660
1.063687 -0.103171 -0.169262
1.124242 -0.109044 0.138687
1.068919 -0.103678 -0.131863
1.078779 -0.104825 -0.094825
1.081397 -0.105270 -0.056942
1.088669 -0.106169 -0.019093
1.034358 -0.101602 -0.278489
1.104515 -0.108493 0.019372
1.039504 -0.102291 -0.241148
1.107126 -0.108945 0.058302
1.047228 -0.103235 -0.204547
1.116304 -0.110045 0.098137
1.071369 -0.105804 -0.170514
1.124050 -0.111006 0.138687
1.078614 -0.106519 -0.133081
1.066698 -0.105531 -0.093780
1.087174 -0.107748 -0.057256
1.080522 -0.107279 -0.018953
1.024568 -0.102446 -0.275901
1.106314 -0.110620 0.019407
1.050958 -0.105270 -0.243847
1.108922 -0.111076 0.058407
1.052907 -0.105651 -0.205692
1.114128 -0.111794 0.097963
1.059390 -0.106488 -0.168636
1.127805 -0.113365 0.139175
1.090277 -0.109593 -0.134544
1.058583 -0.106594 -0.093082
1.086985 -0.109645 -0.057256
1.084312 -0.109567 -0.019023
1.032075 -0.105016 -0.277972
1.098162 -0.111741 0.019267
1.043018 -0.106314 -0.242047
1.114687 -0.113619 0.058721
1.058580 -0.108087 -0.206837
1.115913 -0.113941 0.098137
1.059202 -0.108337 -0.168636
1.123655 -0.114929 0.138687
1.090084 -0.111496 -0.134544
1.066323 -0.109253 -0.093780
1.078844 -0.110727 -0.056837
1.096055 -0.112686 -0.019233
1.033812 -0.107016 -0.278489
1.099954 -0.113863 0.019302
1.035078 -0.107330 -0.240248
1.116473 -0.115770 0.058826
1.060343 -0.110137 -0.207219
1.129585 -0.117329 0.099358
1.062941 -0.110594 -0.169262
1.119504 -0.116479 0.138200
1.078041 -0.112165 -0.133081
1.072076 -0.111734 -0.094303
1.078650 -0.112609 -0.056837
1.099834 -0.115015 -0.019302
1.031702 -0.108618 -0.277972
1.101742 -0.115992 0.019337
1.038765 -0.109545 -0.241148
1.104352 -0.116462 0.058198
1.060149 -0.111987 -0.207219
1.121453 -0.118463 0.098660
1.058818 -0.112034 -0.168636
1.127195 -0.119269 0.139175
1.073895 -0.113629 -0.132594
1.073861 -0.113815 -0.094477
1.078451 -0.114492 -0.056837
1.083724 -0.115243 -0.019023
1.035353 -0.110830 -0.279007
1.107503 -0.118553 0.019442
1.046322 -0.112189 -0.242947
1.106133 -0.118602 0.058302
1.046288 -0.112370 -0.204547
1.121245 -0.120420 0.098660
1.082209 -0.116228 -0.172391
1.134880 -0.122085 0.140150
1.089485 -0.117202 -0.134544
1.073660 -0.115689 -0.094477
1.082221 -0.116802 -0.057046
1.083521 -0.117134 -0.019023
1.027476 -0.111801 -0.276936
1.111271 -0.120919 0.019512
1.046145 -0.113832 -0.242947
1.107910 -0.120749 0.058407
1.059772 -0.115502 -0.207219
1.117093 -0.121750 0.098312
1.070222 -0.116830 -0.170514
1.134687 -0.123868 0.140150
1.081386 -0.118240 -0.133569
1.065555 -0.116509 -0.093780
1.086007 -0.118937 -0.057256
1.089299 -0.119490 -0.019128
1.027299 -0.113415 -0.276936
1.099154 -0.121348 0.019302
1.038197 -0.114801 -0.241148
1.107719 -0.122489 0.058407
1.061520 -0.117568 -0.207600
1.120839 -0.124138 0.098660
1.062163 -0.117827 -0.169262
1.126577 -0.124972 0.139175
1.089091 -0.120814 -0.134544
1.069310 -0.118809 -0.094128
1.089768 -0.121274 -0.057465
1.093064 -0.121834 -0.019198
1.027100 -0.115208 -0.276936
1.102914 -0.123712 0.019372
1.043805 -0.117266 -0.242497
1.111473 -0.124868 0.058616
1.061313 -0.119420 -0.207600
1.122601 -0.126317 0.098835
1.054104 -0.118796 -0.168011
1.118467 -0.126049 0.138200
1.088878 -0.122715 -0.134544
1.073061 -0.121122 -0.094477
1.079632 -0.122054 -0.056942
1.096823 -0.124192 -0.019267
1.034575 -0.117875 -0.279007
1.100710 -0.125410 0.019337
1.037790 -0.118425 -0.241148
1.101331 -0.125676 0.058093
1.063053 -0.121496 -0.207982
1.122378 -0.128276 0.098835
1.073521 -0.122882 -0.171139
1.130079 -0.129356 0.139662
1.080773 -0.123712 -0.133569
1.088683 -0.124810 -0.095871
1.077433 -0.123710 -0.056837
1.082699 -0.124507 -0.019023
1.026691 -0.118792 -0.276936
1.114395 -0.128940 0.019582
1.045325 -0.121133 -0.242947
1.105078 -0.128057 0.058302
1.043338 -0.121087 -0.204166
1.124132 -0.130464 0.099009
1.073305 -0.124755 -0.171139
1.129851 -0.131328 0.139662
1.080556 -0.125598 -0.133569
1.072632 -0.124867 -0.094477
1.089118 -0.126979 -0.057465
1.082480 -0.126396 -0.019023
1.022645 -0.120133 -0.275901
1.108210 -0.130185 0.019477
1.052853 -0.123868 -0.244747
1.114771 -0.131153 0.058826
1.048974 -0.123597 -0.205310
1.115988 -0.131493 0.098312
1.065239 -0.125702 -0.169888
1.141449 -0.134695 0.141125
1.094135 -0.129112 -0.135275
1.068455 -0.126271 -0.094128
1.096829 -0.129818 -0.057884
1.086229 -0.128756 -0.019093
1.030107 -0.122833 -0.277972
1.100038 -0.131172 0.019337
1.052635 -0.125706 -0.244747
1.110574 -0.132625 0.058616
1.058504 -0.126594 -0.207219
1.119713 -0.133914 0.098660
1.057172 -0.126622 -0.168636
1.131357 -0.135507 0.139906
1.095879 -0.131258 -0.135519
1.076146 -0.129085 -0.094825
1.080736 -0.129827 -0.057046
1.097915 -0.132085 -0.019302
1.026055 -0.124166 -0.276936
1.103778 -0.133572 0.019407
1.033069 -0.125198 -0.240248
1.108358 -0.134322 0.058512
1.073873 -0.130333 -0.210272
1.115522 -0.135388 0.098312
1.066754 -0.129658 -0.170201
1.129148 -0.137242 0.139662
1.081854 -0.131493 -0.133813
1.079874 -0.131444 -0.095174
1.080508 -0.131713 -0.057046
1.101653 -0.134485 -0.019372
1.037342 -0.127370 -0.280042
1.107513 -0.135985 0.019477
1.038651 -0.127714 -0.241597
1.106140 -0.136013 0.058407
1.061953 -0.130768 -0.207982
1.137036 -0.140013 0.100229
1.064566 -0.131278 -0.169888
1.121026 -0.138241 0.138687
1.067832 -0.131681 -0.132106
1.087553 -0.134305 -0.095871
1.092169 -0.135069 -0.057674
1.089509 -0.134933 -0.019163
1.033284 -0.128702 -0.279007
1.113227 -0.138660 0.019582
1.044228 -0.130251 -0.242947
1.105901 -0.137943 0.058407
1.063671 -0.132864 -0.208363
1.126905 -0.140763 0.099358
1.072176 -0.134117 -0.171139
1.132601 -0.141675 0.140150
1.085328 -0.135762 -0.134300
1.071501 -0.134222 -0.094477
1.091932 -0.136975 -0.057674
1.085304 -0.136336 -0.019093
1.029224 -0.130021 -0.277972
1.107031 -0.139851 0.019477
1.047866 -0.132562 -0.243847
1.113584 -0.140876 0.058826
1.059542 -0.134227 -0.207600
1.122704 -0.142229 0.099009
1.071940 -0.135988 -0.171139
1.136291 -0.144151 0.140637
1.092966 -0.138655 -0.135275
1.071265 -0.136092 -0.094477
1.099616 -0.139889 -0.058093
1.085064 -0.138230 -0.019093
1.028996 -0.131817 -0.277972
1.102819 -0.141274 0.019407
1.043767 -0.133895 -0.242947
1.119280 -0.143582 0.059140
1.059306 -0.136076 -0.207600
1.124430 -0.144442 0.099183
1.063864 -0.136850 -0.169888
1.132100 -0.145628 0.140150
1.096660 -0.141069 -0.135762
1.074978 -0.138471 -0.094825
1.083524 -0.139764 -0.057256
1.092754 -0.141148 -0.019233
1.036427 -0.134608 -0.280042
1.106537 -0.143714 0.019477
1.043532 -0.135716 -0.242947
1.111105 -0.144505 0.058721
1.062961 -0.138432 -0.208363
1.128128 -0.146919 0.099532
1.067541 -0.139218 -0.170514
1.127907 -0.147090 0.139662
1.082634 -0.141186 -0.134056
1.082637 -0.141379 -0.095523
1.083278 -0.141655 -0.057256
1.096472 -0.143575 -0.019302
1.043852 -0.137426 -0.282113
1.114214 -0.146689 0.019617
1.039429 -0.137028 -0.242047
1.102931 -0.145399 0.058302
1.064664 -0.140544 -0.208745
1.127870 -0.148887 0.099532
1.081005 -0.142893 -0.172704
1.139457 -0.150619 0.141125
1.086322 -0.143596 -0.134544
1.090290 -0.144314 -0.096220
1.086989 -0.144070 -0.057465
1.094237 -0.145225 -0.019267
1.039781 -0.138736 -0.281078
1.117921 -0.149162 0.019686
1.046915 -0.139874 -0.243847
1.108614 -0.148118 0.058616
1.050796 -0.140579 -0.206074
1.127608 -0.150856 0.099532
1.090543 -0.146091 -0.174268
1.131322 -0.151554 0.140150
1.097874 -0.147073 -0.136006
1.078188 -0.144627 -0.095174
1.104552 -0.148360 -0.058407
1.090018 -0.146601 -0.019198
1.031879 -0.139516 -0.279007
1.111714 -0.150310 0.019582
1.054393 -0.142747 -0.245647
1.106375 -0.149784 0.058512
1.062221 -0.143996 -0.208363
1.123394 -0.152288 0.099183
1.068755 -0.145071 -0.170826
1.138924 -0.154596 0.141125
1.089748 -0.147921 -0.135031
1.070037 -0.145435 -0.094477
1.110228 -0.151095 -0.058721
1.095705 -0.149314 -0.019302
1.035462 -0.141841 -0.280042
1.105506 -0.151436 0.019477
1.054143 -0.144587 -0.245647
1.116005 -0.153072 0.059035
1.069748 -0.146918 -0.209890
1.119179 -0.153707 0.098835
1.070457 -0.147205 -0.171139
1.130786 -0.155502 0.140150
1.099321 -0.151175 -0.136250
1.077676 -0.148390 -0.095174
1.090177 -0.150305 -0.057674
1.097423 -0.151499 -0.019337
1.039040 -0.144179 -0.281078
1.107221 -0.153640 0.019512
1.038447 -0.144281 -0.242047
1.115736 -0.155020 0.059035
1.073379 -0.149326 -0.210653
1.128776 -0.157032 0.099706
1.070198 -0.149073 -0.171139
1.130513 -0.157475 0.140150
1.093157 -0.152272 -0.135519
1.085309 -0.151371 -0.095871
1.085957 -0.151655 -0.057465
1.101118 -0.153968 -0.019407
1.038787 -0.145992 -0.281078
1.110912 -0.156128 0.019582
1.045913 -0.147180 -0.243847
1.105575 -0.155575 0.058512
1.069229 -0.150651 -0.209890
1.142311 -0.160948 0.100926
1.075805 -0.151769 -0.172078
1.136133 -0.160280 0.140881
1.079130 -0.152238 -0.133813
1.085043 -0.153265 -0.095871
1.085691 -0.153550 -0.057465
1.092928 -0.154768 -0.019267
1.030880 -0.146716 -0.279007
1.118556 -0.159194 0.019721
1.043725 -0.148730 -0.243397
1.107279 -0.157786 0.058616
1.057303 -0.150853 -0.207600
1.124276 -0.160409 0.099358
1.073583 -0.153367 -0.171765
1.149608 -0.164228 0.142587
1.088689 -0.155525 -0.135031
1.084774 -0.155159 -0.095871
1.093329 -0.156577 -0.057884
1.096615 -0.157243 -0.019337
1.026798 -0.147964 -0.277972
1.112339 -0.160291 0.019617
1.053108 -0.151943 -0.245647
1.110956 -0.160289 0.058826
1.060924 -0.153260 -0.208363
1.122023 -0.162086 0.099183
1.071358 -0.154958 -0.171452
1.145390 -0.165665 0.142100
1.092345 -0.157993 -0.135519
1.072671 -0.155339 -0.094825
1.104914 -0.160205 -0.058512
1.094360 -0.158870 -0.019302
1.030362 -0.150313 -0.279007
1.104143 -0.161077 0.019477
1.048984 -0.153217 -0.244747
1.120556 -0.163671 0.059349
1.070368 -0.156531 -0.210272
1.125681 -0.164620 0.099532
1.069159 -0.156355 -0.171139
1.145099 -0.167664 0.142100
1.099924 -0.161050 -0.136494
1.080283 -0.158367 -0.095523
1.096728 -0.160973 -0.058093
1.094081 -0.160779 -0.019302
1.043476 -0.154087 -0.282630
1.107816 -0.163588 0.019547
1.037175 -0.153157 -0.242047
1.108414 -0.163874 0.058721
1.070121 -0.158213 -0.210272
1.133305 -0.167554 0.100229
1.072793 -0.158799 -0.171765
1.129125 -0.167137 0.140150
1.095714 -0.162387 -0.136006
1.087916 -0.161232 -0.096220
1.096474 -0.162695 -0.058093
1.105695 -0.164261 -0.019512
1.037500 -0.154870 -0.281078
1.105580 -0.165033 0.019512
1.040761 -0.155543 -0.242947
1.108155 -0.165615 0.058721
1.067901 -0.159789 -0.209890
1.125129 -0.168352 0.099532
1.076421 -0.161256 -0.172391
1.142574 -0.171167 0.141856
1.083678 -0.162344 -0.134544
1.091574 -0.163721 -0.096569
1.096188 -0.164609 -0.058093
1.095519 -0.164704 -0.019337
1.037228 -0.156681 -0.281078
1.121109 -0.169352 0.019791
1.052049 -0.159107 -0.245647
1.111814 -0.168146 0.058930
1.059856 -0.160477 -0.208363
1.128773 -0.170912 0.099880
1.083950 -0.164319 -0.173642
1.140311 -0.172863 0.141612
1.097132 -0.166317 -0.136250
1.083407 -0.164430 -0.095871
1.095899 -0.166522 -0.058093
1.087322 -0.165413 -0.019198
1.029315 -0.157323 -0.279007
1.116858 -0.170704 0.019721
1.051769 -0.160943 -0.245647
1.111519 -0.170086 0.058930
1.065397 -0.163219 -0.209508
1.112718 -0.170469 0.098486
1.083662 -0.166211 -0.173642
1.141969 -0.175154 0.141856
1.090954 -0.167329 -0.135519
1.083119 -0.166321 -0.095871
1.103503 -0.169648 -0.058512
1.092961 -0.168223 -0.019302
1.032857 -0.159710 -0.280042
1.102725 -0.170514 0.019477
1.055339 -0.163375 -0.246546
1.115168 -0.172637 0.059140
1.078691 -0.167183 -0.212180
1.122263 -0.173936 0.099358
1.075562 -0.166890 -0.172391
1.149508 -0.178364 0.142831
1.098506 -0.170450 -0.136494
1.082827 -0.168211 -0.095871
1.095312 -0.170346 -0.058093
1.098594 -0.171053 -0.019407
1.040211 -0.162707 -0.282113
1.102425 -0.172438 0.019477
1.047351 -0.164011 -0.244747
1.112891 -0.174274 0.059035
1.072579 -0.168153 -0.211035
1.129831 -0.177129 0.100055
1.075269 -0.168767 -0.172391
1.135468 -0.178216 0.141125
1.094285 -0.171752 -0.136006
1.074659 -0.168864 -0.095174
1.095013 -0.172258 -0.058093
1.106195 -0.174215 -0.019547
1.053282 -0.166635 -0.285736
1.113973 -0.176237 0.019686
1.043214 -0.165229 -0.243847
1.108640 -0.175591 0.058826
1.074222 -0.170332 -0.211416
1.143295 -0.181285 0.101275
1.074973 -0.170644 -0.172391
1.139076 -0.180820 0.141612
1.092023 -0.173350 -0.135762
1.090104 -0.173241 -0.096569
1.088793 -0.173227 -0.057779
1.097990 -0.174887 -0.019407
1.043452 -0.166947 -0.283148
1.119588 -0.179129 0.019791
1.058317 -0.169515 -0.247446
1.116221 -0.178790 0.059244
1.064231 -0.170653 -0.209508
1.129206 -0.181072 0.100055
