# This PCD file was generated using the MATLAB® pcwrite function
# from Computer Vision System Toolbox®.
# .PCD v.7 - Point Cloud Data file format
VERSION .7
FIELDS x y z
SIZE 4 4 4
TYPE F F F
COUNT 1 1 1
WIDTH 1645
HEIGHT 1
VIEWPOINT 0 0 0 1 0 0 0
POINTS 1645
DATA ascii
1.853110 -1.026350 -0.411766
1.886835 -1.045459 -0.341653
1.922160 -1.065032 -0.269819
1.929039 -1.069284 -0.192963
1.968501 -1.091607 -0.117965
1.784907 -0.991835 -0.547143
1.815666 -1.009342 -0.479596
1.839306 -1.022904 -0.409095
1.878102 -1.044909 -0.340401
1.925502 -1.071281 -0.270550
1.927170 -1.072649 -0.192963
1.970082 -1.096984 -0.118175
1.773051 -0.989301 -0.544038
1.817305 -1.014409 -0.480495
1.839232 -1.027070 -0.409476
1.878000 -1.049149 -0.340714
1.906300 -1.064958 -0.268113
1.916599 -1.071151 -0.192091
1.969908 -1.101396 -0.118279
1.774866 -0.993973 -0.545073
1.812309 -1.015357 -0.479596
1.841041 -1.031877 -0.410239
1.871181 -1.049199 -0.339776
1.914914 -1.074160 -0.192091
1.957725 -1.098624 -0.117651
1.776496 -0.998963 -0.546108
1.802042 -1.013741 -0.477346
1.844370 -1.037977 -0.411384
1.872790 -1.054402 -0.340401
1.895839 -1.067379 -0.267138
1.916509 -1.079456 -0.192440
1.954064 -1.101059 -0.117547
1.778114 -1.003961 -0.547143
1.801966 -1.017843 -0.477796
1.828882 -1.033468 -0.408331
1.864068 -1.053780 -0.339150
1.904342 -1.076547 -0.268600
1.914622 -1.082800 -0.192440
1.950402 -1.103484 -0.117442
1.766276 -1.001347 -0.544038
1.806967 -1.024832 -0.479596
1.823660 -1.034721 -0.407568
1.872534 -1.062883 -0.341027
1.912818 -1.085749 -0.270062
1.897136 -1.077285 -0.190871
1.951946 -1.108860 -0.117651
1.754452 -0.998694 -0.540932
1.803483 -1.027020 -0.479146
1.823558 -1.038874 -0.407950
1.860378 -1.060281 -0.339150
1.890224 -1.077291 -0.267138
1.900445 -1.083555 -0.191394
1.950008 -1.112265 -0.117651
1.749352 -0.999837 -0.539897
1.798304 -1.028232 -0.478246
1.821742 -1.042055 -0.407950
1.853381 -1.060583 -0.338211
1.902009 -1.088850 -0.191743
1.951530 -1.117652 -0.117861
1.757658 -1.008658 -0.543002
1.786366 -1.025547 -0.475547
1.825028 -1.048166 -0.409095
1.858379 -1.067752 -0.339463
1.895058 -1.088827 -0.268356
1.900106 -1.092168 -0.191743
1.939187 -1.115082 -0.117233
1.759242 -1.013653 -0.544038
1.781197 -1.026717 -0.474647
1.814692 -1.046446 -0.407186
1.856512 -1.070994 -0.339463
1.886277 -1.088165 -0.267381
1.901648 -1.097475 -0.192091
1.937238 -1.118465 -0.117233
1.745765 -1.009950 -0.540414
1.774343 -1.026896 -0.473297
1.809465 -1.047644 -0.406423
1.856350 -1.075223 -0.339776
1.889528 -1.094440 -0.268113
1.887663 -1.093800 -0.190871
1.945651 -1.127854 -0.117861
1.727295 -1.003293 -0.535238
1.791082 -1.040761 -0.478246
1.805936 -1.049814 -0.406042
1.844224 -1.072502 -0.337898
1.891047 -1.099732 -0.268600
1.889195 -1.099096 -0.191220
1.943679 -1.131248 -0.117861
1.730548 -1.009226 -0.536791
1.780847 -1.038976 -0.475996
1.807492 -1.054944 -0.406805
1.838938 -1.073727 -0.337273
1.890839 -1.104032 -0.268844
1.887274 -1.102392 -0.191220
1.933080 -1.129601 -0.117337
1.727117 -1.011268 -0.536273
1.768941 -1.036172 -0.473297
1.802260 -1.056112 -0.406042
1.833653 -1.074937 -0.336647
1.878634 -1.101307 -0.267381
1.887066 -1.106692 -0.191394
1.925938 -1.129941 -0.117023
1.733676 -1.019176 -0.538861
1.762091 -1.036295 -0.471947
1.795338 -1.056269 -0.404897
1.835179 -1.080140 -0.337273
1.869866 -1.100556 -0.266406
1.881698 -1.107962 -0.191045
1.929125 -1.136342 -0.117337
1.733558 -1.023183 -0.539379
1.753567 -1.035405 -0.470148
1.793492 -1.059401 -0.404897
1.843495 -1.089371 -0.339150
1.866233 -1.102808 -0.266163
1.876331 -1.109217 -0.190697
1.913386 -1.131573 -0.116500
1.716812 -1.017343 -0.534720
1.763492 -1.045420 -0.473297
1.795017 -1.064533 -0.405660
1.827999 -1.084524 -0.336647
1.874550 -1.112141 -0.267625
1.864112 -1.106389 -0.189651
1.925147 -1.143069 -0.117337
1.715034 -1.020338 -0.534720
1.754966 -1.044510 -0.471497
1.783035 -1.061637 -0.403370
1.822709 -1.085691 -0.336021
1.869195 -1.113379 -0.267138
1.863890 -1.110660 -0.189825
1.919718 -1.144382 -0.117128
1.721543 -1.028283 -0.537308
1.741431 -1.040574 -0.468348
1.792976 -1.071799 -0.406042
1.824203 -1.090898 -0.336647
1.862137 -1.113584 -0.266406
1.867078 -1.116980 -0.190348
1.902293 -1.138499 -0.116186
1.714775 -1.028305 -0.535755
1.744625 -1.046619 -0.469698
1.775952 -1.065834 -0.402607
1.818908 -1.092047 -0.336021
1.855085 -1.113767 -0.265675
1.866833 -1.121263 -0.190522
1.900303 -1.141818 -0.116186
1.716288 -1.033289 -0.536791
1.744465 -1.050668 -0.470148
1.769044 -1.065893 -0.401462
1.820383 -1.097259 -0.336647
1.849738 -1.114953 -0.265188
1.863167 -1.123491 -0.190348
1.910279 -1.152354 -0.116919
1.701256 -1.028289 -0.532650
1.744296 -1.054720 -0.470598
1.770541 -1.071011 -0.402225
1.804946 -1.092253 -0.334144
1.846091 -1.117152 -0.264944
1.852682 -1.121582 -0.189477
1.903140 -1.152583 -0.116605
1.704413 -1.034263 -0.534203
1.739121 -1.055740 -0.469698
1.773703 -1.077157 -0.403370
1.792907 -1.089247 -0.332267
1.854318 -1.126557 -0.266406
1.854127 -1.126883 -0.189825
1.894299 -1.151752 -0.116186
1.702605 -1.037236 -0.534203
1.732284 -1.055731 -0.468348
1.768468 -1.078207 -0.402607
1.797749 -1.096490 -0.333518
1.847265 -1.126690 -0.265675
1.848755 -1.128042 -0.189477
1.887172 -1.151934 -0.115872
1.704088 -1.042222 -0.535238
1.732101 -1.059770 -0.468798
1.759885 -1.077192 -0.401081
1.804256 -1.104783 -0.335083
1.830059 -1.120583 -0.263482
1.848483 -1.132308 -0.189651
1.885158 -1.155226 -0.115872
1.697328 -1.042162 -0.533685
1.726928 -1.060752 -0.467898
1.749639 -1.075123 -0.399172
1.802325 -1.107931 -0.335083
1.833174 -1.126894 -0.264213
1.836321 -1.129270 -0.188605
1.881438 -1.157468 -0.115767
1.689110 -1.040774 -0.531614
1.733554 -1.068576 -0.470148
1.749619 -1.078900 -0.399554
1.793857 -1.106612 -0.333831
1.833091 -1.130814 -0.264456
1.834544 -1.132153 -0.188605
1.884716 -1.163570 -0.116081
1.692220 -1.046769 -0.533167
1.730029 -1.070574 -0.469698
1.754411 -1.086086 -0.401081
1.785205 -1.105581 -0.332580
1.826051 -1.130876 -0.263725
1.834260 -1.136403 -0.188779
1.872496 -1.160545 -0.115453
1.688749 -1.048702 -0.532650
1.719881 -1.068450 -0.467448
1.755847 -1.091219 -0.401844
1.789984 -1.112867 -0.333831
1.822389 -1.133014 -0.263482
1.830581 -1.138550 -0.188605
1.877251 -1.168031 -0.115872
1.690195 -1.053692 -0.533685
1.711399 -1.067325 -0.465649
1.745612 -1.089086 -0.399936
1.784687 -1.113897 -0.333205
1.820409 -1.136193 -0.263482
1.828591 -1.141743 -0.188605
1.870128 -1.168132 -0.115558
1.681803 -1.052540 -0.531614
1.714489 -1.073413 -0.466998
1.745372 -1.093173 -0.400317
1.789436 -1.121206 -0.334457
1.813376 -1.136206 -0.262750
1.823220 -1.142817 -0.188256
1.864702 -1.169272 -0.115348
1.675056 -1.052391 -0.530061
1.719213 -1.080552 -0.468798
1.738475 -1.093082 -0.399172
1.777444 -1.118017 -0.332580
1.816432 -1.142540 -0.263482
1.814477 -1.141753 -0.187559
1.877871 -1.182101 -0.116291
1.671583 -1.054282 -0.529544
1.707436 -1.077312 -0.466099
1.739886 -1.098211 -0.399936
1.772149 -1.119008 -0.331954
1.819470 -1.148888 -0.264213
1.815850 -1.147046 -0.187908
1.863986 -1.177908 -0.115558
1.677901 -1.062365 -0.532132
1.703906 -1.079247 -0.465649
1.744599 -1.105449 -0.401462
1.776867 -1.126329 -0.333205
1.807402 -1.145685 -0.262750
1.815528 -1.151281 -0.188082
1.853495 -1.175810 -0.115034
1.679305 -1.067365 -0.533167
1.693798 -1.076991 -0.463399
1.732728 -1.102170 -0.399172
1.771566 -1.127308 -0.332580
1.803725 -1.147772 -0.262507
1.816878 -1.156587 -0.188431
1.853124 -1.180116 -0.115139
1.662782 -1.060942 -0.528508
1.700129 -1.085188 -0.465649
1.725838 -1.102022 -0.398028
1.772925 -1.132525 -0.333205
1.801719 -1.150919 -0.262507
1.806462 -1.154392 -0.187559
1.854427 -1.185500 -0.115348
1.664182 -1.065926 -0.529544
1.696591 -1.087103 -0.465199
1.722259 -1.103974 -0.397646
1.761165 -1.128912 -0.331328
1.799708 -1.154062 -0.262507
1.797736 -1.153240 -0.186862
1.859079 -1.193049 -0.115767
1.663944 -1.069874 -0.530061
1.699799 -1.092928 -0.466549
1.727127 -1.110926 -0.399172
1.759192 -1.131984 -0.331328
1.802698 -1.160424 -0.263238
1.799273 -1.158220 -0.187211
1.848807 -1.190561 -0.115244
1.660638 -1.071439 -0.529544
1.681516 -1.085325 -0.462049
1.723537 -1.112874 -0.398791
1.753895 -1.132910 -0.330702
1.792536 -1.157869 -0.262019
1.800596 -1.163521 -0.187559
1.840017 -1.189449 -0.114825
1.662008 -1.076436 -0.530579
1.687797 -1.093557 -0.464299
1.718297 -1.113744 -0.398028
1.761860 -1.142417 -0.332580
1.790512 -1.160996 -0.262019
1.798563 -1.166662 -0.187559
1.837938 -1.192659 -0.114825
1.656888 -1.077229 -0.529544
1.682618 -1.094376 -0.463399
1.713059 -1.114600 -0.397264
1.754897 -1.142258 -0.331641
1.790147 -1.165202 -0.262263
1.793184 -1.167625 -0.187211
1.844221 -1.201316 -0.115348
1.646916 -1.074840 -0.526956
1.690496 -1.103703 -0.466099
1.716042 -1.120809 -0.398409
1.749593 -1.143158 -0.331015
1.791434 -1.170496 -0.262750
1.787808 -1.168572 -0.186862
1.840450 -1.203439 -0.115244
1.649885 -1.080889 -0.528508
1.678788 -1.100242 -0.463399
1.710800 -1.121650 -0.397646
1.740988 -1.141876 -0.329764
1.791049 -1.174710 -0.262994
1.785766 -1.171691 -0.186862
1.831668 -1.202266 -0.114825
1.647996 -1.083767 -0.528508
1.665469 -1.095674 -0.460250
1.718680 -1.131110 -0.399936
1.742292 -1.147086 -0.330390
1.782364 -1.173468 -0.262019
1.787046 -1.176998 -0.187211
1.827899 -1.204362 -0.114720
1.652551 -1.090899 -0.530579
1.674937 -1.106096 -0.463399
1.703598 -1.125450 -0.396883
1.740287 -1.150125 -0.330390
1.773688 -1.172199 -0.261044
1.788313 -1.182312 -0.187559
1.830792 -1.210856 -0.115034
1.647424 -1.091647 -0.529544
1.669755 -1.106864 -0.462499
1.696723 -1.125167 -0.395738
1.741570 -1.155344 -0.331015
1.768331 -1.173098 -0.260557
1.776286 -1.178822 -0.186513
1.822020 -1.209630 -0.114616
1.635865 -1.088101 -0.526438
1.674311 -1.114095 -0.464299
1.698025 -1.130302 -0.396501
1.732974 -1.154003 -0.329764
1.776195 -1.182784 -0.262019
1.774226 -1.181920 -0.186513
1.829878 -1.219454 -0.115244
1.633964 -1.090955 -0.526438
1.664261 -1.111603 -0.462049
1.692785 -1.131083 -0.395738
1.721103 -1.150439 -0.327887
1.779079 -1.189192 -0.262750
1.772161 -1.185015 -0.186513
1.812806 -1.212652 -0.114302
1.635267 -1.095956 -0.527473
1.654225 -1.109081 -0.459800
1.702221 -1.141690 -0.398409
1.725654 -1.157844 -0.329138
1.765462 -1.184553 -0.261044
1.773398 -1.190327 -0.186862
1.807371 -1.213587 -0.114092
1.633351 -1.098808 -0.527473
1.660370 -1.117406 -0.462049
1.685569 -1.134792 -0.394975
1.726908 -1.163061 -0.329764
1.758452 -1.184306 -0.260313
1.768013 -1.191194 -0.186513
1.805250 -1.216740 -0.114092
1.628229 -1.099495 -0.526438
1.653573 -1.117030 -0.460700
1.677079 -1.133335 -0.393448
1.721602 -1.163860 -0.329138
1.761316 -1.190708 -0.261044
1.762631 -1.192045 -0.186165
1.813049 -1.226604 -0.114720
1.616713 -1.095832 -0.523332
1.654847 -1.122101 -0.461600
1.679973 -1.139566 -0.394593
1.716299 -1.164645 -0.328512
1.754308 -1.190436 -0.260313
1.760548 -1.195120 -0.186165
1.812558 -1.230888 -0.114825
1.616395 -1.099739 -0.523850
1.651275 -1.123891 -0.461150
1.681227 -1.144707 -0.395356
1.707733 -1.163190 -0.327261
1.758790 -1.197966 -0.261288
1.755166 -1.195947 -0.185816
1.802155 -1.228425 -0.114302
1.622450 -1.108006 -0.526438
1.646093 -1.124573 -0.460250
1.682468 -1.149855 -0.396120
1.715485 -1.172859 -0.329138
1.755057 -1.199914 -0.261044
1.756365 -1.201258 -0.186165
1.793415 -1.227058 -0.113883
1.623700 -1.113020 -0.527473
1.647342 -1.129649 -0.461150
1.673983 -1.148347 -0.394593
1.713435 -1.175851 -0.329138
1.744777 -1.197359 -0.259825
1.754266 -1.204322 -0.186165
1.794563 -1.232447 -0.114092
1.609023 -1.107092 -0.523332
1.634131 -1.124788 -0.458000
1.665508 -1.146814 -0.393067
1.714634 -1.181081 -0.329764
1.739415 -1.198150 -0.259338
1.752161 -1.207381 -0.186165
1.789121 -1.233310 -0.113883
1.607088 -1.109898 -0.523332
1.636975 -1.130961 -0.459350
1.661889 -1.148602 -0.392685
1.697946 -1.173961 -0.326948
1.742219 -1.204571 -0.260069
1.743497 -1.205904 -0.185467
1.793535 -1.240977 -0.114302
1.603561 -1.111601 -0.522814
1.633398 -1.132706 -0.458900
1.664721 -1.154858 -0.393830
1.692649 -1.174670 -0.326322
1.748269 -1.213269 -0.261288
1.741389 -1.208945 -0.185467
1.786445 -1.240687 -0.113988
1.612719 -1.122122 -0.526438
1.629819 -1.134442 -0.458450
1.667537 -1.161127 -0.394975
1.697080 -1.182139 -0.327574
1.738004 -1.210645 -0.260069
1.742546 -1.214261 -0.185816
1.781000 -1.241519 -0.113778
1.610758 -1.124935 -0.526438
1.623044 -1.133937 -0.457101
1.651025 -1.153914 -0.391540
1.691776 -1.182835 -0.326948
1.734262 -1.212540 -0.259825
1.740424 -1.217301 -0.185816
1.785376 -1.249205 -0.114197
1.597719 -1.119982 -0.522814
1.625849 -1.140124 -0.458450
1.649008 -1.156794 -0.391540
1.696177 -1.190325 -0.328200
1.732143 -1.215564 -0.259825
1.735036 -1.218047 -0.185467
1.776655 -1.247728 -0.113778
1.589442 -1.118322 -0.520744
1.635012 -1.150811 -0.461600
1.655013 -1.165322 -0.393448
1.684407 -1.186458 -0.326322
1.731641 -1.219729 -0.260069
1.726392 -1.216483 -0.184770
1.779373 -1.254279 -0.114092
1.590644 -1.123323 -0.521779
1.618676 -1.143544 -0.457550
1.652977 -1.168208 -0.393448
1.675882 -1.184835 -0.325071
1.727889 -1.221603 -0.259825
1.729147 -1.222945 -0.185293
1.777181 -1.257383 -0.114092
1.591833 -1.128332 -0.522814
1.611909 -1.142985 -0.456201
1.655739 -1.174499 -0.394593
1.665756 -1.182042 -0.323507
1.719278 -1.220022 -0.258851
1.730259 -1.228268 -0.185642
1.766841 -1.254701 -0.113569
1.589861 -1.131109 -0.522814
1.609911 -1.145797 -0.456201
1.637694 -1.166001 -0.390777
1.670127 -1.189532 -0.324758
1.710679 -1.218415 -0.257876
1.731358 -1.233598 -0.185990
1.764649 -1.257782 -0.113569
1.587884 -1.133882 -0.522814
1.615838 -1.154269 -0.458450
1.634059 -1.167716 -0.390395
1.676083 -1.198189 -0.326322
1.711780 -1.223707 -0.258363
1.716237 -1.227346 -0.184596
1.765700 -1.263185 -0.113778
1.579622 -1.132150 -0.520744
1.609069 -1.153681 -0.457101
1.636804 -1.173998 -0.391540
1.670779 -1.198809 -0.325697
1.716093 -1.231322 -0.259338
1.707618 -1.225693 -0.183899
1.763492 -1.266264 -0.113778
1.580780 -1.137161 -0.521779
1.599145 -1.150796 -0.454851
1.631566 -1.174560 -0.390777
1.655861 -1.192488 -0.323194
1.717163 -1.236635 -0.259825
1.713559 -1.234494 -0.184770
1.754798 -1.264669 -0.113360
1.581926 -1.142180 -0.522814
1.601873 -1.157008 -0.456201
1.635879 -1.182004 -0.392303
1.663383 -1.202319 -0.325071
1.702131 -1.230327 -0.257876
1.713017 -1.238651 -0.184944
1.744497 -1.261878 -0.112836
1.579930 -1.144940 -0.522814
1.601429 -1.160946 -0.456651
1.625867 -1.179095 -0.390395
1.661282 -1.205221 -0.325071
1.703195 -1.235628 -0.258363
1.712464 -1.242809 -0.185119
1.747141 -1.268440 -0.113150
1.571680 -1.143150 -0.520744
1.602552 -1.166032 -0.457550
1.623806 -1.181931 -0.390395
1.662581 -1.210154 -0.325697
1.696221 -1.235093 -0.257632
1.707072 -1.243450 -0.184770
1.748152 -1.273840 -0.113360
1.566562 -1.143613 -0.519709
1.597570 -1.166250 -0.456651
1.620363 -1.183322 -0.390014
1.650896 -1.206062 -0.323819
1.698871 -1.241565 -0.258363
1.697073 -1.240251 -0.183899
1.752599 -1.281299 -0.113778
1.567881 -1.148356 -0.520744
1.592389 -1.166733 -0.455751
1.619878 -1.187309 -0.390395
1.650592 -1.209821 -0.324132
1.703323 -1.248928 -0.259338
1.699726 -1.246747 -0.184422
1.740698 -1.277267 -0.113150
1.565874 -1.151090 -0.520744
1.582703 -1.163462 -0.453501
1.627501 -1.196831 -0.392685
1.645296 -1.210359 -0.323507
1.697943 -1.249545 -0.258851
1.700975 -1.251777 -0.184770
1.740298 -1.281184 -0.113255
1.570080 -1.158409 -0.522814
1.583602 -1.168813 -0.454401
1.614144 -1.191790 -0.390014
1.646147 -1.215863 -0.324132
1.686178 -1.245431 -0.257388
1.698568 -1.255040 -0.184770
1.736229 -1.283335 -0.113150
1.561846 -1.156549 -0.520744
1.583126 -1.172735 -0.454851
1.593133 -1.180579 -0.385434
1.647196 -1.221087 -0.324758
1.682408 -1.247190 -0.257144
1.693175 -1.255629 -0.184422
1.737195 -1.288744 -0.113360
1.550522 -1.152359 -0.517638
1.584204 -1.177822 -0.455751
1.602098 -1.191559 -0.388106
1.638723 -1.219244 -0.323507
1.685006 -1.253679 -0.257876
1.682989 -1.252635 -0.183550
1.731739 -1.289388 -0.113150
1.551606 -1.157374 -0.518673
1.572775 -1.173592 -0.453051
1.606309 -1.199051 -0.389632
1.627096 -1.215010 -0.321629
1.685997 -1.258993 -0.258363
1.679204 -1.254378 -0.183376
1.729486 -1.292409 -0.113150
1.552676 -1.162396 -0.519709
1.569165 -1.175167 -0.452602
1.605785 -1.203030 -0.390014
1.637619 -1.227326 -0.324132
1.677443 -1.257172 -0.257388
1.683388 -1.262087 -0.184073
1.714445 -1.285838 -0.112313
1.547556 -1.162783 -0.518673
1.567111 -1.177904 -0.452602
1.594268 -1.198751 -0.387724
1.627581 -1.224245 -0.322568
1.672073 -1.257711 -0.256901
1.677999 -1.262627 -0.183724
1.728155 -1.300840 -0.113360
1.545524 -1.165482 -0.518673
1.572832 -1.186505 -0.454851
1.587472 -1.197984 -0.386579
1.630171 -1.230654 -0.323507
1.673044 -1.263020 -0.257388
1.677383 -1.266755 -0.183899
1.716320 -1.296631 -0.112732
1.537326 -1.163514 -0.516603
1.573866 -1.191601 -0.455751
1.585378 -1.200753 -0.386579
1.621723 -1.228726 -0.322255
1.670837 -1.265938 -0.257388
1.668818 -1.264867 -0.183201
1.714055 -1.299624 -0.112732
1.538370 -1.168533 -0.517638
1.564026 -1.188451 -0.453501
1.587969 -1.207083 -0.387724
1.616431 -1.229163 -0.321629
1.668625 -1.268852 -0.257388
1.668194 -1.268983 -0.183376
1.718142 -1.307452 -0.113150
1.539401 -1.173559 -0.518673
1.560400 -1.189998 -0.453051
1.590543 -1.213425 -0.388869
1.620565 -1.236776 -0.322881
1.660096 -1.266945 -0.256413
1.670727 -1.275520 -0.183899
1.703159 -1.300751 -0.112313
1.540419 -1.178591 -0.519709
1.550583 -1.186797 -0.450802
1.575952 -1.206651 -0.385816
1.618404 -1.239603 -0.322881
1.650003 -1.263805 -0.255194
1.671662 -1.280858 -0.184247
1.699301 -1.302506 -0.112208
1.532230 -1.176572 -0.517638
1.556236 -1.195437 -0.453051
1.570730 -1.207007 -0.385053
1.616238 -1.242425 -0.322881
1.643073 -1.263054 -0.254463
1.661527 -1.277701 -0.183376
1.708106 -1.313995 -0.112941
1.527114 -1.176886 -0.516603
1.555691 -1.199341 -0.453501
1.577949 -1.216940 -0.387342
1.607811 -1.240417 -0.321629
1.653440 -1.275620 -0.256413
1.648253 -1.272078 -0.182156
1.705810 -1.316974 -0.112941
1.528114 -1.181913 -0.517638
1.547430 -1.197285 -0.451702
1.571165 -1.216087 -0.386197
1.596272 -1.235966 -0.319752
1.655919 -1.282150 -0.257144
1.652331 -1.279833 -0.182853
1.700351 -1.317502 -0.112732
1.529101 -1.186948 -0.518673
1.539181 -1.195203 -0.449902
1.573691 -1.222441 -0.387342
1.603471 -1.246022 -0.321629
1.642707 -1.276512 -0.255438
1.650095 -1.282715 -0.182853
1.691743 -1.315564 -0.112313
1.523979 -1.187240 -0.517638
1.538630 -1.199085 -0.450352
1.570007 -1.223979 -0.386961
1.598179 -1.246389 -0.321004
1.640476 -1.279377 -0.255438
1.652566 -1.289269 -0.183376
1.691019 -1.319743 -0.112418
1.521905 -1.189898 -0.517638
1.544210 -1.207772 -0.452602
1.549314 -1.212199 -0.382381
1.596001 -1.249177 -0.321004
1.639804 -1.283462 -0.255682
1.645607 -1.288467 -0.182853
1.688713 -1.322693 -0.112418
1.513746 -1.187782 -0.515568
1.542100 -1.210465 -0.452602
1.553372 -1.219751 -0.383908
1.593818 -1.251960 -0.321004
1.640684 -1.288774 -0.256169
1.637090 -1.286413 -0.182156
1.689542 -1.328107 -0.112627
1.514706 -1.192813 -0.516603
1.536923 -1.210743 -0.451702
1.557409 -1.227322 -0.385434
1.582323 -1.247403 -0.319126
1.636873 -1.290407 -0.255926
1.634842 -1.289268 -0.182156
1.685653 -1.329816 -0.112522
1.515653 -1.197850 -0.517638
1.525635 -1.206172 -0.449002
1.556804 -1.231256 -0.385816
1.583242 -1.252614 -0.319752
1.629948 -1.289567 -0.255194
1.632589 -1.292120 -0.182156
1.678632 -1.329037 -0.112208
1.510533 -1.198093 -0.516603
1.534214 -1.217311 -0.452152
1.548502 -1.229089 -0.384289
1.584147 -1.257832 -0.320378
1.619922 -1.286237 -0.253976
1.636572 -1.299924 -0.182853
1.679438 -1.334450 -0.112418
1.505417 -1.198321 -0.515568
1.527514 -1.216346 -0.450802
1.540212 -1.226897 -0.382763
1.578859 -1.258133 -0.319752
1.626989 -1.296485 -0.255438
1.637416 -1.305262 -0.183201
1.680229 -1.339869 -0.112627
1.503323 -1.200947 -0.515568
1.528433 -1.221443 -0.451702
1.545736 -1.235712 -0.384671
1.576661 -1.260886 -0.319752
1.621623 -1.296843 -0.254951
1.622690 -1.298161 -0.181807
1.671651 -1.337808 -0.112208
1.498211 -1.201152 -0.514532
1.520218 -1.219232 -0.449902
1.543577 -1.238408 -0.384671
1.574458 -1.263636 -0.319752
1.616261 -1.297186 -0.254463
1.617314 -1.298496 -0.181458
1.667756 -1.339473 -0.112104
1.502132 -1.208609 -0.516603
1.515052 -1.219439 -0.449002
1.533767 -1.234944 -0.382763
1.567855 -1.262391 -0.318813
1.607811 -1.295025 -0.253488
1.621251 -1.306317 -0.182156
1.666970 -1.343635 -0.112208
1.500021 -1.211229 -0.516603
1.510102 -1.219369 -0.448103
1.536407 -1.241053 -0.383908
1.562577 -1.262643 -0.318188
1.605548 -1.297829 -0.253488
1.625395 -1.313872 -0.182853
1.658646 -1.341229 -0.111790
1.495114 -1.211152 -0.515568
1.518569 -1.230591 -0.451252
1.534239 -1.243733 -0.383908
1.574179 -1.276566 -0.321004
1.609675 -1.305351 -0.254463
1.613816 -1.309176 -0.181807
1.662506 -1.349155 -0.112208
1.487002 -1.208885 -0.513497
1.514908 -1.232010 -0.450802
1.529020 -1.243930 -0.383144
1.562756 -1.271830 -0.319126
1.598156 -1.300640 -0.253001
1.605348 -1.306959 -0.181110
1.663246 -1.354577 -0.112418
1.487883 -1.213921 -0.514532
1.509735 -1.232188 -0.449902
1.531409 -1.250322 -0.384289
1.552885 -1.268308 -0.317562
1.614333 -1.318496 -0.255926
1.603065 -1.309759 -0.181110
1.657786 -1.354951 -0.112208
1.485763 -1.216516 -0.514532
1.501552 -1.229882 -0.448103
1.536817 -1.259215 -0.386197
1.552196 -1.272269 -0.317875
1.596677 -1.308727 -0.253488
1.606939 -1.317608 -0.181807
1.639976 -1.345175 -0.111162
1.489607 -1.224013 -0.516603
1.499403 -1.232501 -0.448103
1.528551 -1.256907 -0.384671
1.556076 -1.279995 -0.319126
1.591324 -1.308990 -0.253001
1.610791 -1.325474 -0.182504
1.643794 -1.353113 -0.111580
1.481507 -1.221694 -0.514532
1.497250 -1.235116 -0.448103
1.553839 -1.282709 -0.319126
1.595160 -1.316820 -0.253976
1.596185 -1.318134 -0.181110
1.652209 -1.364884 -0.112313
1.473419 -1.219352 -0.512462
1.501096 -1.242698 -0.449902
1.515082 -1.254722 -0.382381
1.545513 -1.280378 -0.317875
1.586745 -1.314537 -0.253001
1.590814 -1.318375 -0.180761
1.645211 -1.363942 -0.111999
1.471289 -1.221921 -0.512462
1.498925 -1.245316 -0.449902
1.524969 -1.267403 -0.385434
1.537200 -1.278022 -0.316623
1.590554 -1.322380 -0.253976
1.591574 -1.323698 -0.181110
1.636687 -1.361701 -0.111580
1.478058 -1.231909 -0.515568
1.487769 -1.240442 -0.447203
1.519739 -1.267548 -0.384671
1.544068 -1.288296 -0.318501
1.586720 -1.323883 -0.253732
1.595380 -1.331580 -0.181807
1.632774 -1.363276 -0.111476
1.478869 -1.236965 -0.516603
1.488591 -1.245538 -0.448103
1.505481 -1.260117 -0.381618
1.541817 -1.290989 -0.318501
1.570709 -1.315181 -0.251538
1.593053 -1.334363 -0.181807
1.628862 -1.364841 -0.111371
1.467830 -1.232092 -0.513497
1.489399 -1.250641 -0.449002
1.507789 -1.266531 -0.382763
1.542586 -1.296220 -0.319126
1.574490 -1.323028 -0.252513
1.581571 -1.329449 -0.180761
1.632592 -1.372823 -0.111790
1.459767 -1.229674 -0.511426
1.487214 -1.253238 -0.449002
1.501073 -1.265365 -0.381618
1.537302 -1.296363 -0.318501
1.578249 -1.330893 -0.253488
1.579248 -1.332208 -0.180761
1.630193 -1.375670 -0.111790
1.460570 -1.234714 -0.512462
1.479073 -1.250799 -0.447203
1.503359 -1.271787 -0.382763
1.525989 -1.291388 -0.316623
1.575923 -1.333645 -0.253488
1.579962 -1.337537 -0.181110
1.623217 -1.374641 -0.111476
1.461359 -1.239761 -0.513497
1.470944 -1.248335 -0.445403
1.502634 -1.275679 -0.383144
1.526744 -1.296607 -0.317249
1.569054 -1.332539 -0.252757
1.574588 -1.337712 -0.180761
1.622338 -1.378766 -0.111580
1.463606 -1.246067 -0.515050
1.473214 -1.254690 -0.446753
1.507877 -1.284666 -0.385053
1.524479 -1.299270 -0.317249
1.560682 -1.330125 -0.251782
1.581348 -1.348214 -0.181807
1.613850 -1.376411 -0.111162
1.458491 -1.246109 -0.514015
1.472503 -1.258526 -0.447203
1.531216 -1.309632 -0.319126
1.561376 -1.335427 -0.252270
1.617515 -1.384420 -0.111580
1.450448 -1.243623 -0.511944
1.473263 -1.263631 -0.448103
1.522932 -1.307156 -0.317875
1.554524 -1.334272 -0.251538
1.618126 -1.389844 -0.111790
1.448275 -1.246153 -0.511944
1.466625 -1.262387 -0.446753
1.490716 -1.283576 -0.382381
1.517655 -1.307234 -0.317249
1.564225 -1.347347 -0.253488
1.606621 -1.384842 -0.111162
1.451947 -1.253729 -0.514015
1.900687 -0.930726 -0.488594
1.869020 -0.922915 -0.558532
1.895788 -0.940665 -0.488594
1.929086 -0.957606 -0.418635
1.881934 -0.937887 -0.485444
1.885522 -0.943788 -0.486794
1.887354 -0.948828 -0.487694
1.915275 -0.963283 -0.416727
1.850547 -0.933968 -0.555426
1.899572 -0.959543 -0.413674
1.845468 -0.935449 -0.554390
1.880555 -0.953647 -0.486794
1.949958 -0.989698 -0.346346
1.875414 -0.955159 -0.485894
1.913704 -0.975081 -0.417490
1.866805 -0.954881 -0.484095
1.934183 -0.990198 -0.344156
1.843981 -0.946864 -0.555426
1.873802 -0.962590 -0.486344
1.898066 -0.975473 -0.414819
1.835458 -0.946539 -0.553355
1.872119 -0.965859 -0.486344
1.928960 -0.996037 -0.343843
1.837234 -0.951518 -0.554390
1.866970 -0.967332 -0.485444
1.892906 -0.981189 -0.414437
1.961369 -1.017111 -0.271281
1.835571 -0.954723 -0.554390
1.867008 -0.971489 -0.485894
1.892932 -0.985398 -0.414819
1.921968 -1.000939 -0.343217
1.833902 -0.957926 -0.554390
1.865309 -0.974746 -0.485894
1.896429 -0.991429 -0.415964
1.932471 -1.010701 -0.345407
1.964843 -1.027632 -0.272256
1.987773 -1.040066 -0.196275
1.825384 -0.957535 -0.552320
1.861879 -0.977094 -0.485444
1.870360 -0.981961 -0.410621
1.928955 -1.013153 -0.345094
1.968318 -1.034266 -0.194532
1.813455 -0.955317 -0.549214
1.918447 -1.011911 -0.343530
1.968272 -1.038630 -0.194706
1.815200 -0.960288 -0.550249
1.851568 -0.979941 -0.483645
1.879066 -0.994914 -0.413292
1.906205 -1.009709 -0.341653
1.955927 -1.036047 -0.271769
1.961175 -1.039265 -0.194183
2.016960 -1.069278 -0.119640
1.816933 -0.965267 -0.551285
1.844692 -0.980427 -0.482295
1.882528 -1.000958 -0.414437
1.909672 -1.015818 -0.342592
1.954115 -1.039459 -0.271769
1.961116 -1.043622 -0.194357
1.822063 -0.972074 -0.553355
1.848136 -0.986398 -0.483645
1.866923 -0.996844 -0.411384
1.902669 -1.016357 -0.341653
1.950547 -1.041933 -0.271525
1.964564 -1.049861 -0.194880
1.999124 -1.068779 -0.118803
1.810147 -0.969779 -0.550249
1.841259 -0.986861 -0.482295
1.861720 -0.998245 -0.410621
1.946977 -1.044397 -0.271281
1.953951 -1.048577 -0.194009
1.991977 -1.069432 -0.118489
1.798244 -0.967445 -0.547143
1.844682 -0.992843 -0.483645
1.870346 -1.007078 -0.412911
1.897549 -1.021725 -0.341340
1.945151 -1.047794 -0.271281
1.941594 -1.046315 -0.192963
1.995381 -1.075750 -0.118803
1.803351 -0.974255 -0.549214
1.834547 -0.991109 -0.481395
1.865308 -1.008147 -0.412147
1.902713 -1.028793 -0.342592
1.941700 -1.050312 -0.193137
2.000715 -1.082686 -0.119221
1.798422 -0.975245 -0.548179
1.819111 -0.986875 -0.477796
1.868722 -1.014211 -0.413292
1.892234 -1.027400 -0.341027
1.929454 -1.047608 -0.269575
1.950369 -1.059405 -0.194183
1.977764 -1.074732 -0.117965
1.810290 -0.985773 -0.552320
1.827654 -0.995642 -0.480495
1.854882 -1.010895 -0.410621
1.900845 -1.036374 -0.342904
1.932851 -1.053824 -0.270306
1.943270 -1.059945 -0.193660
1.979392 -1.080096 -0.118175
1.791617 -0.979663 -0.547143
1.820784 -0.996024 -0.479146
1.853115 -1.014130 -0.410621
1.897300 -1.038741 -0.342592
1.934491 -1.059103 -0.270794
1.937922 -1.061421 -0.193311
1.974000 -1.081629 -0.117965
1.786518 -0.980929 -0.546108
1.827583 -1.003892 -0.481395
1.851342 -1.017363 -0.410621
1.898946 -1.043955 -0.343217
1.913505 -1.051958 -0.268113
1.930829 -1.061921 -0.192788
1.984359 -1.091813 -0.118698
1.781420 -0.982180 -0.545073
1.820709 -1.004256 -0.480046
1.853001 -1.022490 -0.411384
1.881557 -1.038675 -0.340401
1.921996 -1.061437 -0.192091
1.970213 -1.088513 -0.117965
1.786463 -0.989030 -0.547143
1.818954 -1.007433 -0.480046
1.847779 -1.023819 -0.410621
1.891835 -1.048661 -0.342592
1.923711 -1.066330 -0.270062
1.932338 -1.071553 -0.193311
1.971803 -1.093888 -0.118175
1.788111 -0.994024 -0.548179
1.810380 -1.006817 -0.478246
1.840843 -1.024179 -0.409476
1.879646 -1.046198 -0.340714
1.920112 -1.068720 -0.269819
1.928724 -1.073955 -0.193137
1.975125 -1.100244 -0.118489
1.776252 -0.991494 -0.545073
1.817128 -1.014726 -0.480495
1.835625 -1.025476 -0.408713
1.888163 -1.055259 -0.342592
1.909580 -1.067228 -0.268600
1.919890 -1.073430 -0.192440
1.969716 -1.101739 -0.118279
1.764408 -0.988925 -0.541967
1.813654 -1.016943 -0.480046
1.833832 -1.028678 -0.408713
1.872537 -1.050819 -0.340089
1.916370 -1.075417 -0.269819
1.914539 -1.074829 -0.192091
1.966048 -1.104198 -0.118175
1.769413 -0.995793 -0.544038
1.805084 -1.016283 -0.478246
1.833745 -1.032840 -0.409095
1.872421 -1.055055 -0.340401
1.917949 -1.080709 -0.270306
1.910925 -1.077190 -0.191917
1.964118 -1.107627 -0.118175
1.771037 -1.000780 -0.545073
1.791432 -1.012718 -0.475097
1.835357 -1.037972 -0.409858
1.865419 -1.055403 -0.339463
1.909149 -1.080144 -0.269331
1.915977 -1.084449 -0.192614
1.950016 -1.104165 -0.117442
1.765926 -1.001963 -0.544038
1.799831 -1.021615 -0.477796
1.835250 -1.042143 -0.410239
1.872162 -1.063536 -0.341027
1.896905 -1.077592 -0.267869
1.912350 -1.086807 -0.192440
1.949822 -1.108554 -0.117547
1.760818 -1.003131 -0.543002
1.799738 -1.025720 -0.478246
1.818078 -1.036593 -0.406805
1.865156 -1.063866 -0.340089
1.901918 -1.084835 -0.268844
1.903528 -1.086193 -0.191743
1.954823 -1.115916 -0.117965
1.749003 -1.000448 -0.539897
1.801328 -1.030795 -0.479146
1.816266 -1.039765 -0.406805
1.863296 -1.067120 -0.340089
1.900022 -1.088153 -0.268844
1.896443 -1.086543 -0.191220
1.958071 -1.122305 -0.118279
1.750605 -1.005423 -0.540932
1.789388 -1.028112 -0.476446
1.821257 -1.046847 -0.408331
1.846019 -1.061508 -0.337273
1.901561 -1.093446 -0.269331
1.894544 -1.089851 -0.191220
1.947453 -1.120740 -0.117756
1.752195 -1.010407 -0.541967
1.785903 -1.030260 -0.475996
1.826229 -1.053949 -0.409858
1.854428 -1.070654 -0.339150
1.894493 -1.093786 -0.268600
1.890914 -1.092160 -0.191045
1.940307 -1.121140 -0.117442
1.748757 -1.012496 -0.541449
1.779043 -1.030446 -0.474647
1.809099 -1.048276 -0.406423
1.850847 -1.072899 -0.338837
1.877124 -1.088131 -0.266406
1.892452 -1.097457 -0.191394
1.931436 -1.120515 -0.117023
1.733625 -1.007779 -0.537308
1.785665 -1.038447 -0.476896
1.800479 -1.047483 -0.404897
1.852386 -1.078115 -0.339463
1.887232 -1.098395 -0.268113
1.881924 -1.095746 -0.190522
1.927752 -1.122880 -0.116919
1.725190 -1.006908 -0.535238
1.782167 -1.040580 -0.476446
1.802038 -1.052604 -0.405660
1.843680 -1.077359 -0.338211
1.885312 -1.101687 -0.268113
1.881729 -1.100034 -0.190697
1.932685 -1.130275 -0.117337
1.731764 -1.014801 -0.537826
1.768580 -1.036790 -0.473297
1.810359 -1.061707 -0.407950
1.838389 -1.078576 -0.337586
1.885098 -1.105981 -0.268356
1.876369 -1.101300 -0.190348
1.925543 -1.130613 -0.117023
1.726660 -1.015863 -0.536791
1.756691 -1.033944 -0.470598
1.805120 -1.062872 -0.407186
1.836504 -1.081783 -0.337586
1.871192 -1.102217 -0.266650
1.879594 -1.107608 -0.190871
1.918405 -1.130929 -0.116709
1.728211 -1.020840 -0.537826
1.754883 -1.037008 -0.470598
1.801572 -1.065022 -0.406805
1.834613 -1.084987 -0.337586
1.874392 -1.108512 -0.267381
1.875943 -1.109872 -0.190697
1.912991 -1.132241 -0.116500
1.723103 -1.021884 -0.536791
1.756423 -1.042058 -0.471497
1.787892 -1.061151 -0.404133
1.831208 -1.086859 -0.337273
1.860506 -1.104688 -0.265675
1.865439 -1.108057 -0.189825
1.919597 -1.140679 -0.117023
1.714678 -1.020936 -0.534720
1.763156 -1.049801 -0.473747
1.784537 -1.062953 -0.403752
1.827611 -1.089042 -0.336960
1.877331 -1.119114 -0.268356
1.865407 -1.112006 -0.190000
1.924664 -1.147786 -0.117442
1.716389 -1.025611 -0.535755
1.751285 -1.046877 -0.471048
1.784364 -1.067074 -0.404133
1.818927 -1.088174 -0.335708
1.867054 -1.116966 -0.267138
1.860044 -1.113214 -0.189651
1.908949 -1.142935 -0.116605
1.711282 -1.026617 -0.534720
1.741100 -1.044918 -0.468798
1.785865 -1.072208 -0.404897
1.817025 -1.091347 -0.335708
1.854891 -1.114090 -0.265675
1.864930 -1.120563 -0.190348
1.906951 -1.146265 -0.116605
1.717763 -1.034586 -0.537308
1.739274 -1.047956 -0.468798
1.775584 -1.070255 -0.402989
1.811734 -1.092477 -0.335083
1.846144 -1.113226 -0.264700
1.868089 -1.126904 -0.190871
1.910078 -1.152687 -0.116919
1.714301 -1.036583 -0.536791
1.745780 -1.056033 -0.471048
1.763635 -1.067254 -0.400699
1.809824 -1.095637 -0.335083
1.852689 -1.121586 -0.265919
1.852486 -1.121905 -0.189477
1.904647 -1.153949 -0.116709
1.697627 -1.030551 -0.532132
1.745599 -1.060090 -0.471497
1.771837 -1.076447 -0.402989
1.812973 -1.101872 -0.336021
1.849032 -1.123787 -0.265675
1.847120 -1.123067 -0.189128
1.906043 -1.159348 -0.116919
1.697475 -1.034517 -0.532650
1.740419 -1.061106 -0.470598
1.769956 -1.079538 -0.402989
1.789126 -1.091659 -0.331954
1.853846 -1.131148 -0.266650
1.845157 -1.126289 -0.189128
1.892084 -1.155387 -0.116186
1.698963 -1.039495 -0.533685
1.726929 -1.057020 -0.467448
1.766394 -1.081600 -0.402607
1.788903 -1.095811 -0.332267
1.828170 -1.119865 -0.263238
1.846586 -1.131589 -0.189477
1.886659 -1.156599 -0.115976
1.703731 -1.046503 -0.535755
1.731723 -1.064114 -0.469248
1.762831 -1.083653 -0.402225
1.800449 -1.107210 -0.334770
1.829595 -1.125134 -0.263725
1.848002 -1.136899 -0.189825
1.884638 -1.159890 -0.115976
1.693680 -1.044405 -0.533167
1.729863 -1.067134 -0.469248
1.755925 -1.083635 -0.401081
1.801875 -1.112426 -0.335396
1.824250 -1.126240 -0.263238
1.837540 -1.134888 -0.188954
1.886009 -1.165278 -0.116186
1.683641 -1.042275 -0.530579
1.732968 -1.073230 -0.470598
1.750693 -1.084630 -0.400317
1.793215 -1.111407 -0.334144
1.823969 -1.130468 -0.263482
1.833863 -1.137043 -0.188779
1.889064 -1.171726 -0.116500
1.688383 -1.049291 -0.532650
1.726128 -1.073166 -0.469248
1.753799 -1.090795 -0.401462
1.781209 -1.108274 -0.332267
1.833792 -1.140991 -0.265188
1.830184 -1.139189 -0.188605
1.875148 -1.167631 -0.115767
1.683271 -1.050191 -0.531614
1.712680 -1.068955 -0.466099
1.755223 -1.095933 -0.402225
1.782623 -1.113474 -0.332893
1.825063 -1.139983 -0.264213
1.828193 -1.142382 -0.188605
1.868026 -1.167726 -0.115453
1.687984 -1.057229 -0.533685
1.707509 -1.069873 -0.465199
1.749981 -1.096910 -0.401462
1.787371 -1.120781 -0.334144
1.816343 -1.138948 -0.263238
1.827884 -1.146629 -0.188779
1.871061 -1.174169 -0.115767
1.681230 -1.057089 -0.532132
1.705639 -1.072851 -0.465199
1.736432 -1.092643 -0.398791
1.782069 -1.121794 -0.333518
1.812673 -1.141059 -0.262994
1.824194 -1.148756 -0.188605
1.872388 -1.179562 -0.115976
1.676116 -1.057959 -0.531097
1.713650 -1.082069 -0.467898
1.732863 -1.094624 -0.398409
1.773428 -1.120682 -0.332267
1.809000 -1.143161 -0.262750
1.817134 -1.148744 -0.188082
1.868639 -1.181761 -0.115872
1.672635 -1.059849 -0.530579
1.708467 -1.082972 -0.466998
1.739239 -1.102903 -0.400317
1.764797 -1.119542 -0.331015
1.812031 -1.149506 -0.263482
1.811762 -1.149779 -0.187733
1.863201 -1.182879 -0.115662
1.674042 -1.064840 -0.531614
1.693422 -1.077582 -0.463399
1.738968 -1.106992 -0.400699
1.769506 -1.126865 -0.332267
1.803325 -1.148402 -0.262507
1.808072 -1.151869 -0.187559
1.851028 -1.179689 -0.115034
1.673809 -1.068800 -0.532132
1.694823 -1.082635 -0.464299
1.730416 -1.105796 -0.399172
1.767536 -1.129952 -0.332267
1.799645 -1.150478 -0.262263
1.811094 -1.158243 -0.188082
1.850649 -1.183994 -0.115139
1.670315 -1.070677 -0.531614
1.696212 -1.087695 -0.465199
1.723526 -1.105635 -0.398028
1.768886 -1.135169 -0.332893
1.800976 -1.155762 -0.262750
1.807393 -1.160326 -0.187908
1.851940 -1.189381 -0.115348
1.658696 -1.067319 -0.528508
1.700865 -1.094873 -0.466998
1.723244 -1.109704 -0.398409
1.766902 -1.138254 -0.332893
1.795618 -1.156753 -0.262263
1.795317 -1.157003 -0.186862
1.856576 -1.196941 -0.115767
1.656831 -1.070212 -0.528508
1.685858 -1.089378 -0.463399
1.719656 -1.111644 -0.398028
1.746667 -1.129537 -0.329451
1.795263 -1.160964 -0.262507
1.799986 -1.164463 -0.187559
1.847777 -1.195838 -0.115348
1.654961 -1.073102 -0.528508
1.679049 -1.089138 -0.462049
1.721007 -1.116781 -0.398791
1.752977 -1.137962 -0.331015
1.791569 -1.163014 -0.262263
1.801293 -1.169774 -0.187908
1.833964 -1.191445 -0.114616
1.659562 -1.080204 -0.530579
1.682045 -1.095257 -0.463399
1.720700 -1.120855 -0.399172
1.750988 -1.141019 -0.331015
1.791200 -1.167223 -0.262507
1.799249 -1.172915 -0.187908
1.835227 -1.196826 -0.114825
1.651205 -1.078873 -0.528508
1.681762 -1.099257 -0.463849
1.708883 -1.117410 -0.396883
1.752301 -1.146237 -0.331641
1.784176 -1.167087 -0.261775
1.790530 -1.171690 -0.187211
1.836478 -1.202215 -0.115034
1.642858 -1.077515 -0.526438
1.681470 -1.103260 -0.464299
1.700365 -1.116081 -0.395356
1.743892 -1.144652 -0.330390
1.788774 -1.174558 -0.262750
1.785152 -1.172626 -0.186862
1.841053 -1.209806 -0.115453
1.639361 -1.079318 -0.525920
1.676480 -1.103756 -0.463399
1.710087 -1.126310 -0.398028
1.735294 -1.143346 -0.329138
1.783406 -1.175493 -0.262263
1.786635 -1.177621 -0.187211
1.825811 -1.203901 -0.114616
1.642499 -1.085086 -0.527473
1.659919 -1.097010 -0.459350
1.708118 -1.129293 -0.398028
1.739886 -1.150732 -0.330390
1.781558 -1.178293 -0.262263
1.784577 -1.180738 -0.187211
1.820376 -1.204881 -0.114406
1.638993 -1.086884 -0.526956
1.669369 -1.107447 -0.462499
1.697966 -1.126845 -0.396120
1.731292 -1.149397 -0.329138
1.769576 -1.174813 -0.260800
1.782513 -1.183851 -0.187211
1.821598 -1.210266 -0.114616
1.635485 -1.088672 -0.526438
1.660945 -1.106038 -0.460700
1.689461 -1.125453 -0.394593
1.739146 -1.158989 -0.331015
1.772478 -1.181202 -0.261532
1.770498 -1.180329 -0.186165
1.822806 -1.215660 -0.114825
1.628764 -1.088305 -0.524885
1.676834 -1.120848 -0.465649
1.690758 -1.130582 -0.395356
1.727269 -1.155433 -0.329138
1.770414 -1.184294 -0.261532
1.771747 -1.185634 -0.186513
1.817362 -1.216618 -0.114616
1.626862 -1.091146 -0.524885
1.658693 -1.112915 -0.461150
1.695302 -1.137908 -0.396883
1.725250 -1.158446 -0.329138
1.773288 -1.190702 -0.262263
1.766367 -1.186502 -0.186165
1.813578 -1.218674 -0.114511
1.631365 -1.098300 -0.526956
1.655131 -1.114720 -0.460700
1.688429 -1.137574 -0.395738
1.723225 -1.161455 -0.329138
1.761331 -1.187138 -0.260800
1.770901 -1.194038 -0.186862
1.804825 -1.217370 -0.114092
1.627845 -1.100063 -0.526438
1.651569 -1.116515 -0.460250
1.684815 -1.139419 -0.395356
1.717924 -1.162247 -0.328512
1.754324 -1.186873 -0.260069
1.768815 -1.197127 -0.186862
1.807659 -1.223877 -0.114406
1.624324 -1.101818 -0.525920
1.651230 -1.120490 -0.460700
1.676326 -1.137948 -0.393830
1.719161 -1.167463 -0.329138
1.757176 -1.193279 -0.260800
1.760130 -1.195734 -0.186165
1.807172 -1.228153 -0.114511
1.620802 -1.103565 -0.525403
1.654104 -1.126662 -0.462049
1.677582 -1.143082 -0.394593
1.710592 -1.166012 -0.327887
1.753451 -1.195226 -0.260557
1.754748 -1.196560 -0.185816
1.806676 -1.232431 -0.114616
1.617278 -1.105302 -0.524885
1.647309 -1.126248 -0.460700
1.675585 -1.146009 -0.394593
1.705293 -1.166765 -0.327261
1.756277 -1.201648 -0.261288
1.754302 -1.200746 -0.185990
1.801226 -1.233325 -0.114406
1.615346 -1.108123 -0.524885
1.640520 -1.125813 -0.459350
1.676819 -1.151154 -0.395356
1.703254 -1.169739 -0.327261
1.744359 -1.197968 -0.259825
1.753845 -1.204934 -0.186165
1.784257 -1.226286 -0.113464
1.615001 -1.112036 -0.525403
1.636948 -1.127569 -0.458900
1.673191 -1.152965 -0.394975
1.701210 -1.172710 -0.327261
1.734093 -1.195377 -0.258607
1.751740 -1.207993 -0.186165
1.795266 -1.238471 -0.114302
1.609879 -1.112656 -0.524367
1.636581 -1.131533 -0.459350
1.659873 -1.148065 -0.392303
1.705659 -1.180173 -0.328512
1.741799 -1.205179 -0.260069
1.747990 -1.209915 -0.185990
1.789818 -1.239329 -0.114092
1.604760 -1.113262 -0.523332
1.636204 -1.135498 -0.459800
1.661093 -1.153200 -0.393067
1.697106 -1.178641 -0.327261
1.738062 -1.207085 -0.259825
1.740967 -1.209553 -0.185467
1.792572 -1.245870 -0.114406
1.602815 -1.116061 -0.523332
1.631022 -1.136125 -0.458900
1.659078 -1.156097 -0.393067
1.691805 -1.179342 -0.326635
1.740838 -1.213522 -0.260557
1.738854 -1.212590 -0.185467
1.778929 -1.240998 -0.113674
1.599281 -1.117750 -0.522814
1.624245 -1.135620 -0.457550
1.663492 -1.163492 -0.394593
1.689745 -1.182293 -0.326635
1.727332 -1.208593 -0.258851
1.736735 -1.215623 -0.185467
1.775124 -1.242955 -0.113569
1.605235 -1.126087 -0.525403
1.619071 -1.136214 -0.456651
1.658246 -1.164138 -0.393830
1.687678 -1.185240 -0.326635
1.723596 -1.210465 -0.258607
1.744392 -1.225525 -0.186513
1.772952 -1.246051 -0.113569
1.598529 -1.125550 -0.523850
1.618678 -1.140160 -0.457101
1.646582 -1.160245 -0.391540
1.688837 -1.190460 -0.327261
1.726348 -1.216902 -0.259338
1.734109 -1.222826 -0.185642
1.777303 -1.253749 -0.113988
1.587096 -1.121649 -0.520744
1.623051 -1.147483 -0.458900
1.644554 -1.163117 -0.391540
1.673856 -1.184279 -0.324758
1.724221 -1.219913 -0.259338
1.725467 -1.221247 -0.184944
1.780002 -1.260311 -0.114302
1.591439 -1.128888 -0.522814
1.622634 -1.151442 -0.459350
1.647325 -1.169395 -0.392685
1.668565 -1.184911 -0.324132
1.728564 -1.227518 -0.260313
1.726582 -1.226564 -0.185293
1.769659 -1.257631 -0.113778
1.589466 -1.131664 -0.522814
1.611099 -1.147489 -0.456651
1.650078 -1.175686 -0.393830
1.674537 -1.193554 -0.325697
1.716720 -1.223620 -0.258851
1.724438 -1.229576 -0.185293
1.764210 -1.258398 -0.113569
1.590632 -1.136683 -0.523850
1.610679 -1.151433 -0.457101
1.646426 -1.177422 -0.393448
1.672451 -1.196475 -0.325697
1.711352 -1.224305 -0.258363
1.722289 -1.232584 -0.185293
1.757139 -1.257988 -0.113255
1.582367 -1.134953 -0.521779
1.602333 -1.149698 -0.455301
1.628420 -1.168846 -0.389632
1.678384 -1.205153 -0.327261
1.715663 -1.231921 -0.259338
1.716899 -1.233263 -0.184944
1.763050 -1.266880 -0.113778
1.574112 -1.133198 -0.519709
1.609812 -1.159326 -0.458000
1.627970 -1.172834 -0.390014
1.673072 -1.205770 -0.326635
1.710289 -1.232592 -0.258851
1.709896 -1.232762 -0.184422
1.765696 -1.273460 -0.114092
1.578395 -1.140470 -0.521779
1.604628 -1.159850 -0.457101
1.625921 -1.175673 -0.390014
1.654960 -1.197111 -0.323507
1.712961 -1.239066 -0.259582
1.712584 -1.239249 -0.184944
1.756999 -1.271855 -0.113674
1.573274 -1.140955 -0.520744
1.591560 -1.154639 -0.453951
1.630222 -1.183122 -0.391540
1.659263 -1.204640 -0.324758
1.699551 -1.233890 -0.257876
1.713643 -1.244577 -0.185293
1.748314 -1.270224 -0.113255
1.577528 -1.148246 -0.522814
1.594268 -1.160856 -0.455301
1.624981 -1.183653 -0.390777
1.657157 -1.207534 -0.324758
1.695790 -1.235685 -0.257632
1.711468 -1.247566 -0.185293
1.749322 -1.275627 -0.113464
1.569282 -1.146439 -0.520744
1.598533 -1.168236 -0.457101
1.611818 -1.178377 -0.388106
1.661425 -1.215089 -0.326009
1.695233 -1.239815 -0.257876
1.698032 -1.242316 -0.184073
1.750316 -1.281038 -0.113674
1.561047 -1.144607 -0.518673
1.590206 -1.166414 -0.455301
1.612925 -1.183511 -0.388869
1.645180 -1.207180 -0.323194
1.694667 -1.243946 -0.258119
1.695861 -1.245278 -0.184073
1.744858 -1.281726 -0.113464
1.559047 -1.147330 -0.518673
1.589942 -1.170066 -0.455751
1.618969 -1.191863 -0.390777
1.641481 -1.208878 -0.322881
1.700484 -1.252789 -0.259338
1.695507 -1.249122 -0.184247
1.734804 -1.278540 -0.112941
1.560351 -1.152073 -0.519709
1.583194 -1.169366 -0.454401
1.618465 -1.195854 -0.391158
1.642757 -1.213803 -0.323507
1.688936 -1.248379 -0.257876
1.699732 -1.256818 -0.184944
1.735781 -1.283942 -0.113150
1.567651 -1.161695 -0.522814
1.584487 -1.174172 -0.455301
1.605545 -1.190210 -0.388487
1.637463 -1.214314 -0.322881
1.686755 -1.251325 -0.257876
1.689755 -1.253551 -0.184073
1.738574 -1.290237 -0.113464
1.559421 -1.159818 -0.520744
1.577539 -1.173722 -0.453951
1.603257 -1.193290 -0.388487
1.646220 -1.225714 -0.325071
1.684569 -1.254267 -0.257876
1.687345 -1.256792 -0.184073
1.732890 -1.291186 -0.113255
1.545009 -1.153293 -0.516603
1.580173 -1.179971 -0.455301
1.596453 -1.192562 -0.387342
1.639331 -1.225038 -0.324132
1.682377 -1.257205 -0.257876
1.681958 -1.257350 -0.183724
1.729034 -1.293012 -0.113150
1.549178 -1.160621 -0.518673
1.581230 -1.185064 -0.456201
1.597511 -1.197702 -0.388106
1.624548 -1.218415 -0.321629
1.683356 -1.262522 -0.258363
1.682948 -1.262675 -0.184073
1.728372 -1.297227 -0.113255
1.547150 -1.163323 -0.518673
1.563585 -1.176108 -0.451702
1.601693 -1.205210 -0.389632
1.625575 -1.223625 -0.322255
1.671634 -1.258295 -0.256901
1.680742 -1.265610 -0.184073
1.721320 -1.296636 -0.112941
1.552828 -1.171840 -0.521262
1.564641 -1.181184 -0.452602
1.590187 -1.200905 -0.387342
1.623437 -1.226460 -0.322255
1.663100 -1.256424 -0.255926
1.680120 -1.269743 -0.184247
1.714275 -1.296026 -0.112627
1.543080 -1.168717 -0.518673
1.562577 -1.183913 -0.452602
1.580265 -1.197749 -0.385434
1.624442 -1.231679 -0.322881
1.664068 -1.261724 -0.256413
1.673139 -1.269061 -0.183724
1.718374 -1.303844 -0.113046
1.534886 -1.166732 -0.516603
1.571367 -1.194895 -0.455751
1.587548 -1.207637 -0.387724
1.625434 -1.236904 -0.323507
1.663443 -1.265828 -0.256657
1.666165 -1.268359 -0.183201
1.719274 -1.309262 -0.113255
1.535919 -1.171752 -0.517638
1.561533 -1.191724 -0.453501
1.585438 -1.210406 -0.387724
1.604434 -1.225352 -0.319752
1.665964 -1.272344 -0.257388
1.663949 -1.271265 -0.183201
1.713813 -1.309835 -0.113046
1.540007 -1.179129 -0.519709
1.554809 -1.190893 -0.452152
1.583323 -1.213171 -0.387724
1.617971 -1.240167 -0.322881
1.654288 -1.268004 -0.255926
1.661728 -1.274167 -0.183201
1.703600 -1.306746 -0.112522
1.537947 -1.181815 -0.519709
1.548094 -1.190042 -0.450802
1.581203 -1.215932 -0.387724
1.612673 -1.240580 -0.322255
1.650499 -1.269679 -0.255682
1.667396 -1.283141 -0.184073
1.699734 -1.308499 -0.112418
1.526703 -1.177419 -0.516603
1.553729 -1.198694 -0.453051
1.571307 -1.212693 -0.385816
1.608941 -1.242186 -0.321942
1.643566 -1.268918 -0.254951
1.657270 -1.279960 -0.183201
1.703770 -1.316348 -0.112836
1.524646 -1.180081 -0.516603
1.551635 -1.201404 -0.453051
1.572292 -1.217838 -0.386579
1.598963 -1.238943 -0.320378
1.647626 -1.276649 -0.255926
1.645585 -1.275527 -0.182156
1.709362 -1.325439 -0.113360
1.522584 -1.182741 -0.516603
1.546458 -1.201718 -0.452152
1.574815 -1.224195 -0.387724
1.596799 -1.241732 -0.320378
1.656364 -1.288052 -0.257632
1.643357 -1.278397 -0.182156
1.689707 -1.314928 -0.112208
1.523565 -1.187772 -0.517638
1.544358 -1.204416 -0.452152
1.566484 -1.222111 -0.386197
1.597743 -1.246947 -0.321004
1.636900 -1.277506 -0.254951
1.644264 -1.283716 -0.182504
1.688984 -1.319104 -0.112313
1.524532 -1.192810 -0.518673
1.536115 -1.202305 -0.450352
1.561257 -1.222423 -0.385434
1.601785 -1.254606 -0.322255
1.634668 -1.280362 -0.254951
1.654567 -1.296414 -0.183899
1.688251 -1.323282 -0.112418
1.516370 -1.190697 -0.516603
1.543209 -1.212207 -0.453051
1.549859 -1.217868 -0.383144
1.602699 -1.259842 -0.322881
1.632431 -1.283213 -0.254951
1.639773 -1.289447 -0.182504
1.689078 -1.328696 -0.112627
1.508221 -1.188558 -0.514532
1.541091 -1.214898 -0.453051
1.549273 -1.221786 -0.383526
1.591192 -1.255296 -0.321004
1.637981 -1.292207 -0.256169
1.634392 -1.289839 -0.182156
1.691459 -1.335355 -0.112941
1.509174 -1.193586 -0.515568
1.532856 -1.212750 -0.451252
1.557914 -1.233018 -0.386197
1.582804 -1.253166 -0.319752
1.635723 -1.295064 -0.256169
1.632138 -1.292689 -0.182156
1.681299 -1.332104 -0.112418
1.513141 -1.201022 -0.517638
1.526158 -1.211788 -0.449902
1.555760 -1.235735 -0.386197
1.583708 -1.258385 -0.320378
1.630352 -1.295447 -0.255682
1.636118 -1.300495 -0.182853
1.678972 -1.335036 -0.112418
1.514065 -1.206069 -0.518673
1.525565 -1.215664 -0.450352
1.547460 -1.233553 -0.384671
1.575331 -1.256221 -0.319126
1.615672 -1.288390 -0.253732
1.636961 -1.305833 -0.183201
1.671956 -1.334227 -0.112104
1.505922 -1.203884 -0.516603
1.524963 -1.219542 -0.450802
1.540705 -1.232573 -0.383526
1.585696 -1.268566 -0.321629
1.618071 -1.294928 -0.254463
1.625347 -1.301217 -0.182156
1.674301 -1.340889 -0.112418
1.500805 -1.204093 -0.515568
1.530645 -1.228033 -0.453051
1.577318 -1.266384 -0.320378
1.620451 -1.301480 -0.255194
1.623301 -1.303769 -0.182156
1.672193 -1.343517 -0.112418
1.495902 -1.204026 -0.514532
1.516357 -1.220926 -0.449452
1.556486 -1.253685 -0.388487
1.566097 -1.261426 -0.318501
1.615313 -1.301533 -0.254707
1.627228 -1.311601 -0.182853
1.666736 -1.343926 -0.112208
1.496804 -1.209063 -0.515568
1.514437 -1.223306 -0.449452
1.537717 -1.242555 -0.384289
1.566965 -1.266641 -0.319126
