# This PCD file was generated using the MATLAB® pcwrite function
# from Computer Vision System Toolbox®.
# .PCD v.7 - Point Cloud Data file format
VERSION .7
FIELDS x y z
SIZE 4 4 4
TYPE F F F
COUNT 1 1 1
WIDTH 1704
HEIGHT 1
VIEWPOINT 0 0 0 1 0 0 0
POINTS 1704
DATA ascii
1.627597 1.065476 -0.101950
1.588132 1.037662 -0.508321
1.595673 1.042191 -0.440004
1.591301 1.038940 -0.369406
1.602963 1.046156 -0.303170
1.620821 1.057810 -0.237645
1.593592 1.039642 -0.166467
1.621089 1.057179 -0.101427
1.591560 1.035942 -0.508838
1.586055 1.031966 -0.436855
1.601341 1.041514 -0.371314
1.604787 1.043356 -0.303170
1.614344 1.049569 -0.236427
1.605427 1.043374 -0.167513
1.619582 1.052172 -0.101218
1.599849 1.037368 -0.510909
1.596030 1.034496 -0.439104
1.598213 1.035514 -0.370169
1.606606 1.040553 -0.303170
1.617840 1.047829 -0.236670
1.610590 1.042736 -0.167862
1.626447 1.052598 -0.101532
1.596609 1.031707 -0.509356
1.597653 1.031987 -0.439104
1.593240 1.028743 -0.368643
1.611557 1.040171 -0.303796
1.619484 1.045287 -0.236670
1.605530 1.035884 -0.167165
1.634812 1.054372 -0.101950
1.595158 1.026828 -0.508321
1.606007 1.033415 -0.440904
1.598336 1.028085 -0.369406
1.611709 1.036289 -0.303483
1.621305 1.042459 -0.236670
1.607335 1.033080 -0.167165
1.633289 1.049358 -0.101741
1.596948 1.024043 -0.508321
1.596323 1.023249 -0.437755
1.601781 1.026352 -0.369788
1.613515 1.033474 -0.303483
1.629991 1.043626 -0.237645
1.602424 1.025976 -0.166467
1.633436 1.045429 -0.101636
1.603796 1.024093 -0.509874
1.601392 1.022558 -0.438655
1.608534 1.026725 -0.370933
1.615316 1.030657 -0.303483
1.628463 1.038644 -0.237158
1.611110 1.027182 -0.167165
1.637124 1.043365 -0.101741
1.605581 1.021294 -0.509874
1.604997 1.020528 -0.439104
1.607189 1.021528 -0.370169
1.620627 1.029672 -0.304109
1.626922 1.033671 -0.236670
1.619629 1.028641 -0.167862
1.633884 1.037295 -0.101427
1.607361 1.018489 -0.509874
1.610068 1.019811 -0.440004
1.610628 1.019772 -0.370551
1.627429 1.030011 -0.305047
1.628724 1.030831 -0.236670
1.614686 1.021552 -0.167165
1.644132 1.039779 -0.101950
1.604235 1.012589 -0.508321
1.620086 1.022199 -0.442254
1.612405 1.016959 -0.370551
1.625882 1.025062 -0.304422
1.633878 1.030104 -0.237158
1.613096 1.016608 -0.166816
1.647634 1.037973 -0.102055
1.610907 1.012872 -0.509874
1.615268 1.015221 -0.440454
1.615840 1.015188 -0.370933
1.620977 1.018020 -0.303170
1.645761 1.033584 -0.238620
1.618243 1.015909 -0.167165
1.640984 1.029787 -0.101532
1.615946 1.012110 -0.510909
1.610430 1.008265 -0.438655
1.625931 1.017573 -0.372841
1.626101 1.017285 -0.303796
1.637464 1.024394 -0.237158
1.620013 1.013084 -0.167165
1.644473 1.027980 -0.101636
1.620988 1.011334 -0.511944
1.613841 1.006483 -0.439104
1.621040 1.010580 -0.371314
1.629550 1.015490 -0.304109
1.632511 1.017335 -0.236183
1.625161 1.012361 -0.167513
1.647960 1.026164 -0.101741
1.617828 1.005443 -0.510391
1.620561 1.006750 -0.440454
1.614462 1.002570 -0.369406
1.636178 1.016056 -0.305047
1.637657 1.016578 -0.236670
1.630311 1.011624 -0.167862
1.653144 1.025391 -0.101950
1.611368 0.997534 -0.507803
1.628768 1.008306 -0.442254
1.619374 1.002099 -0.370169
1.629549 1.008003 -0.303483
1.646182 1.017895 -0.237645
1.621731 1.002775 -0.166816
1.656451 1.023843 -0.102055
1.617865 0.998045 -0.509356
1.620574 0.999324 -0.439554
1.627806 1.003392 -0.371696
1.632987 1.006194 -0.303796
1.651159 1.017390 -0.238133
1.633657 1.006212 -0.167862
1.656534 1.019904 -0.101950
1.621251 0.996230 -0.509874
1.618994 0.994455 -0.438655
1.627881 0.999523 -0.371314
1.631374 1.001275 -0.303170
1.646165 1.010353 -0.237158
1.632014 1.001276 -0.167513
1.651501 1.012835 -0.101532
1.626282 0.995416 -0.510909
1.624052 0.993662 -0.439554
1.624599 0.993606 -0.370169
1.643231 1.004608 -0.305047
1.651313 1.009549 -0.237645
1.640560 1.002581 -0.168211
1.658380 1.013074 -0.101846
1.624719 0.990565 -0.509874
1.637432 0.997925 -0.442704
1.626330 0.990770 -0.370169
1.644982 1.001738 -0.305047
1.651378 1.005633 -0.237402
1.632096 0.993501 -0.167165
1.656733 1.008102 -0.101636
1.621491 0.984720 -0.508321
1.640837 0.996077 -0.443154
1.629736 0.988948 -0.370551
1.639972 0.994769 -0.303796
1.654827 1.003779 -0.237645
1.633827 0.990651 -0.167165
1.668738 1.011420 -0.102264
1.631472 0.986888 -0.510909
1.632568 0.987161 -0.440454
1.629779 0.985086 -0.370169
1.638324 0.989862 -0.303170
1.659974 1.002943 -0.238133
1.635554 0.987797 -0.167165
1.661952 1.003345 -0.101741
1.633192 0.984039 -0.510909
1.634288 0.984310 -0.440454
1.639905 0.987304 -0.372078
1.650205 0.993112 -0.305047
1.660022 0.999020 -0.237889
1.647519 0.991104 -0.168211
1.668835 1.003531 -0.102055
1.641533 0.985163 -0.512979
1.636003 0.981457 -0.440454
1.638259 0.982421 -0.371314
1.648547 0.988199 -0.304422
1.654952 0.992039 -0.236914
1.656083 0.992323 -0.168908
1.667157 0.998564 -0.101846
1.636617 0.978331 -0.510909
1.642733 0.981599 -0.441804
1.634914 0.976540 -0.370169
1.657054 0.989370 -0.305673
1.663499 0.993219 -0.237889
1.647547 0.983305 -0.167862
1.663752 0.992583 -0.101532
1.635002 0.973498 -0.509874
1.654491 0.984710 -0.444503
1.638304 0.974688 -0.370551
1.651986 0.982439 -0.304422
1.661817 0.988285 -0.237402
1.649260 0.980428 -0.167862
1.670633 0.992738 -0.101846
1.638360 0.971628 -0.510391
1.637768 0.970889 -0.439554
1.650136 0.977832 -0.372841
1.655398 0.980561 -0.304734
1.670371 0.989430 -0.238376
1.647540 0.975517 -0.167513
1.667207 0.986769 -0.101532
1.651697 0.975644 -0.514015
1.642815 0.970011 -0.440454
1.650150 0.973953 -0.372459
1.657107 0.977670 -0.304734
1.670386 0.985504 -0.238133
1.659538 0.978713 -0.168559
1.677529 0.988929 -0.102055
1.655062 0.973740 -0.514532
1.651225 0.971094 -0.442254
1.653539 0.972067 -0.372841
1.660514 0.975777 -0.305047
1.670392 0.981582 -0.237889
1.661244 0.975815 -0.168559
1.679252 0.986000 -0.102055
1.653426 0.968896 -0.513497
1.647873 0.965256 -0.440904
1.643374 0.962236 -0.370169
1.669034 0.976868 -0.306299
1.673816 0.979667 -0.238133
1.659504 0.970903 -0.168211
1.684419 0.985085 -0.102264
1.648440 0.962114 -0.511426
1.663021 0.970235 -0.444503
1.655227 0.965300 -0.372459
1.665616 0.970970 -0.305360
1.670378 0.973746 -0.237402
1.657754 0.965998 -0.167862
1.687862 0.983148 -0.102369
1.650117 0.959235 -0.511426
1.654602 0.961456 -0.441804
1.655211 0.961423 -0.372078
1.662184 0.965085 -0.304422
1.678942 0.974816 -0.238376
1.666330 0.967104 -0.168559
1.680937 0.975189 -0.101846
1.655133 0.958290 -0.512462
1.649531 0.954662 -0.440004
1.660285 0.960499 -0.372841
1.667285 0.964161 -0.305047
1.672049 0.966915 -0.237158
1.671465 0.966188 -0.168908
1.686095 0.974253 -0.102055
1.661823 0.958295 -0.514015
1.659636 0.956648 -0.442254
1.663660 0.958580 -0.373222
1.670677 0.962235 -0.305360
1.673734 0.963996 -0.237158
1.676602 0.965257 -0.169256
1.691255 0.973301 -0.102264
1.656793 0.951544 -0.511944
1.661303 0.953750 -0.442254
1.658520 0.951766 -0.371696
1.674068 0.960300 -0.305673
1.682302 0.965023 -0.238133
1.671370 0.958366 -0.168559
1.696417 0.972334 -0.102474
1.658450 0.948652 -0.511944
1.669733 0.954717 -0.444053
1.663587 0.950818 -0.372459
1.674026 0.956398 -0.305360
1.687430 0.964056 -0.238620
1.673041 0.955447 -0.168559
1.703315 0.972342 -0.102788
1.658425 0.944799 -0.511426
1.671396 0.951802 -0.444053
1.670363 0.950827 -0.373604
1.670542 0.950544 -0.304422
1.696012 0.965036 -0.239595
1.678169 0.954496 -0.168908
1.696328 0.964432 -0.102264
1.665112 0.944763 -0.512979
1.664580 0.944077 -0.441804
1.668604 0.945974 -0.372841
1.679073 0.951522 -0.305673
1.694239 0.960117 -0.239108
1.679833 0.951566 -0.168908
1.692795 0.958518 -0.101950
1.670123 0.943756 -0.514015
1.669618 0.943087 -0.442704
1.670252 0.943061 -0.372841
1.680731 0.948590 -0.305673
1.688998 0.953255 -0.238133
1.683226 0.949611 -0.169082
1.711862 0.965373 -0.102997
1.670084 0.939892 -0.513497
1.674658 0.942083 -0.443603
1.663340 0.935332 -0.370933
1.685828 0.947591 -0.306299
1.690659 0.950306 -0.238133
1.683144 0.945696 -0.168908
1.703096 0.956515 -0.102369
1.668351 0.935088 -0.512462
1.679701 0.941063 -0.444503
1.671821 0.936265 -0.372459
1.682144 0.942046 -0.305360
1.695779 0.949294 -0.238620
1.677837 0.938865 -0.168211
1.713478 0.958416 -0.102893
1.668294 0.931232 -0.511944
1.674370 0.934624 -0.442704
1.678433 0.936508 -0.373604
1.682061 0.938146 -0.305047
1.707836 0.952132 -0.240083
1.681050 0.937199 -0.168385
1.706259 0.950862 -0.102369
1.673131 0.930488 -0.512979
1.672592 0.929807 -0.441804
1.678349 0.932623 -0.373222
1.683695 0.935210 -0.305047
1.700653 0.944629 -0.238864
1.686167 0.936198 -0.168734
1.704423 0.945944 -0.102160
1.683202 0.932247 -0.515568
1.677623 0.928773 -0.442704
1.681692 0.930643 -0.373604
1.690510 0.935138 -0.305986
1.697088 0.938777 -0.238133
1.693030 0.936145 -0.169256
1.711316 0.945866 -0.102474
1.679752 0.926508 -0.514015
1.682654 0.927726 -0.443603
1.674716 0.922969 -0.371696
1.700791 0.936952 -0.307550
1.705679 0.939644 -0.239108
1.689425 0.930306 -0.168734
1.714713 0.943842 -0.102578
1.677980 0.921715 -0.512979
1.691103 0.928540 -0.445403
1.679767 0.921933 -0.372459
1.690301 0.927331 -0.305360
1.709057 0.937621 -0.239351
1.692793 0.928315 -0.168908
1.721612 0.943727 -0.102893
1.682976 0.920639 -0.514015
1.684172 0.920912 -0.443154
1.691710 0.924650 -0.374749
1.690184 0.923432 -0.305047
1.717659 0.938443 -0.240326
1.699656 0.928223 -0.169431
1.717997 0.937850 -0.102578
1.687973 0.919549 -0.515050
1.685777 0.917971 -0.443154
1.693321 0.921695 -0.374749
1.696998 0.923314 -0.305986
1.708832 0.929752 -0.238864
1.697773 0.923352 -0.169082
1.714368 0.931988 -0.102264
1.692971 0.918444 -0.516085
1.690803 0.916885 -0.444053
1.684571 0.913126 -0.372459
1.698606 0.920351 -0.305986
1.712197 0.927714 -0.239108
1.709894 0.926079 -0.170128
1.719504 0.930896 -0.102474
1.694572 0.915487 -0.516085
1.692401 0.913933 -0.444053
1.689617 0.912050 -0.373222
1.708903 0.922074 -0.307550
1.715561 0.925666 -0.239351
1.702740 0.918365 -0.169256
1.726400 0.930738 -0.102788
1.689362 0.908868 -0.514015
1.702574 0.915593 -0.446303
1.696395 0.911888 -0.374367
1.703549 0.915350 -0.306299
1.718922 0.923611 -0.239595
1.699074 0.912564 -0.168734
1.728022 0.927723 -0.102788
1.694352 0.907742 -0.515050
1.695580 0.908020 -0.444053
1.691060 0.905219 -0.372841
1.701661 0.910511 -0.305673
1.725783 0.923418 -0.240326
1.705935 0.912416 -0.169256
1.727877 0.923764 -0.102683
1.704455 0.909331 -0.517638
1.697163 0.905059 -0.444053
1.701300 0.906883 -0.374749
1.706734 0.909399 -0.306299
1.723888 0.918539 -0.239839
1.712800 0.912247 -0.169779
1.724198 0.917931 -0.102369
1.706040 0.906355 -0.517638
1.702182 0.903923 -0.444953
1.701146 0.902993 -0.374367
1.710063 0.907344 -0.306612
1.718474 0.911807 -0.238864
1.714390 0.909256 -0.169779
1.732856 0.918662 -0.102788
1.699081 0.898858 -0.515050
1.702034 0.900040 -0.444503
1.697512 0.897270 -0.373222
1.720377 0.908972 -0.308176
1.725328 0.911588 -0.239595
1.714213 0.905332 -0.169605
1.736223 0.916569 -0.102893
1.697229 0.894091 -0.514015
1.708775 0.899792 -0.445853
1.702550 0.896135 -0.373986
1.718465 0.904128 -0.307550
1.725160 0.907651 -0.239351
1.712263 0.900484 -0.169256
1.739588 0.914467 -0.102997
1.707341 0.895614 -0.516603
1.708617 0.895904 -0.445403
1.707589 0.894985 -0.374749
1.714791 0.898377 -0.306612
1.737292 0.910165 -0.240814
1.713832 0.897494 -0.169256
1.737642 0.909577 -0.102788
1.710614 0.893528 -0.517120
1.704996 0.890214 -0.444053
1.705668 0.890186 -0.373986
1.718107 0.896297 -0.306924
1.742398 0.908969 -0.241301
1.722463 0.898186 -0.169954
1.732143 0.902849 -0.102369
1.717313 0.893215 -0.518673
1.713463 0.890833 -0.445853
1.714187 0.890830 -0.375512
1.726681 0.896939 -0.308176
1.733412 0.900436 -0.239839
1.724028 0.895179 -0.169954
1.742580 0.904426 -0.102893
1.713722 0.887551 -0.517120
1.718477 0.889633 -0.446753
1.712252 0.886032 -0.374749
1.728244 0.893924 -0.308176
1.731455 0.895585 -0.239351
1.723818 0.891253 -0.169779
1.740607 0.899549 -0.102683
1.711835 0.882788 -0.516085
1.720027 0.886632 -0.446753
1.710305 0.881243 -0.373986
1.726289 0.889098 -0.307550
1.743604 0.898015 -0.240814
1.721828 0.886420 -0.169431
1.751054 0.901079 -0.103207
1.711655 0.878916 -0.515568
1.723305 0.884519 -0.447203
1.720575 0.882737 -0.375894
1.722565 0.883379 -0.306612
1.755767 0.900405 -0.242276
1.726918 0.885231 -0.169779
1.745514 0.894378 -0.102788
1.721786 0.880325 -0.518156
1.716170 0.877075 -0.444953
1.725610 0.881519 -0.376657
1.729382 0.883067 -0.307550
1.748495 0.892827 -0.241058
1.732010 0.884027 -0.170128
1.743514 0.889515 -0.102578
1.726763 0.879071 -0.519191
1.724646 0.877614 -0.446753
1.718396 0.874057 -0.374749
1.734443 0.881837 -0.308176
1.750051 0.889773 -0.241058
1.737102 0.882808 -0.170477
1.753967 0.890994 -0.103102
1.721402 0.872562 -0.517120
1.729652 0.876363 -0.447653
1.725173 0.873717 -0.375894
1.737588 0.880004 -0.308489
1.740975 0.881338 -0.239595
1.735085 0.877975 -0.170128
1.753737 0.887030 -0.102997
1.719474 0.867815 -0.516085
1.737985 0.877158 -0.449452
1.726544 0.871006 -0.375894
1.733829 0.874302 -0.307550
1.758465 0.886339 -0.241789
1.729346 0.871662 -0.169431
1.762263 0.887869 -0.103416
1.724287 0.866849 -0.517120
1.734289 0.871498 -0.448103
1.733324 0.870635 -0.377039
1.733588 0.870388 -0.307237
1.754533 0.880903 -0.241058
1.737987 0.872217 -0.170128
1.760239 0.883001 -0.103207
1.729252 0.865567 -0.518156
1.732322 0.866727 -0.447203
1.731330 0.865852 -0.376275
1.738638 0.869127 -0.307863
1.763170 0.881391 -0.242033
1.744853 0.871855 -0.170651
1.758204 0.878142 -0.102997
1.734217 0.864272 -0.519191
1.735577 0.864570 -0.447653
1.734595 0.863704 -0.376657
1.741920 0.866973 -0.308176
1.755819 0.873890 -0.240814
1.751724 0.871470 -0.171174
1.759734 0.875072 -0.102997
1.728802 0.857809 -0.517120
1.738828 0.862406 -0.448103
1.730824 0.858058 -0.375512
1.754051 0.869193 -0.310053
1.766235 0.875231 -0.242033
1.740744 0.862221 -0.169954
1.764839 0.873771 -0.103207
1.733760 0.856502 -0.518156
1.749068 0.863683 -0.450352
1.737599 0.857644 -0.376657
1.746708 0.861761 -0.308489
1.762420 0.869512 -0.241301
1.738673 0.857418 -0.169605
1.769944 0.872456 -0.103416
1.738720 0.855179 -0.519191
1.743577 0.857190 -0.448552
1.742618 0.856342 -0.377420
1.742890 0.856097 -0.307550
1.778189 0.873436 -0.243251
1.749109 0.858773 -0.170477
1.764292 0.865846 -0.102997
1.740209 0.852143 -0.519191
1.741570 0.852434 -0.447653
1.742347 0.852436 -0.377039
1.749705 0.855658 -0.308489
1.763661 0.862482 -0.241058
1.748815 0.854845 -0.170302
1.769390 0.864519 -0.103207
1.745167 0.850798 -0.520226
1.736048 0.845977 -0.445853
1.740301 0.847674 -0.376275
1.758300 0.856062 -0.309740
1.766948 0.860272 -0.241301
1.752096 0.852663 -0.170477
1.767304 0.859682 -0.102997
1.744911 0.846908 -0.519709
1.751548 0.849751 -0.449452
1.738246 0.842922 -0.375512
1.763347 0.854715 -0.310366
1.777378 0.861516 -0.242520
1.755375 0.850472 -0.170651
1.775992 0.860078 -0.103416
1.742908 0.842180 -0.518673
1.751274 0.845845 -0.449002
1.752090 0.845863 -0.378183
1.759498 0.849061 -0.309427
1.775304 0.856688 -0.242033
1.749678 0.843944 -0.169954
1.782887 0.859580 -0.103730
1.746116 0.839974 -0.519191
1.754504 0.843631 -0.449452
1.750024 0.841102 -0.377420
1.759197 0.845133 -0.309115
1.789322 0.859604 -0.243739
1.752945 0.841752 -0.170128
1.778983 0.853874 -0.103416
1.752806 0.839428 -0.520744
1.745427 0.835520 -0.446753
1.755032 0.839741 -0.378183
1.758888 0.841209 -0.308802
1.774702 0.848772 -0.241545
1.763399 0.842988 -0.171000
1.773262 0.847323 -0.102997
1.759500 0.838862 -0.522297
1.748642 0.833310 -0.447203
1.756495 0.836677 -0.378183
1.767340 0.841843 -0.310053
1.781557 0.848233 -0.242276
1.763068 0.839053 -0.170825
1.781953 0.847659 -0.103416
1.760962 0.835790 -0.522297
1.751709 0.831399 -0.447653
1.750712 0.830551 -0.376657
1.774162 0.841295 -0.310992
1.775860 0.841722 -0.241301
1.760783 0.834576 -0.170477
1.786892 0.846569 -0.103625
1.755286 0.829721 -0.520226
1.763729 0.833335 -0.450352
1.752159 0.827493 -0.376657
1.773841 0.837355 -0.310679
1.791541 0.845711 -0.243251
1.765841 0.833201 -0.170825
1.788367 0.843449 -0.103625
1.765471 0.830768 -0.522814
1.756364 0.826108 -0.448103
1.778474 0.836128 -0.382000
1.768149 0.830897 -0.309427
1.791218 0.841738 -0.243007
1.770899 0.831812 -0.171174
1.789836 0.840326 -0.103625
1.770418 0.829324 -0.523850
1.757803 0.823041 -0.448103
1.787043 0.836352 -0.383526
1.778542 0.831995 -0.310992
1.789234 0.836616 -0.242520
1.779568 0.832096 -0.171871
1.791300 0.837201 -0.103625
1.779010 0.829189 -0.525920
1.759237 0.819972 -0.448103
1.763586 0.821625 -0.378183
1.790736 0.833893 -0.312869
1.792491 0.834330 -0.242764
1.781162 0.828678 -0.171871
1.792904 0.833761 -0.103625
1.769940 0.821204 -0.522814
1.767879 0.819872 -0.449902
1.779410 0.824842 -0.381236
1.792334 0.830454 -0.312869
1.797547 0.832869 -0.243251
1.775374 0.822219 -0.171174
1.794357 0.830630 -0.103625
1.764356 0.814873 -0.520744
1.774616 0.819236 -0.451252
1.789759 0.825849 -0.383144
1.793781 0.827324 -0.312869
1.795393 0.828067 -0.242764
1.773187 0.817451 -0.170825
1.799431 0.829169 -0.103835
1.776307 0.816634 -0.523850
1.786667 0.821020 -0.453951
1.782278 0.818626 -0.381236
1.784307 0.819558 -0.310992
1.809463 0.830730 -0.244470
1.785476 0.819341 -0.171871
1.797245 0.824362 -0.103625
1.781243 0.815141 -0.524885
1.763146 0.806860 -0.447653
1.801415 0.823992 -0.385053
1.794718 0.820550 -0.312556
1.798272 0.821795 -0.242764
1.786762 0.816534 -0.171871
1.802171 0.823197 -0.103835
1.786037 0.813944 -0.525920
1.787606 0.814283 -0.453501
1.793916 0.816779 -0.383144
1.797945 0.818234 -0.312869
1.808595 0.823080 -0.243982
1.799065 0.818365 -0.172917
1.801787 0.819224 -0.103730
1.787455 0.810825 -0.525920
1.781925 0.807943 -0.451702
1.791763 0.812026 -0.382381
1.806568 0.818355 -0.314120
1.811837 0.820742 -0.244226
1.789600 0.810294 -0.171871
1.812312 0.820195 -0.104253
1.785345 0.806115 -0.524885
1.806424 0.815252 -0.457550
1.794967 0.809705 -0.382763
1.793587 0.808706 -0.311617
1.811456 0.816763 -0.243982
1.787379 0.805531 -0.171522
1.817383 0.818671 -0.104463
1.790274 0.804581 -0.525920
1.777624 0.798523 -0.449902
1.799960 0.808178 -0.383526
1.798600 0.807192 -0.312243
1.816501 0.815226 -0.244470
1.788782 0.802410 -0.171522
1.809697 0.811412 -0.103939
1.795202 0.803033 -0.526956
1.796806 0.803373 -0.454401
1.801367 0.805036 -0.383526
1.800006 0.804051 -0.312243
1.807047 0.807196 -0.243007
1.795638 0.801723 -0.172045
1.811110 0.808253 -0.103939
1.800131 0.801470 -0.527991
1.789303 0.796275 -0.452152
1.802769 0.801891 -0.383526
1.808627 0.804118 -0.313495
1.808453 0.804041 -0.243007
1.804317 0.801826 -0.172743
1.816168 0.806713 -0.104149
1.794462 0.795196 -0.525920
1.799599 0.797098 -0.454401
1.793396 0.793975 -0.381236
1.810028 0.800960 -0.313495
1.808038 0.800080 -0.242764
1.796603 0.794646 -0.171871
1.817574 0.803541 -0.104149
1.792312 0.790505 -0.524885
1.808120 0.797099 -0.456201
1.803761 0.794802 -0.383144
1.809615 0.797005 -0.313182
1.813065 0.798524 -0.243251
1.796164 0.790706 -0.171697
1.820802 0.801172 -0.104253
1.800765 0.790481 -0.526956
1.800586 0.790027 -0.453951
1.801550 0.790075 -0.382381
1.807385 0.792259 -0.312556
1.818092 0.796952 -0.243739
1.803016 0.789968 -0.172220
1.829515 0.801197 -0.104672
1.800372 0.786564 -0.526438
1.784103 0.779084 -0.449452
1.793929 0.783003 -0.380473
1.805144 0.787523 -0.311930
1.817661 0.792984 -0.243495
1.800740 0.785227 -0.171871
1.819925 0.793216 -0.104044
1.797971 0.781408 -0.452602
1.813300 0.787694 -0.384289
1.811951 0.786731 -0.312869
1.813580 0.787438 -0.242764
1.814901 0.787636 -0.173091
1.819474 0.789244 -0.103939
1.827949 0.790647 -0.459800
1.836297 0.793876 -0.388869
1.831852 0.790816 -0.104567
1.852107 0.796877 -0.391922
1.449443 1.214935 -0.506768
1.660291 0.895470 -0.435505
1.446250 1.203689 -0.504180
1.453114 1.208971 -0.436405
1.455093 1.210188 -0.367880
1.461040 1.215134 -0.300980
1.473017 1.224662 -0.235208
1.444937 1.200889 -0.164376
1.487085 1.235479 -0.101322
1.445375 1.198696 -0.503144
1.452011 1.204199 -0.435505
1.458503 1.209154 -0.368261
1.467721 1.216364 -0.301919
1.481268 1.227154 -0.236183
1.448356 1.199889 -0.164550
1.479794 1.225498 -0.100694
1.451723 1.200117 -0.504697
1.452608 1.200422 -0.435055
1.462125 1.207857 -0.368643
1.472888 1.216316 -0.302544
1.478601 1.221034 -0.235452
1.470422 1.213848 -0.166816
1.478850 1.220371 -0.100485
1.465744 1.207408 -0.508838
1.456205 1.199124 -0.435505
1.456652 1.199065 -0.366735
1.468907 1.208723 -0.301293
1.482263 1.219713 -0.235695
1.472538 1.211280 -0.166816
1.480978 1.217788 -0.100485
1.458890 1.197493 -0.505732
1.461309 1.199052 -0.436405
1.461778 1.199011 -0.367498
1.475598 1.209914 -0.302231
1.481320 1.214606 -0.235208
1.463864 1.199867 -0.165596
1.483100 1.215202 -0.100485
1.456492 1.191276 -0.504180
1.467925 1.200201 -0.437755
1.465389 1.197699 -0.367880
1.476177 1.206087 -0.301919
1.486512 1.214531 -0.235695
1.467499 1.198571 -0.165770
1.491408 1.217664 -0.100904
1.464559 1.193614 -0.506250
1.465486 1.193944 -0.436405
1.470521 1.197620 -0.368643
1.470620 1.197273 -0.300354
1.494787 1.216948 -0.236670
1.469589 1.196007 -0.165770
1.487334 1.210017 -0.100485
1.465140 1.189838 -0.505732
1.458490 1.184015 -0.433706
1.474134 1.196288 -0.369025
1.480378 1.200927 -0.301919
1.490742 1.209335 -0.235695
1.457746 1.182146 -0.164201
1.487892 1.206161 -0.100380
1.473221 1.192141 -0.507803
1.465100 1.185144 -0.435055
1.473166 1.191245 -0.368261
1.482471 1.198342 -0.301919
1.488219 1.202988 -0.234964
1.476855 1.193374 -0.166119
1.493102 1.206073 -0.100590
1.470789 1.185929 -0.506250
1.468683 1.183808 -0.435505
1.470657 1.184977 -0.367117
1.486100 1.196991 -0.302231
1.488771 1.199143 -0.234720
1.471176 1.184547 -0.165247
1.498316 1.205970 -0.100799
1.465326 1.177311 -0.503662
1.476824 1.186125 -0.437305
1.475785 1.184866 -0.367880
1.482024 1.189450 -0.300980
1.493958 1.199028 -0.235208
1.468578 1.178238 -0.164724
1.505093 1.207102 -0.101113
1.468887 1.175958 -0.504180
1.475849 1.181110 -0.436405
1.480916 1.184742 -0.368643
1.479470 1.183160 -0.300041
1.502250 1.201377 -0.236183
1.479970 1.183137 -0.165770
1.496276 1.195745 -0.100380
1.475467 1.177008 -0.505732
1.470290 1.172458 -0.434156
1.487588 1.185826 -0.369788
1.481532 1.180577 -0.300041
1.501239 1.196280 -0.235695
1.491383 1.188001 -0.166816
1.495236 1.190643 -0.100171
1.480544 1.176835 -0.506768
1.476912 1.173526 -0.435505
1.481968 1.177123 -0.367880
1.492872 1.185360 -0.301919
1.493996 1.186252 -0.234233
1.490333 1.182918 -0.166467
1.502006 1.191756 -0.100485
1.484110 1.175448 -0.507285
1.478957 1.170947 -0.435505
1.480941 1.172098 -0.367117
1.496489 1.183977 -0.302231
1.505406 1.191032 -0.235695
1.464267 1.158069 -0.163330
1.504083 1.189133 -0.100485
1.472511 1.162085 -0.502627
1.487118 1.173193 -0.437305
1.486068 1.171943 -0.367880
1.497001 1.180141 -0.301919
1.507482 1.188403 -0.235695
1.478804 1.165378 -0.164724
1.510863 1.190214 -0.100799
1.482131 1.165483 -0.505215
1.487632 1.169390 -0.436855
1.491199 1.171773 -0.368643
1.491292 1.171425 -0.300354
1.512676 1.188222 -0.236183
1.496506 1.175099 -0.166467
1.508225 1.183876 -0.100485
1.485682 1.164087 -0.505732
1.478931 1.158381 -0.433706
1.496334 1.171589 -0.369406
1.494889 1.170038 -0.300667
1.514747 1.185581 -0.236183
1.496986 1.171258 -0.166293
1.503996 1.176319 -0.100066
1.493803 1.166248 -0.507803
1.488632 1.161792 -0.435955
1.492184 1.164146 -0.367880
1.503160 1.172287 -0.301919
1.504291 1.173169 -0.234233
1.500599 1.169868 -0.166467
1.512348 1.178603 -0.100485
1.492787 1.161266 -0.506768
1.490658 1.159192 -0.435955
1.491113 1.159130 -0.367117
1.513003 1.175722 -0.303483
1.509472 1.172978 -0.234720
1.502639 1.167247 -0.166467
1.517558 1.178412 -0.100694
1.487177 1.152741 -0.504180
1.495759 1.158976 -0.436855
1.499343 1.161334 -0.368643
1.507243 1.167032 -0.301919
1.514656 1.172772 -0.235208
1.504673 1.164623 -0.166467
1.529090 1.183095 -0.101322
1.490716 1.151324 -0.504697
1.490067 1.150410 -0.434605
1.501367 1.158716 -0.368643
1.504586 1.160780 -0.300980
1.522988 1.174977 -0.236183
1.505126 1.160779 -0.166293
1.516917 1.169449 -0.100380
1.501908 1.155791 -0.507803
1.495162 1.150184 -0.435505
1.504944 1.157290 -0.369025
1.509741 1.160560 -0.301606
1.518740 1.167478 -0.235208
1.513469 1.163006 -0.166990
1.522124 1.169233 -0.100590
1.506990 1.155518 -0.508838
1.500261 1.149943 -0.436405
1.505403 1.153468 -0.368643
1.513333 1.159124 -0.301919
1.520776 1.164825 -0.235208
1.518661 1.162785 -0.167339
1.525748 1.167789 -0.100694
1.504399 1.149368 -0.507285
1.503814 1.148506 -0.436855
1.504293 1.148456 -0.367880
1.520064 1.160077 -0.302857
1.525963 1.164578 -0.235695
1.514351 1.155298 -0.166642
1.529372 1.166335 -0.100799
1.500254 1.142060 -0.505215
1.505816 1.145879 -0.436855
1.506295 1.145829 -0.367880
1.517370 1.153835 -0.301919
1.527993 1.161913 -0.235695
1.510021 1.147831 -0.165945
1.537766 1.168498 -0.101218
1.505324 1.141774 -0.506250
1.510919 1.145604 -0.437755
1.511422 1.145570 -0.368643
1.514658 1.147606 -0.300980
1.536348 1.164039 -0.236670
1.516786 1.148803 -0.166467
1.533433 1.160990 -0.100799
1.510396 1.141476 -0.507285
1.502033 1.134742 -0.434605
1.516553 1.145296 -0.369406
1.516658 1.144961 -0.300980
1.532039 1.156573 -0.235695
1.515609 1.143753 -0.166119
1.537052 1.159514 -0.100904
1.515473 1.141161 -0.508321
1.508682 1.135635 -0.435955
1.516980 1.141468 -0.369025
1.518654 1.142312 -0.300980
1.527710 1.149123 -0.234720
1.517603 1.141106 -0.166119
1.537477 1.155630 -0.100799
1.508190 1.131558 -0.505215
1.516897 1.137677 -0.437755
1.511116 1.132930 -0.367117
1.526968 1.144398 -0.302231
1.536067 1.151217 -0.235695
1.516403 1.136067 -0.165770
1.539492 1.152945 -0.100799
1.510163 1.128925 -0.505215
1.525125 1.139694 -0.439554
1.516237 1.132640 -0.367880
1.524216 1.138185 -0.301293
1.538075 1.148534 -0.235695
1.516787 1.132227 -0.165596
1.546303 1.153840 -0.101113
1.518328 1.130903 -0.507285
1.520859 1.132376 -0.437755
1.521361 1.132336 -0.368643
1.527785 1.136703 -0.301606
1.540077 1.145848 -0.235695
1.520359 1.130767 -0.165770
1.543507 1.147564 -0.100799
1.517197 1.125949 -0.506250
1.515008 1.123914 -0.435505
1.526489 1.132018 -0.369406
1.531352 1.135212 -0.301919
1.538884 1.140795 -0.235208
1.525532 1.130483 -0.166119
1.537483 1.138924 -0.100276
1.523820 1.126745 -0.507803
1.524803 1.127060 -0.437755
1.526883 1.128187 -0.369025
1.538099 1.136058 -0.302857
1.540873 1.138107 -0.235208
1.530708 1.130186 -0.166467
1.544289 1.139797 -0.100590
1.524229 1.122938 -0.507285
1.525199 1.123241 -0.437305
1.519364 1.118536 -0.366735
1.540079 1.133371 -0.302857
1.549252 1.140122 -0.236183
1.531074 1.126332 -0.166293
1.549494 1.139467 -0.100799
1.519957 1.115703 -0.505215
1.530299 1.122884 -0.438205
1.529229 1.121688 -0.368643
1.538869 1.128345 -0.302231
1.551240 1.137416 -0.236183
1.523395 1.116592 -0.165247
1.564369 1.146204 -0.101636
1.525021 1.115329 -0.506250
1.527537 1.116761 -0.436855
1.531185 1.119017 -0.368643
1.534456 1.120997 -0.300980
1.559635 1.139391 -0.237158
1.536605 1.122156 -0.166467
1.558302 1.137583 -0.101113
1.530087 1.114942 -0.507285
1.524758 1.110650 -0.435505
1.541071 1.122121 -0.370551
1.545992 1.125293 -0.302857
1.548781 1.127323 -0.235208
1.535339 1.117128 -0.166119
1.552209 1.128988 -0.100590
1.539848 1.117944 -0.509874
1.531426 1.111421 -0.436855
1.536670 1.114819 -0.369025
1.544756 1.120273 -0.302231
1.557174 1.129279 -0.236183
1.540513 1.116785 -0.166467
1.557412 1.128621 -0.100799
1.535535 1.110726 -0.507803
1.531784 1.107605 -0.436405
1.537023 1.110985 -0.368643
1.548310 1.118732 -0.302544
1.552707 1.121909 -0.235208
1.537614 1.110595 -0.165945
1.562617 1.128240 -0.101008
1.529636 1.102396 -0.505215
1.541620 1.110626 -0.438655
1.535773 1.106006 -0.367880
1.545451 1.112565 -0.301606
1.567551 1.128475 -0.237158
1.531464 1.102091 -0.165073
1.575933 1.133675 -0.101741
1.531557 1.099725 -0.505215
1.540390 1.105661 -0.437755
1.545677 1.109046 -0.369788
1.544180 1.107563 -0.300980
1.566292 1.123424 -0.236670
1.543100 1.106383 -0.166119
1.563300 1.120451 -0.100799
1.538187 1.100423 -0.506768
1.535977 1.098436 -0.435955
1.549207 1.107489 -0.370169
1.552538 1.109462 -0.302231
1.561789 1.116073 -0.235695
1.543408 1.102529 -0.165945
1.565253 1.117721 -0.100799
1.544825 1.101100 -0.508321
1.539479 1.096884 -0.436405
1.544741 1.100227 -0.368643
1.554473 1.106750 -0.302231
1.557267 1.108739 -0.234720
1.563186 1.112542 -0.167862
1.572084 1.118460 -0.101113
1.543594 1.096165 -0.507285
1.549337 1.099835 -0.438655
1.543457 1.095258 -0.367880
1.562653 1.108879 -0.303483
1.572152 1.115208 -0.236670
1.552123 1.100592 -0.166467
1.570774 1.113406 -0.100904
1.540774 1.090122 -0.505732
1.551062 1.097400 -0.438655
1.545175 1.092832 -0.367880
1.558134 1.101589 -0.302231
1.567613 1.107879 -0.235695
1.542461 1.090103 -0.165247
1.577415 1.114395 -0.101218
1.544064 1.088813 -0.506250
1.551383 1.093569 -0.438205
1.556710 1.096918 -0.370169
1.553404 1.094588 -0.300980
1.579088 1.112274 -0.237158
1.552506 1.093145 -0.166119
1.579357 1.111639 -0.101218
1.549123 1.088338 -0.507285
1.545125 1.085530 -0.435955
1.561644 1.096728 -0.370933
1.558545 1.094146 -0.301606
1.574527 1.104955 -0.236183
1.564007 1.097572 -0.167165
1.572926 1.103422 -0.100694
1.555768 1.088956 -0.508838
1.545610 1.081444 -0.435505
1.555703 1.088102 -0.369025
1.570356 1.097943 -0.303483
1.566692 1.095381 -0.234720
1.566111 1.094568 -0.167165
1.583228 1.106120 -0.101218
1.551328 1.081819 -0.506768
1.555488 1.084317 -0.437755
1.555989 1.084262 -0.368643
1.572270 1.095201 -0.303483
1.571859 1.094914 -0.235208
1.554938 1.082724 -0.165770
1.581878 1.101072 -0.101008
1.546868 1.074700 -0.504697
1.560580 1.083823 -0.438655
1.559491 1.082665 -0.369025
1.569311 1.089076 -0.302544
1.583553 1.098959 -0.236670
1.563374 1.084551 -0.166467
1.588720 1.101725 -0.101322
1.556683 1.077497 -0.507285
1.559264 1.078881 -0.437755
1.561379 1.079941 -0.369025
1.563085 1.080718 -0.300980
1.582203 1.093936 -0.236183
1.561986 1.079555 -0.166119
1.580782 1.092138 -0.100694
1.558561 1.074778 -0.507285
1.561144 1.076158 -0.437755
1.568111 1.080556 -0.370169
1.571476 1.082471 -0.302231
1.587379 1.093425 -0.236670
1.570432 1.081347 -0.166816
1.572814 1.082583 -0.100066
1.568396 1.077526 -0.509874
1.556595 1.069018 -0.435955
1.568377 1.076706 -0.369788
1.573363 1.079727 -0.302231
1.576191 1.081667 -0.234720
1.572317 1.078605 -0.166816
1.592821 1.092261 -0.101218
1.563897 1.070423 -0.507803
1.568108 1.072902 -0.438655
1.563771 1.069534 -0.368261
1.581768 1.081439 -0.303483
1.584631 1.083396 -0.235695
1.570907 1.073610 -0.166467
1.594724 1.089479 -0.101218
1.560976 1.064426 -0.506250
1.573199 1.072359 -0.439554
1.568880 1.069015 -0.369025
1.575490 1.073115 -0.301919
1.593083 1.085099 -0.236670
1.572779 1.070867 -0.166467
1.606530 1.093438 -0.101846
1.566027 1.063871 -0.507285
1.571844 1.067422 -0.438655
1.575617 1.069583 -0.370169
1.577361 1.070364 -0.301919
1.594974 1.082317 -0.236670
1.574645 1.068120 -0.166467
1.603477 1.087269 -0.101532
1.572681 1.064384 -0.508838
1.573704 1.064677 -0.438655
1.579107 1.067931 -0.370551
1.580863 1.068715 -0.302231
1.593572 1.077307 -0.236183
1.579808 1.067602 -0.166816
1.593787 1.076643 -0.100799
1.574536 1.061639 -0.508838
1.569096 1.057573 -0.436855
1.576084 1.061882 -0.369406
1.587641 1.069266 -0.303170
1.592343 1.072029 -0.235695
1.588280 1.069294 -0.167513
1.608920 1.082780 -0.101636
1.571760 1.055382 -0.507285
1.574176 1.057005 -0.437755
1.574675 1.056941 -0.368643
1.596066 1.070896 -0.304422
1.600807 1.073671 -0.236670
1.583711 1.061804 -0.166816
1.607677 1.077466 -0.101427
1.570388 1.050490 -0.506250
1.582681 1.058314 -0.439554
1.579966 1.056098 -0.369406
1.593192 1.064537 -0.303483
1.599377 1.068670 -0.236183
1.578934 1.054613 -0.166119
1.619521 1.081312 -0.102055
1.575435 1.049889 -0.507285
1.581282 1.053389 -0.438655
1.583441 1.054428 -0.369788
1.595048 1.061754 -0.303483
1.611155 1.072476 -0.237645
1.587408 1.056270 -0.166816
1.614754 1.074060 -0.101636
1.583702 1.051413 -0.509356
1.579871 1.048472 -0.437755
1.593459 1.057088 -0.371696
1.590313 1.054603 -0.302231
1.603097 1.063081 -0.236183
1.592570 1.055699 -0.167165
1.609967 1.066826 -0.101218
1.587146 1.049713 -0.509874
1.583325 1.046788 -0.438205
1.585473 1.047812 -0.369406
1.597095 1.055092 -0.303170
1.608263 1.062470 -0.236670
1.601061 1.057309 -0.167862
1.616827 1.067316 -0.101532
1.588976 1.046941 -0.509874
1.585149 1.044023 -0.438205
1.582380 1.041804 -0.368261
1.605350 1.056927 -0.304422
1.606799 1.057478 -0.236183
1.599575 1.052323 -0.167513
1.618686 1.064493 -0.101532
1.577880 1.035686 -0.505732
1.594933 1.046878 -0.440454
1.587298 1.041472 -0.369025
1.598934 1.048706 -0.302857
1.615282 1.059026 -0.237158
1.591228 1.043255 -0.166467
1.625368 1.065233 -0.101846
1.587589 1.038494 -0.508321
1.591865 1.040893 -0.439104
1.598973 1.045144 -0.371314
1.599108 1.044834 -0.302544
1.623777 1.060546 -0.238133
1.599720 1.044834 -0.167165
1.618863 1.056935 -0.101322
1.591198 1.036498 -0.508838
1.585514 1.032796 -0.436855
1.600795 1.042352 -0.371314
1.604241 1.044196 -0.303170
1.618969 1.053381 -0.237158
1.595041 1.037416 -0.166467
1.620890 1.053825 -0.101322
1.594625 1.034771 -0.509356
1.597304 1.036112 -0.439554
1.596204 1.035004 -0.369788
1.606060 1.041395 -0.303170
1.614142 1.046235 -0.236183
1.606882 1.041131 -0.167513
1.624403 1.052080 -0.101427
1.594807 1.030937 -0.508838
1.598929 1.033602 -0.439554
1.591232 1.028233 -0.368261
1.609535 1.039662 -0.303483
1.615966 1.043416 -0.236183
1.598473 1.032121 -0.166467
1.627731 1.050610 -0.101532
1.596424 1.028431 -0.508838
1.605646 1.033975 -0.440904
1.599628 1.029705 -0.369788
1.616149 1.040340 -0.304422
1.620941 1.043025 -0.236670
1.603623 1.031485 -0.166816
1.641322 1.055329 -0.102264
1.594965 1.023557 -0.507803
1.603988 1.029347 -0.440004
1.609506 1.032491 -0.371696
1.612973 1.034319 -0.303483
1.632787 1.046622 -0.238133
1.605241 1.028965 -0.166816
1.631207 1.045207 -0.101532
1.603260 1.024933 -0.509874
1.599393 1.022069 -0.438205
1.611485 1.029400 -0.371696
1.608297 1.026967 -0.302231
1.628100 1.039213 -0.237158
1.607213 1.025882 -0.166816
1.628158 1.038851 -0.101218
1.608484 1.023928 -0.510909
1.599530 1.018228 -0.437755
1.609967 1.024477 -0.370933
1.615087 1.027340 -0.303170
1.616510 1.027848 -0.235208
1.619269 1.029206 -0.167862
1.638579 1.041078 -0.101741
1.607005 1.019050 -0.509874
1.608066 1.019329 -0.439554
1.605297 1.017181 -0.369406
1.622063 1.027408 -0.304109
1.628364 1.031399 -0.236670
1.614330 1.022115 -0.167165
1.642081 1.039285 -0.101846
1.603881 1.013149 -0.508321
1.613138 1.018602 -0.440454
1.610390 1.016474 -0.370169
1.622183 1.023522 -0.303796
1.640234 1.034911 -0.238133
1.609370 1.015045 -0.166467
1.647272 1.038548 -0.102055
1.612188 1.014463 -0.510391
1.614913 1.015785 -0.440454
1.613824 1.014706 -0.370551
1.615427 1.015714 -0.302231
1.638677 1.029934 -0.237645
1.617888 1.016474 -0.167165
1.640625 1.030359 -0.101532
1.612319 1.010623 -0.509874
1.609902 1.009108 -0.438655
1.615416 1.012170 -0.370551
1.625568 1.018136 -0.303796
1.637106 1.024966 -0.237158
1.622860 1.016047 -0.167513
1.640548 1.026722 -0.101427
1.618819 1.011159 -0.511426
1.614967 1.008360 -0.439554
1.617180 1.009349 -0.370551
1.629018 1.016344 -0.304109
1.635346 1.020292 -0.236670
1.631393 1.017429 -0.168211
1.644033 1.024914 -0.101532
1.615662 1.005270 -0.509874
1.620034 1.007598 -0.440454
1.615604 1.004452 -0.369788
1.635823 1.016627 -0.305047
1.643868 1.021627 -0.237645
1.619627 1.006169 -0.166816
1.654302 1.027311 -0.102055
1.615771 1.001431 -0.509356
1.630073 1.009900 -0.442704
1.620693 1.003698 -0.370551
1.630877 1.009611 -0.303796
1.645649 1.018756 -0.237645
1.617993 1.001244 -0.166467
1.654394 1.023372 -0.101950
1.615873 0.997594 -0.508838
1.620225 0.999890 -0.439554
1.625784 1.002930 -0.371314
1.630955 1.005726 -0.303483
1.649115 1.016924 -0.237889
1.626522 1.002600 -0.167165
1.652777 1.018387 -0.101741
1.620903 0.996796 -0.509874
1.618647 0.995020 -0.438655
1.629205 1.001118 -0.371696
1.634391 1.003912 -0.303796
1.645812 1.010927 -0.237158
1.635060 1.003931 -0.167862
1.652850 1.014456 -0.101636
1.625934 0.995985 -0.510909
1.625367 0.995246 -0.440004
1.629275 0.997248 -0.371314
1.639510 1.003121 -0.304422
1.640801 1.003910 -0.236183
1.636810 1.001075 -0.167862
1.664842 1.017820 -0.102264
1.626022 0.992139 -0.510391
1.632093 0.995452 -0.441354
1.622632 0.989293 -0.369406
1.641259 1.000257 -0.304422
1.649331 1.005176 -0.237158
1.631749 0.994071 -0.167165
1.663205 1.012835 -0.102055
1.621147 0.985286 -0.508321
1.640490 0.996649 -0.443154
1.627712 0.988498 -0.370169
1.643002 0.997391 -0.304422
1.657870 1.006417 -0.238133
1.630075 0.989153 -0.166816
1.668385 1.012003 -0.102264
1.631128 0.987457 -0.510909
1.630556 0.986722 -0.440004
1.634474 0.988704 -0.371314
1.643050 0.993499 -0.304109
1.663022 1.005576 -0.238620
1.642030 0.992491 -0.167862
1.671858 1.010123 -0.102369
1.626231 0.980618 -0.508838
1.628937 0.981863 -0.439104
1.636198 0.985849 -0.371314
1.644782 0.990630 -0.304109
1.657972 0.998575 -0.237645
1.643759 0.989624 -0.167862
1.661640 0.999994 -0.101636
1.641188 0.985737 -0.512979
1.633990 0.981024 -0.440004
1.637916 0.982992 -0.371314
1.651589 0.990808 -0.305047
1.656308 0.993638 -0.237158
1.648901 0.988803 -0.168211
1.671948 1.002227 -0.102160
1.639591 0.980887 -0.511944
1.644062 0.983172 -0.442254
1.632889 0.976102 -0.369788
1.651621 0.986910 -0.304734
1.664856 0.994818 -0.238133
1.650624 0.985923 -0.168211
1.675410 1.000330 -0.102264
1.634662 0.974068 -0.509874
1.645776 0.980301 -0.442254
1.641337 0.977269 -0.371314
1.653340 0.984026 -0.304734
1.666590 0.991911 -0.238133
1.642069 0.976928 -0.167165
1.673719 0.995364 -0.102055
1.636360 0.971213 -0.509874
1.645808 0.976433 -0.441804
1.644728 0.975405 -0.371696
1.651657 0.979123 -0.304109
1.668319 0.989000 -0.238133
1.647200 0.976092 -0.167513
1.670299 0.989388 -0.101741
1.646368 0.973271 -0.512462
1.642477 0.970584 -0.440454
1.651500 0.975528 -0.372841
1.660168 0.980257 -0.305360
1.670042 0.986087 -0.238133
1.655764 0.977267 -0.168211
1.677184 0.989515 -0.102055
1.653058 0.973337 -0.514015
1.647527 0.969694 -0.441354
1.649816 0.970653 -0.372078
1.656768 0.974354 -0.304422
1.663205 0.978140 -0.236914
1.664337 0.978415 -0.168908
1.680630 0.987598 -0.102160
1.651421 0.968496 -0.512979
1.652579 0.968788 -0.442254
1.643038 0.962808 -0.370169
1.661874 0.973458 -0.305047
1.670048 0.978245 -0.237645
1.666042 0.975509 -0.168908
1.682352 0.984663 -0.102160
1.644768 0.960741 -0.510391
1.662682 0.970814 -0.444503
1.653193 0.964888 -0.372078
1.660158 0.968565 -0.304422
1.675182 0.977330 -0.238133
1.657416 0.966577 -0.167862
1.690969 0.985749 -0.102578
1.651452 0.960782 -0.511944
1.657636 0.963992 -0.442704
1.658270 0.963974 -0.372841
1.658431 0.963681 -0.303796
1.680318 0.976399 -0.238620
1.665992 0.967685 -0.168559
1.682324 0.976779 -0.101950
1.654798 0.958867 -0.512462
1.654257 0.958168 -0.441354
1.661649 0.962062 -0.373222
1.663530 0.962764 -0.304422
1.675147 0.969487 -0.237645
1.664229 0.962781 -0.168211
1.685755 0.974841 -0.102055
1.659815 0.957909 -0.513497
1.659302 0.957227 -0.442254
1.656522 0.955238 -0.371696
1.672053 0.963805 -0.305673
1.680277 0.968545 -0.238133
1.672812 0.963854 -0.168908
1.694377 0.975885 -0.102474
1.656460 0.952123 -0.511944
1.660971 0.954329 -0.442254
1.661592 0.954300 -0.372459
1.677159 0.962852 -0.306299
1.681964 0.965611 -0.238133
1.667580 0.956965 -0.168211
1.699543 0.974913 -0.102683
1.651413 0.945391 -0.509874
1.666017 0.953365 -0.443154
1.663255 0.951400 -0.372459
1.671978 0.956001 -0.305047
1.683647 0.962674 -0.238133
1.669248 0.954054 -0.168211
1.701241 0.971946 -0.102683
1.656417 0.944421 -0.510909
1.671064 0.952385 -0.444053
1.661501 0.946551 -0.371696
1.673643 0.953082 -0.305047
1.693950 0.964645 -0.239351
1.670910 0.951139 -0.168211
1.701199 0.967987 -0.102578
1.668142 0.947252 -0.514015
1.665945 0.945620 -0.442254
1.675104 0.950432 -0.374367
1.678741 0.952108 -0.305673
1.690451 0.958750 -0.238620
1.679500 0.952152 -0.168908
1.695935 0.961078 -0.102160
1.673156 0.946241 -0.515050
1.664200 0.940793 -0.441354
1.673342 0.945575 -0.373604
1.680400 0.949177 -0.305673
1.688665 0.953845 -0.238133
1.684629 0.951178 -0.169256
1.699350 0.959098 -0.102264
1.666389 0.938580 -0.512462
1.674330 0.942666 -0.443603
1.668146 0.938801 -0.372078
1.687053 0.949442 -0.306612
1.693787 0.952843 -0.238620
1.679341 0.944330 -0.168559
1.706244 0.959066 -0.102578
1.666340 0.934724 -0.511944
1.674109 0.939082 -0.443154
1.671331 0.937140 -0.372459
1.681815 0.942634 -0.305360
1.695448 0.949885 -0.238620
1.677346 0.939743 -0.168211
1.712976 0.959313 -0.102893
1.669492 0.933048 -0.512462
1.675745 0.936159 -0.443154
1.676392 0.936136 -0.373222
1.678283 0.936808 -0.304422
1.700404 0.949156 -0.239108
1.678983 0.936814 -0.168211
1.711160 0.954375 -0.102683
1.677870 0.933891 -0.514532
1.672268 0.930390 -0.441804
1.683171 0.936072 -0.374367
1.681642 0.934838 -0.304734
1.702058 0.946187 -0.239108
1.689324 0.938721 -0.169082
1.711076 0.950419 -0.102578
1.676119 0.929087 -0.513497
1.677298 0.929359 -0.442704
1.677932 0.929328 -0.372841
1.690184 0.935728 -0.305986
1.696761 0.939368 -0.238133
1.694446 0.937701 -0.169431
1.710985 0.946464 -0.102474
1.679429 0.927094 -0.514015
1.680624 0.927372 -0.443154
1.679552 0.926397 -0.372841
1.697004 0.935638 -0.306924
1.707089 0.941198 -0.239351
1.690845 0.931858 -0.168908
1.717883 0.946367 -0.102788
1.677658 0.922301 -0.512979
1.687364 0.927253 -0.444503
1.681166 0.923465 -0.372841
1.695171 0.930774 -0.306299
1.713949 0.941084 -0.240083
1.688976 0.926987 -0.168559
1.723034 0.945289 -0.102997
1.679266 0.919371 -0.512979
1.690689 0.925242 -0.444953
1.691387 0.925240 -0.374749
1.695060 0.926866 -0.305986
1.717331 0.939043 -0.240326
1.694087 0.925950 -0.168908
1.721176 0.940364 -0.102788
1.685956 0.919213 -0.514532
1.683746 0.917626 -0.442704
1.696447 0.924166 -0.375512
1.696675 0.923906 -0.305986
1.713737 0.933197 -0.239595
1.702701 0.926801 -0.169605
1.722814 0.937360 -0.102788
1.687558 0.916269 -0.514532
1.683632 0.913758 -0.442254
1.696332 0.920267 -0.375131
1.698286 0.920943 -0.305986
1.706638 0.925472 -0.238376
1.699061 0.920980 -0.169082
1.722691 0.933400 -0.102683
1.690854 0.914241 -0.515050
1.692081 0.914524 -0.444053
1.687572 0.911706 -0.372841
1.708581 0.922670 -0.307550
1.715238 0.926265 -0.239351
1.700665 0.918014 -0.169082
1.726076 0.931340 -0.102788
1.687343 0.908542 -0.513497
1.700539 0.915263 -0.445853
1.692618 0.910619 -0.373604
1.701490 0.915009 -0.305986
1.722096 0.926091 -0.240083
1.700510 0.914100 -0.168908
1.732976 0.931162 -0.103102
1.692332 0.907421 -0.514532
1.696981 0.909532 -0.444503
1.697667 0.909517 -0.374367
1.699601 0.910173 -0.305360
1.721960 0.922147 -0.239839
1.705616 0.913011 -0.169256
1.725794 0.923424 -0.102578
1.695617 0.905376 -0.515050
1.693408 0.903816 -0.443154
1.699251 0.906554 -0.374367
1.709902 0.911853 -0.306924
1.718312 0.916338 -0.239108
1.708966 0.910970 -0.169431
1.730928 0.922290 -0.102788
1.704018 0.906042 -0.517120
1.701866 0.904518 -0.444953
1.700830 0.903587 -0.374367
1.711492 0.908867 -0.306924
1.719909 0.913337 -0.239108
1.710553 0.907987 -0.169431
1.730771 0.918332 -0.102683
1.697060 0.898547 -0.514532
1.703442 0.901546 -0.444953
1.693728 0.896026 -0.372459
1.714821 0.906802 -0.307237
1.723255 0.911262 -0.239351
1.710374 0.904068 -0.169256
1.734137 0.916242 -0.102788
1.698626 0.895584 -0.514532
1.715357 0.904023 -0.447653
1.705711 0.898559 -0.374749
1.716401 0.903808 -0.307237
1.728356 0.910103 -0.239839
1.711949 0.901082 -0.169256
1.737501 0.914144 -0.102893
1.707028 0.896210 -0.516603
1.706579 0.895595 -0.444953
1.707277 0.895580 -0.374749
1.707479 0.895307 -0.305360
1.736974 0.910772 -0.240814
1.715284 0.899018 -0.169431
1.742633 0.912963 -0.103102
1.706877 0.892335 -0.516085
1.708140 0.892614 -0.444953
1.715798 0.896236 -0.376275
1.717795 0.896896 -0.306924
1.728003 0.902226 -0.239351
1.722149 0.898787 -0.169954
1.738911 0.907150 -0.102788
1.708433 0.889354 -0.516085
1.711423 0.890532 -0.445403
1.712135 0.890521 -0.375131
1.719358 0.893897 -0.306924
1.729575 0.899209 -0.239351
1.723715 0.895781 -0.169954
1.742264 0.905034 -0.102893
1.711697 0.887260 -0.516603
1.714705 0.888439 -0.445853
1.710200 0.885726 -0.374367
1.731440 0.896344 -0.308802
1.734668 0.898014 -0.239839
1.718198 0.889108 -0.169256
1.740293 0.900156 -0.102683
1.706376 0.880727 -0.514532
1.721449 0.888126 -0.447203
1.711743 0.882740 -0.374367
1.722467 0.887890 -0.306924
1.739761 0.896805 -0.240326
1.721518 0.887021 -0.169431
1.748963 0.900776 -0.103102
1.716502 0.882163 -0.517120
1.724730 0.886010 -0.447653
1.716774 0.881544 -0.375131
1.723860 0.885183 -0.306924
1.755452 0.901019 -0.242276
1.728382 0.886742 -0.169954
1.748756 0.896810 -0.102997
1.718040 0.879165 -0.517120
1.715711 0.877973 -0.444953
1.730392 0.885105 -0.377802
1.727161 0.883073 -0.307237
1.742881 0.890726 -0.240326
1.726224 0.882213 -0.169605
1.746605 0.892245 -0.102788
1.724582 0.879097 -0.518673
1.724186 0.878517 -0.446753
1.719687 0.875848 -0.375131
1.733981 0.882745 -0.308176
1.740895 0.885882 -0.239839
1.733088 0.881910 -0.170128
1.749940 0.890102 -0.102893
1.722820 0.874037 -0.517638
1.720503 0.872861 -0.445403
1.717712 0.871068 -0.374367
1.742566 0.883290 -0.309427
1.745980 0.884636 -0.240326
1.740111 0.881282 -0.170651
1.758773 0.890348 -0.103311
1.720894 0.869287 -0.516603
1.743050 0.880097 -0.450802
1.724639 0.870422 -0.375512
1.738815 0.877577 -0.308489
1.761699 0.888741 -0.242276
1.730972 0.872861 -0.169605
1.765675 0.889973 -0.103625
1.722409 0.866282 -0.516603
1.714834 0.862473 -0.443154
1.724250 0.866830 -0.375131
1.735049 0.871880 -0.307550
1.756152 0.882102 -0.241301
1.735902 0.871930 -0.169954
1.763501 0.885406 -0.103416
1.730677 0.867037 -0.518673
1.726792 0.864713 -0.445853
1.736294 0.869092 -0.377420
1.736568 0.868851 -0.307550
1.750435 0.875789 -0.240326
1.740985 0.870681 -0.170302
1.757898 0.878755 -0.102997
1.735645 0.865739 -0.519709
1.737019 0.866046 -0.448103
1.725508 0.859932 -0.374749
1.741618 0.867580 -0.308176
1.762622 0.878043 -0.241789
1.742502 0.867641 -0.170302
1.759428 0.875687 -0.102997
1.731962 0.860131 -0.518156
1.736782 0.862146 -0.447653
1.730524 0.858663 -0.375512
1.750208 0.868050 -0.309427
1.765930 0.875847 -0.242033
1.747584 0.866367 -0.170651
1.764534 0.874388 -0.103207
1.729998 0.855394 -0.517120
1.745272 0.862568 -0.449452
1.737300 0.858251 -0.376657
1.746407 0.862369 -0.308489
1.762116 0.870127 -0.241301
1.740160 0.858908 -0.169779
1.769639 0.873074 -0.103416
1.734954 0.854080 -0.518156
1.743278 0.857800 -0.448552
1.742319 0.856949 -0.377420
1.747910 0.859320 -0.308489
1.776102 0.873181 -0.243007
1.745233 0.857627 -0.170128
1.767575 0.868222 -0.103207
1.743381 0.854452 -0.520226
1.741272 0.853041 -0.447653
1.743812 0.853907 -0.377420
1.745858 0.854532 -0.307863
1.761576 0.862226 -0.240814
1.752096 0.857206 -0.170651
1.765499 0.863382 -0.102997
1.748342 0.853101 -0.521262
1.737504 0.847438 -0.446303
1.734711 0.845701 -0.375131
1.754301 0.855251 -0.309115
1.764863 0.860019 -0.241058
1.760754 0.857637 -0.171348
1.767004 0.860299 -0.102997
1.746353 0.848361 -0.520226
1.751103 0.850668 -0.449452
1.734272 0.842117 -0.374749
1.762899 0.855638 -0.310366
1.777078 0.862137 -0.242520
1.753137 0.850522 -0.170477
1.775541 0.861008 -0.103416
1.740727 0.842251 -0.518156
1.754339 0.848458 -0.449902
1.751647 0.846780 -0.378183
1.760832 0.850841 -0.309740
1.764280 0.852126 -0.240570
1.752824 0.846593 -0.170302
1.778840 0.858777 -0.103521
1.749304 0.842260 -0.520226
1.754061 0.844551 -0.449452
1.754891 0.844573 -0.378565
1.758755 0.846053 -0.309115
1.785443 0.858508 -0.243251
1.754446 0.843228 -0.170302
1.782286 0.856224 -0.103625
1.750771 0.839205 -0.520226
1.745135 0.836129 -0.446753
1.758280 0.842049 -0.378947
1.762157 0.843528 -0.309427
1.772763 0.848225 -0.241301
1.757713 0.841024 -0.170477
1.769363 0.846219 -0.102788
1.755866 0.837506 -0.521262
1.751868 0.835599 -0.448103
1.752658 0.835600 -0.377420
1.765410 0.841302 -0.309740
1.788578 0.851959 -0.243251
1.771916 0.843643 -0.171697
1.785412 0.849686 -0.103625
1.757034 0.835053 -0.521262
1.761980 0.837027 -0.450352
1.755742 0.833687 -0.377802
1.773868 0.841916 -0.310992
