# This PCD file was generated using the MATLAB® pcwrite function
# from Computer Vision System Toolbox®.
# .PCD v.7 - Point Cloud Data file format
VERSION .7
FIELDS x y z
SIZE 4 4 4
TYPE F F F
COUNT 1 1 1
WIDTH 1663
HEIGHT 1
VIEWPOINT 0 0 0 1 0 0 0
POINTS 1663
DATA ascii
1.262682 -0.223099 0.067199
1.152217 -0.203789 -0.227444
1.279184 -0.226245 0.113651
1.170966 -0.207316 -0.188347
1.186499 -0.210066 -0.147949
1.173167 -0.207917 -0.104238
1.211396 -0.214910 -0.064478
1.236463 -0.219580 -0.021920
1.112585 -0.198382 -0.302818
1.250090 -0.222900 0.022165
1.139542 -0.203394 -0.267242
1.276055 -0.227760 0.067932
1.153792 -0.206145 -0.227826
1.292517 -0.230931 0.114871
1.170603 -0.209359 -0.188347
1.205671 -0.215631 -0.150387
1.174764 -0.210315 -0.104413
1.207087 -0.216319 -0.064269
1.232141 -0.221031 -0.021850
1.119842 -0.201693 -0.304889
1.257571 -0.226499 0.022304
1.137268 -0.205037 -0.266792
1.265827 -0.228214 0.067409
1.155362 -0.208507 -0.228208
1.286230 -0.232125 0.114348
1.174123 -0.212104 -0.188973
1.189665 -0.214912 -0.148437
1.190080 -0.215201 -0.105807
1.202777 -0.217714 -0.064059
1.239624 -0.224607 -0.021990
1.123290 -0.204339 -0.305924
1.261109 -0.229410 0.022374
1.127322 -0.205276 -0.264542
1.249707 -0.227561 0.066571
1.156928 -0.210875 -0.228589
1.313264 -0.239371 0.116789
1.173751 -0.214153 -0.188973
1.183430 -0.215919 -0.147706
1.183822 -0.216204 -0.105284
1.206325 -0.220532 -0.064269
1.229395 -0.224971 -0.021816
1.115331 -0.204903 -0.303854
1.264640 -0.232333 0.022444
1.138462 -0.209358 -0.267242
1.253237 -0.230464 0.066781
1.150766 -0.211828 -0.227444
1.283452 -0.236252 0.114174
1.181146 -0.217633 -0.190224
1.185004 -0.218344 -0.147949
1.187362 -0.218993 -0.105633
1.205938 -0.222637 -0.064269
1.230967 -0.227480 -0.021850
1.107374 -0.205440 -0.301783
1.258334 -0.233446 0.022339
1.126599 -0.209210 -0.264542
1.266579 -0.235204 0.067513
1.156185 -0.214912 -0.228589
1.300667 -0.241769 0.115743
1.172997 -0.218249 -0.188973
1.196330 -0.222591 -0.149412
1.179143 -0.219606 -0.104936
1.213401 -0.226205 -0.064687
1.236465 -0.230728 -0.021955
1.114609 -0.208795 -0.303854
1.248097 -0.233800 0.022165
1.137724 -0.213330 -0.267242
1.274018 -0.238886 0.067932
1.151949 -0.216206 -0.227826
1.278703 -0.239996 0.113825
1.164848 -0.218837 -0.187721
1.192038 -0.223945 -0.148924
1.192464 -0.224241 -0.106156
1.205153 -0.226845 -0.064269
1.234096 -0.232516 -0.021920
1.118039 -0.211458 -0.304889
1.259476 -0.238208 0.022374
1.129691 -0.213866 -0.265442
1.263788 -0.239252 0.067409
1.163144 -0.220409 -0.230116
1.311561 -0.248533 0.116789
1.166405 -0.221238 -0.188034
1.193595 -0.226395 -0.149168
1.178369 -0.223720 -0.104936
1.208680 -0.229694 -0.064478
1.241546 -0.236164 -0.022060
1.121464 -0.214134 -0.305924
1.259059 -0.240406 0.022374
1.121660 -0.214374 -0.263643
1.259444 -0.240708 0.067199
1.153116 -0.220594 -0.228208
1.293513 -0.247453 0.115220
1.171838 -0.224388 -0.188973
1.185400 -0.226985 -0.148193
1.189718 -0.228027 -0.105981
1.200431 -0.230298 -0.064059
1.237204 -0.237576 -0.021990
1.121088 -0.216091 -0.305924
1.270418 -0.244874 0.022583
1.132765 -0.218546 -0.266342
1.262945 -0.243662 0.067409
1.146946 -0.221490 -0.227063
1.287210 -0.248577 0.114697
1.179202 -0.227932 -0.190224
1.190849 -0.230184 -0.148924
1.189318 -0.230103 -0.105981
1.217675 -0.235810 -0.065001
1.228935 -0.238213 -0.021850
1.105539 -0.215095 -0.301783
1.260175 -0.245181 0.022409
1.132381 -0.220523 -0.266342
1.270359 -0.247393 0.067827
1.148485 -0.223867 -0.227444
1.296553 -0.252729 0.115569
1.178803 -0.229990 -0.190224
1.190445 -0.232262 -0.148924
1.177182 -0.229887 -0.104936
1.211381 -0.236785 -0.064687
1.236367 -0.241893 -0.021990
1.116536 -0.219258 -0.304889
1.257783 -0.246995 0.022374
1.131995 -0.222499 -0.266342
1.279724 -0.251536 0.068351
1.159650 -0.228145 -0.229734
1.276560 -0.251145 0.113825
1.162894 -0.228994 -0.187721
1.199777 -0.236257 -0.150143
1.184598 -0.233483 -0.105633
1.207047 -0.238126 -0.064478
1.239867 -0.244826 -0.022060
1.119942 -0.221958 -0.305924
1.263234 -0.250356 0.022479
1.120136 -0.222199 -0.263643
1.263611 -0.250660 0.067513
1.163101 -0.230933 -0.230497
1.311296 -0.260357 0.116963
1.170243 -0.232563 -0.188973
1.197415 -0.237963 -0.149899
1.188097 -0.236327 -0.105981
1.206630 -0.240232 -0.064478
1.239438 -0.246989 -0.022060
1.121447 -0.224291 -0.306442
1.258874 -0.251776 0.022409
1.135033 -0.227214 -0.267242
1.255337 -0.251297 0.067095
1.156922 -0.231806 -0.229352
1.289351 -0.258340 0.115046
1.177582 -0.236159 -0.190224
1.193106 -0.239272 -0.149412
1.199403 -0.240753 -0.107027
1.210125 -0.243125 -0.064687
1.239005 -0.249152 -0.022060
1.115373 -0.225101 -0.304889
1.262353 -0.254764 0.022479
1.136545 -0.229581 -0.267692
1.266643 -0.255860 0.067723
1.148818 -0.232268 -0.227826
1.290851 -0.260985 0.115220
1.177168 -0.238214 -0.190224
1.192686 -0.241354 -0.149412
1.187264 -0.240473 -0.105981
1.213613 -0.246030 -0.064897
1.238568 -0.251314 -0.022060
1.111192 -0.226277 -0.303854
1.265825 -0.257765 0.022549
1.139961 -0.232342 -0.268592
1.274023 -0.259666 0.068141
1.148411 -0.234273 -0.227826
1.288441 -0.262839 0.115046
1.172880 -0.239478 -0.189599
1.188373 -0.242641 -0.148924
1.179035 -0.240949 -0.105284
1.217096 -0.248948 -0.065106
1.238127 -0.253476 -0.022060
1.118365 -0.229771 -0.305924
1.259497 -0.258767 0.022444
1.139554 -0.234331 -0.268592
1.271611 -0.261487 0.068037
1.161461 -0.239048 -0.230497
1.295786 -0.266694 0.115743
1.168591 -0.240727 -0.188973
1.199613 -0.247118 -0.150387
1.186418 -0.244616 -0.105981
1.208835 -0.249458 -0.064687
1.237683 -0.255636 -0.022060
1.114179 -0.230938 -0.304889
1.259043 -0.260964 0.022444
1.118154 -0.231966 -0.263643
1.271153 -0.263706 0.068037
1.162964 -0.241473 -0.230879
1.283614 -0.266525 0.114697
1.172037 -0.243571 -0.189599
1.191406 -0.247596 -0.149412
1.185989 -0.246686 -0.105981
1.204487 -0.250753 -0.064478
1.241150 -0.258612 -0.022130
1.125120 -0.235255 -0.307995
1.264458 -0.264389 0.022549
1.136822 -0.237909 -0.268142
1.270691 -0.265924 0.068037
1.156776 -0.242295 -0.229734
1.308498 -0.274075 0.116963
1.171610 -0.245616 -0.189599
1.187086 -0.248860 -0.148924
1.189456 -0.249574 -0.106330
1.211866 -0.254497 -0.064897
1.242654 -0.261189 -0.022165
1.128530 -0.237818 -0.309030
1.273825 -0.268437 0.022723
1.144074 -0.241303 -0.269941
1.266363 -0.267095 0.067827
1.154473 -0.243707 -0.229352
1.280774 -0.270368 0.114523
1.178953 -0.249089 -0.190850
1.192521 -0.251956 -0.149656
1.181266 -0.249793 -0.105633
1.223189 -0.258881 -0.065525
1.234417 -0.261483 -0.022025
1.122444 -0.238583 -0.307477
1.263574 -0.268581 0.022549
1.137933 -0.242083 -0.268592
1.275663 -0.271383 0.068351
1.155966 -0.246130 -0.229734
1.301736 -0.277167 0.116440
1.174653 -0.250323 -0.190224
1.197904 -0.255278 -0.150387
1.180828 -0.251855 -0.105633
1.232501 -0.263101 -0.066048
1.239826 -0.264890 -0.022130
1.116359 -0.239327 -0.305924
1.263104 -0.270786 0.022549
1.141319 -0.244886 -0.269491
1.279093 -0.274447 0.068560
1.155535 -0.248147 -0.229734
1.291510 -0.277347 0.115569
1.170352 -0.251543 -0.189599
1.203279 -0.258620 -0.151118
1.184282 -0.254753 -0.105981
1.214468 -0.261468 -0.065106
1.241316 -0.267475 -0.022165
1.117828 -0.241683 -0.306442
1.262629 -0.272990 0.022549
1.133271 -0.245229 -0.267692
1.274708 -0.275834 0.068351
1.157019 -0.250579 -0.230116
1.314391 -0.284662 0.117660
1.169911 -0.253585 -0.189599
1.187305 -0.257355 -0.149168
1.191625 -0.258509 -0.106679
1.202299 -0.261045 -0.064478
1.246710 -0.270915 -0.022269
1.124954 -0.245280 -0.308512
1.266058 -0.276045 0.022618
1.140458 -0.248868 -0.269491
1.262516 -0.275504 0.067723
1.158498 -0.253017 -0.230497
1.294427 -0.282704 0.115917
1.171396 -0.256048 -0.189911
1.196551 -0.261547 -0.150387
1.198957 -0.262292 -0.107376
1.219401 -0.266987 -0.065420
1.238422 -0.271378 -0.022130
1.132072 -0.248902 -0.310583
1.273387 -0.279972 0.022758
1.143828 -0.251696 -0.270391
1.263984 -0.278136 0.067827
1.148468 -0.252927 -0.228589
1.309498 -0.288391 0.117312
1.184451 -0.261069 -0.192102
1.196092 -0.263635 -0.150387
1.186824 -0.261809 -0.106330
1.216982 -0.268685 -0.065315
1.237946 -0.273539 -0.022130
1.110889 -0.246278 -0.304889
1.268992 -0.281329 0.022688
1.137679 -0.252426 -0.269041
1.271296 -0.282072 0.068246
1.155691 -0.256634 -0.230116
1.285652 -0.285493 0.115220
1.172469 -0.260360 -0.190224
1.195630 -0.265722 -0.150387
1.186365 -0.263880 -0.106330
1.220411 -0.271676 -0.065525
1.233563 -0.274830 -0.022060
1.119884 -0.250324 -0.307477
1.258741 -0.281362 0.022514
1.139183 -0.254638 -0.269491
1.280547 -0.286471 0.068769
1.153371 -0.258020 -0.229734
1.285202 -0.287512 0.115220
1.172013 -0.262406 -0.190224
1.197102 -0.268242 -0.150631
1.189837 -0.266614 -0.106679
1.212187 -0.271845 -0.065106
1.242886 -0.278957 -0.022234
1.134567 -0.255478 -0.311618
1.264150 -0.284657 0.022618
1.138737 -0.256625 -0.269491
1.276199 -0.287604 0.068560
1.162494 -0.262193 -0.231642
1.311909 -0.295892 0.117660
1.175407 -0.265321 -0.190850
1.196632 -0.270331 -0.150631
1.189370 -0.268691 -0.106679
1.207815 -0.273079 -0.064897
1.244347 -0.281567 -0.022269
1.130306 -0.256799 -0.310583
1.267501 -0.287969 0.022688
1.140188 -0.259044 -0.269941
1.262012 -0.286954 0.067827
1.160120 -0.263786 -0.231261
1.299682 -0.295758 0.116614
1.174942 -0.267372 -0.190850
1.184545 -0.269774 -0.149168
1.192737 -0.271859 -0.107027
1.215077 -0.277174 -0.065315
1.236006 -0.282175 -0.022130
1.129856 -0.258772 -0.310583
1.270895 -0.291074 0.022758
1.145387 -0.262539 -0.271291
1.275136 -0.292279 0.068560
1.155785 -0.265135 -0.230497
1.289454 -0.295798 0.115743
1.182175 -0.271189 -0.192102
1.195681 -0.274506 -0.150631
1.188377 -0.273048 -0.106679
1.214592 -0.279294 -0.065315
1.237461 -0.284781 -0.022165
1.119991 -0.258570 -0.307995
1.270385 -0.293291 0.022758
1.131681 -0.261269 -0.268142
1.272678 -0.294055 0.068455
1.163018 -0.268718 -0.232024
1.312283 -0.303206 0.117835
1.177851 -0.272361 -0.191476
1.191332 -0.275698 -0.150143
1.184065 -0.274016 -0.106330
1.231663 -0.285258 -0.066257
1.242856 -0.288079 -0.022269
1.121466 -0.260767 -0.308512
1.258236 -0.292569 0.022549
1.148306 -0.267219 -0.272191
1.281941 -0.298317 0.068979
1.156811 -0.269411 -0.230879
1.292347 -0.300976 0.116091
1.177374 -0.274417 -0.191476
1.202497 -0.280272 -0.151605
1.197167 -0.279250 -0.107550
1.217549 -0.284229 -0.065525
1.242351 -0.290247 -0.022269
1.130413 -0.264928 -0.311100
1.269405 -0.297503 0.022758
1.123173 -0.263438 -0.266342
1.277529 -0.299642 0.068769
1.158251 -0.271879 -0.231261
1.315096 -0.308695 0.118183
1.169201 -0.274664 -0.190224
1.196209 -0.281009 -0.150874
1.190859 -0.279971 -0.107027
1.209274 -0.284523 -0.065106
1.247682 -0.293790 -0.022374
1.135589 -0.268233 -0.312653
1.268884 -0.299718 0.022758
1.147366 -0.271226 -0.272191
1.265342 -0.299114 0.068141
1.171148 -0.277064 -0.233932
1.299044 -0.307320 0.116789
1.180253 -0.279435 -0.192102
1.189921 -0.281724 -0.150143
1.202001 -0.284806 -0.108073
1.216549 -0.288477 -0.065525
1.241331 -0.294582 -0.022269
1.127602 -0.268425 -0.310583
1.272250 -0.302858 0.022828
1.129830 -0.269163 -0.268142
1.272590 -0.303174 0.068560
1.159204 -0.276375 -0.231642
1.310134 -0.312360 0.117835
1.183607 -0.282411 -0.192727
1.195220 -0.285183 -0.150874
1.189875 -0.284127 -0.107027
1.217986 -0.291064 -0.065629
1.236925 -0.295818 -0.022199
1.113982 -0.267238 -0.306959
1.267830 -0.304145 0.022758
1.146412 -0.275229 -0.272191
1.275943 -0.306327 0.068769
1.160629 -0.278857 -0.232024
1.286340 -0.309060 0.115743
1.179320 -0.283347 -0.192102
1.194721 -0.287268 -0.150874
1.195188 -0.287601 -0.107550
1.219418 -0.293657 -0.065734
1.238351 -0.298445 -0.022234
1.122903 -0.271451 -0.309548
1.263410 -0.305418 0.022688
1.138402 -0.275198 -0.270391
1.281230 -0.309962 0.069083
1.165914 -0.282064 -0.233169
1.309091 -0.316702 0.117835
1.174984 -0.284476 -0.191476
1.207723 -0.292625 -0.152580
1.185053 -0.287132 -0.106679
1.222837 -0.296513 -0.065943
1.249540 -0.303219 -0.022444
1.124352 -0.273672 -0.310065
1.262929 -0.307402 0.022688
1.134133 -0.276262 -0.269491
1.276861 -0.311029 0.068874
1.165420 -0.284099 -0.233169
1.294986 -0.315684 0.116614
1.182162 -0.288399 -0.192727
1.205333 -0.294051 -0.152337
1.188421 -0.290145 -0.107027
1.212617 -0.296277 -0.065420
1.256779 -0.307299 -0.022583
1.138883 -0.279315 -0.314206
1.274043 -0.312464 0.022898
1.131757 -0.277777 -0.269041
1.274376 -0.312781 0.068769
1.163016 -0.285664 -0.232787
1.298303 -0.318894 0.116963
1.181657 -0.290461 -0.192727
1.199035 -0.294733 -0.151605
1.203391 -0.296027 -0.108422
1.217916 -0.299825 -0.065734
1.240708 -0.305666 -0.022304
1.129016 -0.278985 -0.311618
1.273496 -0.314687 0.022898
1.146404 -0.283494 -0.272641
1.275767 -0.315484 0.068874
1.158704 -0.286750 -0.232024
1.288074 -0.318766 0.116091
1.181148 -0.292523 -0.192727
1.198519 -0.296825 -0.151605
1.191269 -0.295251 -0.107376
1.217391 -0.301950 -0.065734
1.238231 -0.307349 -0.022269
1.122904 -0.279555 -0.310065
1.271004 -0.316426 0.022863
1.134562 -0.282668 -0.269941
1.281029 -0.319159 0.069188
1.160107 -0.289247 -0.232405
1.312648 -0.327280 0.118357
1.176802 -0.293628 -0.192102
1.199925 -0.299397 -0.151849
1.190752 -0.297329 -0.107376
1.220738 -0.305043 -0.065943
1.245453 -0.311450 -0.022409
1.128036 -0.282924 -0.311618
1.264631 -0.317184 0.022758
1.151078 -0.288917 -0.273990
1.286281 -0.322853 0.069502
1.172929 -0.294619 -0.235077
1.290818 -0.324231 0.116440
1.172457 -0.294718 -0.191476
1.199400 -0.301491 -0.151849
1.194095 -0.300379 -0.107725
1.220203 -0.307173 -0.065943
1.242968 -0.313135 -0.022374
1.125667 -0.284419 -0.311100
1.267953 -0.320371 0.022828
1.122233 -0.283760 -0.267242
1.274098 -0.322160 0.068874
1.166703 -0.295221 -0.233932
1.319223 -0.333815 0.119055
1.179600 -0.298704 -0.192727
1.195024 -0.302609 -0.151362
1.193569 -0.302463 -0.107725
1.221601 -0.309793 -0.066048
1.254049 -0.318255 -0.022583
1.128913 -0.287337 -0.312136
1.273206 -0.324063 0.022932
1.140620 -0.290528 -0.271741
1.271598 -0.323890 0.068769
1.158576 -0.295317 -0.232405
1.310916 -0.334148 0.118357
1.179077 -0.300762 -0.192727
1.202188 -0.306657 -0.152337
1.212345 -0.309473 -0.109468
1.211383 -0.309453 -0.065525
1.245742 -0.318462 -0.022444
1.124667 -0.288347 -0.311100
1.284261 -0.329264 0.023142
1.147662 -0.294456 -0.273540
1.276835 -0.327598 0.069083
1.159961 -0.297827 -0.232787
1.292963 -0.331976 0.116789
1.190030 -0.305769 -0.194605
1.199728 -0.308261 -0.152093
1.192506 -0.306627 -0.107725
1.218578 -0.313558 -0.065943
1.247121 -0.321135 -0.022479
1.122292 -0.289826 -0.310583
1.275939 -0.329505 0.023002
1.143373 -0.295483 -0.272641
1.280129 -0.330825 0.069293
1.161340 -0.300343 -0.233169
1.313599 -0.339720 0.118706
1.178073 -0.304670 -0.192727
1.195345 -0.309360 -0.151605
1.199684 -0.310706 -0.108422
1.225762 -0.317689 -0.066362
1.242688 -0.322307 -0.022409
1.129263 -0.293730 -0.312653
1.265686 -0.329215 0.022828
1.148565 -0.298751 -0.273990
1.287281 -0.335072 0.069711
1.164667 -0.303156 -0.233932
1.295711 -0.337266 0.117137
1.177540 -0.306726 -0.192727
1.208249 -0.314950 -0.153312
1.187627 -0.309575 -0.107376
1.221397 -0.318605 -0.066153
1.247984 -0.325773 -0.022514
1.132538 -0.296482 -0.313689
1.267102 -0.331709 0.022863
1.148042 -0.300755 -0.273990
1.282889 -0.336081 0.069502
1.171732 -0.307180 -0.235458
1.320175 -0.346095 0.119403
1.180824 -0.309783 -0.193353
1.200072 -0.314833 -0.152337
1.202502 -0.315695 -0.108770
1.209249 -0.317692 -0.065525
1.247414 -0.327951 -0.022514
1.139491 -0.300428 -0.315759
1.274255 -0.335959 0.023002
1.130557 -0.298284 -0.269941
1.270713 -0.335262 0.068874
1.165500 -0.307721 -0.234313
1.309937 -0.345856 0.118532
1.180281 -0.311844 -0.193353
1.195683 -0.315913 -0.151849
1.205801 -0.318812 -0.109119
1.220277 -0.322867 -0.066153
1.248773 -0.330640 -0.022549
1.135230 -0.301425 -0.314724
1.269801 -0.337156 0.022932
1.148868 -0.305261 -0.274440
1.277847 -0.339531 0.069293
1.155474 -0.307232 -0.232405
1.295853 -0.344558 0.117312
1.191189 -0.316951 -0.195230
1.327495 -0.353219 0.168667
1.198966 -0.319020 -0.152337
1.197542 -0.318865 -0.108422
1.227432 -0.327053 -0.066571
1.242397 -0.331273 -0.022444
1.117906 -0.298915 -0.310065
1.273075 -0.340405 0.023002
1.146451 -0.306762 -0.273990
1.284970 -0.343826 0.069711
1.160625 -0.310772 -0.233550
1.316420 -0.352487 0.119229
1.183002 -0.316984 -0.193979
1.330712 -0.356563 0.169155
1.198407 -0.321112 -0.152337
1.189286 -0.318891 -0.107725
1.234575 -0.331265 -0.066990
1.249542 -0.335515 -0.022583
1.121113 -0.301870 -0.311100
1.266686 -0.341067 0.022898
1.147796 -0.309269 -0.274440
1.294010 -0.348666 0.070235
1.161977 -0.313308 -0.233932
1.296566 -0.349598 0.117486
1.178632 -0.318019 -0.193353
1.307089 -0.352680 0.166230
1.209345 -0.326306 -0.153799
1.196421 -0.323043 -0.108422
1.218570 -0.329252 -0.066153
1.252815 -0.338739 -0.022653
1.131772 -0.306859 -0.314206
1.268019 -0.343800 0.022932
1.128447 -0.306169 -0.269941
1.285690 -0.348832 0.069816
1.172796 -0.318422 -0.236222
1.322873 -0.359169 0.119926
1.181888 -0.321112 -0.193979
1.316049 -0.357563 0.167448
1.204942 -0.327375 -0.153312
1.207391 -0.328267 -0.109468
1.221848 -0.332427 -0.066362
1.256081 -0.341976 -0.022723
1.134962 -0.309852 -0.315242
1.273204 -0.347593 0.023037
1.144830 -0.312760 -0.273990
1.281226 -0.350023 0.069607
1.164664 -0.318397 -0.234695
1.299181 -0.355172 0.117835
1.189004 -0.325052 -0.195230
1.330741 -0.364050 0.169398
1.196710 -0.327383 -0.152337
1.210660 -0.331426 -0.109816
1.217413 -0.333503 -0.066153
1.251626 -0.343110 -0.022653
1.130694 -0.310808 -0.314206
1.272596 -0.349814 0.023037
1.155611 -0.317657 -0.276690
1.280613 -0.352259 0.069607
1.156590 -0.318144 -0.233169
1.323595 -0.364082 0.120101
1.192244 -0.328175 -0.195856
1.335909 -0.367720 0.170130
1.207619 -0.332634 -0.153799
1.202454 -0.331211 -0.109119
1.232292 -0.339661 -0.066990
1.247230 -0.344013 -0.022583
1.126480 -0.311554 -0.313171
1.272044 -0.351813 0.023037
1.138152 -0.314996 -0.272641
1.287757 -0.356401 0.070026
1.163601 -0.322258 -0.234695
1.292236 -0.357883 0.117312
1.184055 -0.328145 -0.194605
1.331440 -0.368991 0.169642
1.210921 -0.335591 -0.154287
1.209554 -0.335439 -0.109816
1.239395 -0.343948 -0.067409
1.248554 -0.346724 -0.022618
1.131518 -0.315074 -0.314724
1.269502 -0.353496 0.023002
1.154495 -0.321689 -0.276690
1.289057 -0.359184 0.070130
1.170602 -0.326397 -0.236222
1.297367 -0.361743 0.117835
1.175870 -0.328087 -0.193353
1.328882 -0.370780 0.169398
1.217982 -0.339838 -0.155262
1.208967 -0.337550 -0.109816
1.223404 -0.341811 -0.066571
1.253725 -0.350518 -0.022723
1.134687 -0.318091 -0.315759
1.270809 -0.356251 0.023037
1.129540 -0.316861 -0.270841
1.286505 -0.360894 0.070026
1.168140 -0.327909 -0.235840
1.327425 -0.372623 0.120624
1.179099 -0.331208 -0.193979
1.328233 -0.373099 0.169398
1.205920 -0.338742 -0.153799
1.206458 -0.339120 -0.109642
1.222806 -0.343945 -0.066571
1.264660 -0.355956 -0.022932
1.147145 -0.323744 -0.319383
1.274034 -0.359555 0.023107
1.151490 -0.325188 -0.276240
1.282030 -0.362053 0.069816
1.169455 -0.330482 -0.236222
1.307600 -0.369521 0.118880
1.180420 -0.333803 -0.194292
1.335220 -0.377578 0.170373
1.199597 -0.339226 -0.153068
1.215450 -0.343938 -0.110513
1.237577 -0.350432 -0.067409
1.248645 -0.353802 -0.022653
1.137286 -0.323106 -0.316795
1.275328 -0.362324 0.023142
1.135925 -0.322934 -0.272641
1.277553 -0.363198 0.069607
1.161323 -0.330373 -0.234695
1.324200 -0.376709 0.120449
1.189335 -0.338567 -0.195856
1.334559 -0.379907 0.170373
1.208549 -0.344036 -0.154287
1.203351 -0.342783 -0.109468
1.236964 -0.352592 -0.067409
1.248026 -0.355981 -0.022653
1.131148 -0.323497 -0.315242
1.276616 -0.365100 0.023177
1.163462 -0.332958 -0.279389
1.286518 -0.368174 0.070130
1.172069 -0.335643 -0.236985
1.289064 -0.369146 0.117312
1.184944 -0.339554 -0.195230
1.341527 -0.384423 0.171348
1.211763 -0.347239 -0.154774
1.198920 -0.343785 -0.109119
1.232507 -0.353648 -0.067199
1.255091 -0.360366 -0.022793
1.130582 -0.325471 -0.315242
1.266369 -0.364561 0.023002
1.134791 -0.326897 -0.272641
1.293551 -0.372631 0.070549
1.173368 -0.338232 -0.237366
1.324792 -0.381881 0.120624
1.176758 -0.339431 -0.193979
1.325595 -0.382363 0.169398
1.214970 -0.350453 -0.155262
1.202147 -0.346982 -0.109468
1.224212 -0.353582 -0.066781
1.252539 -0.362000 -0.022758
1.137434 -0.329594 -0.317312
1.275334 -0.369554 0.023177
1.143577 -0.331590 -0.274890
1.285225 -0.372663 0.070130
1.170890 -0.339732 -0.236985
1.314556 -0.381416 0.119752
1.179958 -0.342586 -0.194605
1.313488 -0.381355 0.167936
1.206731 -0.350359 -0.154287
1.213019 -0.352415 -0.110513
1.231265 -0.357949 -0.067199
1.257666 -0.365862 -0.022863
1.142421 -0.333202 -0.318865
1.278527 -0.372899 0.023247
1.133643 -0.330856 -0.272641
1.282656 -0.374346 0.070026
1.170296 -0.341775 -0.236985
1.313888 -0.383710 0.119752
1.186942 -0.346861 -0.195856
1.331874 -0.389215 0.170373
1.200402 -0.350795 -0.153555
1.216227 -0.355650 -0.110862
1.230638 -0.360097 -0.067199
1.253187 -0.366932 -0.022793
1.134423 -0.333018 -0.316795
1.289386 -0.378509 0.023456
1.157370 -0.339974 -0.278489
1.280084 -0.376021 0.069921
1.158396 -0.340495 -0.234695
1.328509 -0.390498 0.121146
1.190125 -0.350047 -0.196482
1.323575 -0.389298 0.169398
1.211214 -0.356250 -0.155018
1.204136 -0.354397 -0.109816
1.237671 -0.364501 -0.067618
1.252545 -0.369119 -0.022793
1.128282 -0.333356 -0.315242
1.273382 -0.376226 0.023177
1.141825 -0.337574 -0.274890
1.289003 -0.381086 0.070444
1.163448 -0.344187 -0.235840
1.304899 -0.386033 0.119055
1.185724 -0.351002 -0.195856
1.330508 -0.393862 0.170373
1.208687 -0.357800 -0.154774
1.203516 -0.356498 -0.109816
1.244693 -0.368931 -0.068037
1.253816 -0.371873 -0.022828
1.131402 -0.336426 -0.316277
1.272723 -0.378448 0.023177
1.135630 -0.337899 -0.273540
1.295993 -0.385613 0.070863
1.172253 -0.349018 -0.237748
1.302313 -0.387742 0.118880
1.181324 -0.351943 -0.195230
1.329818 -0.396183 0.170373
1.215671 -0.362176 -0.155749
1.210529 -0.360874 -0.110513
1.236392 -0.368819 -0.067618
1.262745 -0.376921 -0.023002
1.136425 -0.339863 -0.317830
1.275959 -0.381593 0.023247
1.155635 -0.345828 -0.278489
1.285818 -0.384786 0.070340
1.179227 -0.353112 -0.239275
1.328424 -0.397788 0.121321
1.188338 -0.356066 -0.196482
1.315883 -0.394283 0.168667
1.209395 -0.362376 -0.155018
1.209961 -0.362775 -0.110513
1.239637 -0.371909 -0.067827
1.258321 -0.377754 -0.022932
1.143229 -0.344073 -0.319900
1.279121 -0.384972 0.023316
1.134504 -0.341663 -0.273540
1.285145 -0.387029 0.070340
1.171090 -0.352904 -0.237748
1.316282 -0.396657 0.120275
1.195280 -0.360421 -0.197733
1.322795 -0.398872 0.169642
1.212562 -0.365632 -0.155505
1.220770 -0.368340 -0.111559
1.235162 -0.372917 -0.067618
1.257660 -0.379949 -0.022932
1.138929 -0.344948 -0.318865
1.286102 -0.389522 0.023456
1.158150 -0.350990 -0.279389
1.286379 -0.389851 0.070444
1.166714 -0.353808 -0.236985
1.327027 -0.402423 0.121321
1.194649 -0.362507 -0.197733
1.335394 -0.405215 0.171348
1.204324 -0.365442 -0.154530
1.208687 -0.366997 -0.110513
1.242153 -0.377395 -0.068037
1.249342 -0.379817 -0.022793
1.125390 -0.342993 -0.315242
1.277769 -0.389434 0.023316
1.144488 -0.349032 -0.276240
1.285696 -0.392095 0.070444
1.166095 -0.355844 -0.236985
1.305361 -0.398342 0.119403
1.186458 -0.362284 -0.196482
1.332786 -0.406965 0.171105
1.213177 -0.370442 -0.155749
1.200423 -0.366777 -0.109816
1.241493 -0.379562 -0.068037
1.252502 -0.383167 -0.022863
1.137718 -0.348921 -0.318865
1.271352 -0.389905 0.023212
1.153192 -0.353887 -0.278489
1.294557 -0.397269 0.070968
1.171103 -0.359607 -0.238130
1.308473 -0.401789 0.119752
1.185823 -0.364354 -0.196482
1.324484 -0.406958 0.170130
1.231504 -0.378390 -0.158186
1.203590 -0.370043 -0.110165
1.237010 -0.380554 -0.067827
1.255653 -0.386529 -0.022932
1.137108 -0.350906 -0.318865
1.280223 -0.395071 0.023386
1.152573 -0.355899 -0.278489
1.290045 -0.398349 0.070758
1.172349 -0.362230 -0.238511
1.334420 -0.412306 0.122192
1.181411 -0.365256 -0.195856
1.321875 -0.408683 0.169886
1.219463 -0.377020 -0.156724
1.218169 -0.376853 -0.111559
1.232528 -0.381531 -0.067618
1.260707 -0.390495 -0.023037
1.147563 -0.356328 -0.321971
1.275712 -0.396119 0.023316
1.131479 -0.351550 -0.273540
1.281718 -0.398229 0.070340
1.175464 -0.365441 -0.239275
1.320380 -0.410494 0.120972
1.188317 -0.369664 -0.197107
1.332532 -0.414527 0.171348
1.209325 -0.376200 -0.155505
1.221314 -0.380163 -0.111908
1.243302 -0.387245 -0.068246
1.254296 -0.390910 -0.022932
1.135876 -0.354874 -0.318865
1.286471 -0.401923 0.023526
1.158763 -0.362246 -0.280289
1.290553 -0.403445 0.070863
1.171077 -0.366320 -0.238511
1.315859 -0.411609 0.120624
1.195211 -0.374098 -0.198359
1.333701 -0.417445 0.171592
1.216245 -0.380682 -0.156480
1.213044 -0.379912 -0.111211
1.246436 -0.390609 -0.068455
1.249796 -0.391902 -0.022863
1.131569 -0.355697 -0.317830
1.278137 -0.401769 0.023386
1.141399 -0.359006 -0.276240
1.293657 -0.406896 0.071072
1.174182 -0.369542 -0.239275
1.318939 -0.415101 0.120972
1.185200 -0.373010 -0.196795
1.342438 -0.422754 0.172811
1.211792 -0.381611 -0.155993
1.208578 -0.380831 -0.110862
1.245752 -0.392784 -0.068455
1.256738 -0.396489 -0.023002
1.134630 -0.358836 -0.318865
1.271714 -0.402190 0.023282
1.159414 -0.366674 -0.280739
1.294849 -0.409756 0.071177
1.181087 -0.373755 -0.240801
1.312587 -0.415369 0.120449
1.184547 -0.375078 -0.196795
1.326632 -0.420068 0.170861
1.228155 -0.389122 -0.158186
1.211777 -0.383933 -0.111211
1.241326 -0.393533 -0.068246
1.256114 -0.398463 -0.023002
1.141429 -0.362960 -0.320936
1.280609 -0.407217 0.023456
1.132774 -0.360425 -0.274440
1.292301 -0.411183 0.071072
1.176691 -0.374625 -0.240038
1.332744 -0.424308 0.122367
1.189538 -0.378944 -0.197733
1.324006 -0.421780 0.170617
1.214302 -0.386833 -0.156480
1.218698 -0.388468 -0.111908
1.236832 -0.394486 -0.068037
1.266847 -0.404302 -0.023212
1.151834 -0.368483 -0.324041
1.281801 -0.410061 0.023491
1.156271 -0.370125 -0.280289
1.282070 -0.410394 0.070549
1.172296 -0.375481 -0.239275
1.326309 -0.424810 0.121844
1.196399 -0.383431 -0.198985
1.338391 -0.428937 0.172567
1.215516 -0.389558 -0.156724
1.221813 -0.391811 -0.112257
1.239945 -0.397864 -0.068246
1.252812 -0.402234 -0.022967
1.136477 -0.365758 -0.319900
1.288698 -0.414748 0.023631
1.146348 -0.369156 -0.278040
1.288956 -0.415080 0.070968
1.166033 -0.375720 -0.238130
1.323669 -0.426513 0.121669
1.195728 -0.385518 -0.198985
1.345197 -0.433709 0.173542
1.222391 -0.394115 -0.157699
1.215439 -0.392108 -0.111734
1.243050 -0.401255 -0.068455
1.252108 -0.404420 -0.022967
1.132161 -0.366551 -0.318865
1.284167 -0.415765 0.023561
1.169803 -0.378964 -0.283888
1.292030 -0.418560 0.071177
1.172846 -0.380176 -0.239656
1.305865 -0.423293 0.120101
1.187537 -0.385167 -0.197733
1.344438 -0.436056 0.173542
1.217925 -0.395023 -0.157211
1.205277 -0.391153 -0.110862
1.257545 -0.408358 -0.069293
1.257105 -0.408458 -0.023072
1.138867 -0.370920 -0.320936
1.277735 -0.416148 0.023456
1.145053 -0.373155 -0.278040
1.298893 -0.423290 0.071596
1.177780 -0.384048 -0.240801
1.324066 -0.431749 0.121844
1.190687 -0.388257 -0.198359
1.341788 -0.437786 0.173298
1.236106 -0.403305 -0.159649
1.210275 -0.395111 -0.111385
1.237844 -0.404351 -0.068246
1.260192 -0.411894 -0.023142
1.141890 -0.374110 -0.321971
1.282708 -0.420245 0.023561
1.151873 -0.377380 -0.279839
1.286765 -0.421823 0.070968
1.188369 -0.389567 -0.243091
1.319600 -0.432587 0.121495
1.190007 -0.390334 -0.198359
1.327895 -0.435563 0.171592
1.222197 -0.401129 -0.157943
1.224797 -0.401982 -0.112780
1.241003 -0.407541 -0.068455
1.267143 -0.416370 -0.023282
1.152310 -0.379529 -0.325077
1.282046 -0.422259 0.023561
1.164168 -0.383660 -0.282988
1.284204 -0.423219 0.070863
1.178365 -0.388566 -0.241183
1.333980 -0.439881 0.122890
1.193076 -0.393648 -0.198985
1.355410 -0.447209 0.175248
1.214025 -0.400560 -0.156968
1.227877 -0.405369 -0.113128
1.240290 -0.409706 -0.068455
1.262617 -0.417326 -0.023212
1.133308 -0.375464 -0.319900
1.285104 -0.425754 0.023631
1.152398 -0.382012 -0.280289
1.289151 -0.427345 0.071177
1.172094 -0.388768 -0.240038
1.318082 -0.437190 0.121495
1.192387 -0.395730 -0.198985
1.345207 -0.446448 0.174029
1.222744 -0.405805 -0.158186
1.221495 -0.405627 -0.112605
1.258526 -0.418168 -0.069502
1.254296 -0.417006 -0.023072
1.132651 -0.377442 -0.319900
1.278667 -0.426100 0.023526
1.162822 -0.387721 -0.282988
1.297877 -0.432753 0.071700
1.180726 -0.393920 -0.241946
1.321097 -0.440751 0.121844
1.187947 -0.396560 -0.198359
1.350075 -0.450681 0.174761
1.229566 -0.410453 -0.159161
1.215116 -0.405865 -0.112082
1.254006 -0.419098 -0.069293
1.261152 -0.421731 -0.023212
1.139317 -0.381874 -0.321971
1.279817 -0.428966 0.023561
1.151058 -0.386032 -0.280289
1.293332 -0.433747 0.071491
1.185620 -0.397854 -0.243091
1.320325 -0.443056 0.121844
1.190998 -0.399890 -0.198985
1.349286 -0.453036 0.174761
1.238257 -0.415757 -0.160380
1.208740 -0.406082 -0.111559
1.249486 -0.420013 -0.069083
1.260414 -0.423931 -0.023212
1.138649 -0.383861 -0.321971
1.275277 -0.429922 0.023491
1.137456 -0.383681 -0.277140
1.300143 -0.438557 0.071910
1.188644 -0.401178 -0.243854
1.330877 -0.449183 0.122890
1.197785 -0.404496 -0.200236
1.335328 -0.450945 0.173054
1.218722 -0.411566 -0.157943
1.213692 -0.410104 -0.112082
1.244967 -0.420914 -0.068874
1.274826 -0.431257 -0.023491
1.148954 -0.389570 -0.325077
1.285888 -0.435999 0.023700
1.157085 -0.392552 -0.282089
1.288028 -0.436976 0.071282
1.176788 -0.399466 -0.241564
1.328204 -0.450865 0.122715
1.193336 -0.405315 -0.199610
1.338298 -0.454552 0.173542
1.214242 -0.412416 -0.157455
1.228066 -0.417350 -0.113477
1.255576 -0.426944 -0.069502
1.266499 -0.430905 -0.023351
1.144616 -0.390328 -0.324041
1.288910 -0.439534 0.023770
1.150865 -0.392683 -0.280739
1.289153 -0.439868 0.071386
1.174231 -0.400885 -0.241183
1.329301 -0.453826 0.122890
1.207582 -0.412506 -0.202113
1.358167 -0.463945 0.176223
1.222914 -0.417743 -0.158674
1.219794 -0.416916 -0.112780
1.251050 -0.427842 -0.069293
1.258177 -0.430525 -0.023212
1.138451 -0.390445 -0.322489
1.282466 -0.439837 0.023665
1.170453 -0.401649 -0.285688
1.286495 -0.441469 0.071282
1.182814 -0.406121 -0.243091
1.330391 -0.456792 0.123064
1.199387 -0.412046 -0.200862
1.359232 -0.466960 0.176467
1.229692 -0.422457 -0.159649
1.215297 -0.417749 -0.112431
1.269188 -0.436521 -0.070340
1.264987 -0.435323 -0.023351
1.143246 -0.394321 -0.324041
1.276025 -0.440118 0.023561
1.164224 -0.401784 -0.284338
1.308378 -0.451533 0.072538
1.182103 -0.408185 -0.243091
1.323942 -0.457162 0.122541
1.194932 -0.412848 -0.200236
1.350910 -0.466739 0.175492
1.240210 -0.428492 -0.161111
1.222098 -0.422473 -0.113128
1.253324 -0.433512 -0.069502
1.268005 -0.438838 -0.023421
1.146207 -0.397582 -0.325077
1.279034 -0.443655 0.023631
1.154316 -0.400620 -0.282089
1.292493 -0.448577 0.071700
1.192517 -0.414112 -0.245380
1.330671 -0.462087 0.123238
1.197941 -0.416230 -0.200862
1.350093 -0.469096 0.175492
1.218834 -0.423489 -0.158430
1.228886 -0.427222 -0.113825
1.246906 -0.433731 -0.069188
1.272903 -0.443023 -0.023526
1.141863 -0.398309 -0.324041
1.285810 -0.448522 0.023770
1.149935 -0.401350 -0.281189
1.289822 -0.450174 0.071596
1.184378 -0.413603 -0.243854
1.344910 -0.469664 0.124633
1.208402 -0.422229 -0.202739
1.349272 -0.471451 0.175492
1.225589 -0.428235 -0.159405
1.228139 -0.429366 -0.113825
1.248033 -0.436566 -0.069293
1.270240 -0.444583 -0.023491
1.142989 -0.400941 -0.324559
1.292573 -0.453413 0.023910
1.162104 -0.407874 -0.284338
1.294688 -0.454408 0.071910
1.179950 -0.414369 -0.243091
1.329049 -0.466729 0.123238
1.203936 -0.423028 -0.202113
1.352193 -0.475122 0.175979
1.226713 -0.431031 -0.159649
1.225508 -0.430848 -0.113651
1.262341 -0.444045 -0.070130
1.261917 -0.444144 -0.023351
1.140466 -0.402293 -0.324041
1.286122 -0.453672 0.023805
1.165066 -0.411199 -0.285238
1.293893 -0.456667 0.071910
1.188481 -0.419696 -0.244999
1.322597 -0.467058 0.122715
1.206995 -0.426234 -0.202739
1.366336 -0.482772 0.177929
1.233446 -0.435817 -0.160624
1.211605 -0.428338 -0.112431
1.265330 -0.447580 -0.070340
1.261140 -0.446345 -0.023351
1.143403 -0.405574 -0.325077
1.289098 -0.457253 0.023875
1.166255 -0.413680 -0.285688
1.311917 -0.465605 0.072956
1.184120 -0.420249 -0.244236
1.329372 -0.471800 0.123413
1.195081 -0.424374 -0.200862
1.348740 -0.478939 0.175736
1.242036 -0.441292 -0.161842
1.227827 -0.436244 -0.114000
1.253334 -0.445553 -0.069711
1.264206 -0.449666 -0.023421
1.144584 -0.408018 -0.325594
1.278960 -0.455920 0.023700
1.141670 -0.407204 -0.279839
1.296134 -0.462297 0.072119
1.190781 -0.424955 -0.245762
1.334176 -0.476129 0.123935
1.205500 -0.430445 -0.202739
1.338554 -0.477954 0.174517
1.231993 -0.439905 -0.160624
1.227064 -0.438386 -0.114000
1.260078 -0.450429 -0.070130
1.270950 -0.454566 -0.023561
1.142052 -0.409364 -0.325077
1.293222 -0.463550 0.023980
1.164804 -0.417749 -0.285688
1.295325 -0.464559 0.072119
1.188189 -0.426369 -0.245380
1.342720 -0.481821 0.124807
1.201028 -0.431213 -0.202113
1.350796 -0.484985 0.176223
1.218145 -0.437359 -0.158918
1.230047 -0.441874 -0.114348
1.257410 -0.451952 -0.070026
1.264510 -0.454753 -0.023456
1.148605 -0.413976 -0.327147
1.299936 -0.468518 0.024119
1.169573 -0.421764 -0.287038
1.305786 -0.470884 0.072747
1.185597 -0.427776 -0.244999
1.336254 -0.482135 0.124284
1.207706 -0.435992 -0.203365
1.361151 -0.491387 0.177686
1.228583 -0.443529 -0.160380
1.233022 -0.445374 -0.114697
1.258498 -0.454825 -0.070130
1.267475 -0.458319 -0.023526
1.140616 -0.413348 -0.325077
1.300996 -0.471468 0.024154
1.167003 -0.423140 -0.286588
1.293696 -0.469078 0.072119
1.184848 -0.429845 -0.244999
1.333538 -0.483787 0.124110
1.199516 -0.435403 -0.202113
1.356559 -0.492407 0.177198
1.224075 -0.444318 -0.159893
1.224752 -0.444805 -0.114000
1.268965 -0.461113 -0.070758
1.261036 -0.458481 -0.023421
1.147153 -0.417983 -0.327147
1.290777 -0.470315 0.023980
1.153447 -0.420504 -0.283438
1.307887 -0.476808 0.072956
1.185940 -0.432585 -0.245380
1.334563 -0.486797 0.124284
1.196899 -0.436819 -0.201800
1.357562 -0.495454 0.177442
1.234487 -0.450537 -0.161355
1.227717 -0.448309 -0.114348
1.256902 -0.459215 -0.070130
1.271502 -0.464801 -0.023631
1.142794 -0.418656 -0.326112
1.293710 -0.473943 0.024049
1.156370 -0.423858 -0.284338
1.295801 -0.474965 0.072328
1.194400 -0.438034 -0.247288
1.333712 -0.489125 0.124284
1.205407 -0.442309 -0.203365
1.347378 -0.494404 0.176223
1.215062 -0.445852 -0.158918
1.226932 -0.450451 -0.114348
1.244850 -0.457276 -0.069502
1.280074 -0.470468 -0.023805
1.147500 -0.422653 -0.327665
1.300386 -0.478964 0.024189
1.148315 -0.423180 -0.282539
1.298718 -0.478607 0.072538
1.182581 -0.436043 -0.244999
1.342203 -0.494899 0.125156
1.212046 -0.447147 -0.204616
1.352100 -0.498816 0.176954
1.227319 -0.452782 -0.160624
1.233621 -0.455351 -0.115046
1.266533 -0.467751 -0.070758
1.275499 -0.471315 -0.023735
1.144949 -0.423984 -0.327147
1.307049 -0.484011 0.024329
1.165848 -0.431954 -0.287038
1.294135 -0.479486 0.072328
1.179978 -0.437424 -0.244617
1.335732 -0.495163 0.124633
1.211264 -0.449262 -0.204616
1.369839 -0.508078 0.179392
1.228388 -0.455614 -0.160868
1.232824 -0.457504 -0.115046
1.269460 -0.471351 -0.070968
1.272800 -0.472844 -0.023700
1.138776 -0.423960 -0.325594
1.306203 -0.486291 0.024329
1.170571 -0.436029 -0.288387
1.310141 -0.488018 0.073270
1.188411 -0.442911 -0.246525
1.323664 -0.493319 0.123587
1.208627 -0.450685 -0.204303
1.372670 -0.511855 0.179879
1.231311 -0.459144 -0.161355
1.232024 -0.459655 -0.115046
1.274248 -0.475662 -0.071282
1.281340 -0.478563 -0.023875
1.145271 -0.428655 -0.327665
1.294115 -0.484365 0.024119
1.162508 -0.435338 -0.286588
1.311158 -0.491004 0.073375
1.189474 -0.445673 -0.246907
1.330264 -0.498424 0.124284
1.205989 -0.452101 -0.203991
1.249096 -0.468261 -0.163792
1.231220 -0.461804 -0.115046
1.256587 -0.471569 -0.070340
1.274886 -0.478690 -0.023770
1.142714 -0.429973 -0.327147
1.304497 -0.490848 0.024329
1.159923 -0.436679 -0.286138
1.310299 -0.493292 0.073375
1.194206 -0.449824 -0.248052
1.334986 -0.502852 0.124807
1.207047 -0.454901 -0.204303
1.231559 -0.464139 -0.161599
1.234140 -0.465358 -0.115394
1.265106 -0.477287 -0.070863
1.285274 -0.485152 -0.023980
1.152803 -0.436068 -0.330253
1.299898 -0.491709 0.024259
1.159159 -0.438703 -0.286138
1.292624 -0.489216 0.072433
1.193419 -0.451908 -0.248052
1.345286 -0.509415 0.125853
1.208098 -0.457707 -0.204616
1.223321 -0.463475 -0.160624
1.240778 -0.470336 -0.116091
1.268005 -0.480911 -0.071072
1.276947 -0.484557 -0.023840
1.137594 -0.432586 -0.326112
1.306514 -0.496820 0.024398
1.162034 -0.442112 -0.287038
1.301102 -0.495022 0.072956
1.183455 -0.450498 -0.246144
1.344395 -0.511762 0.125853
1.211070 -0.461010 -0.205242
1.231786 -0.469142 -0.161842
1.228785 -0.468244 -0.115046
1.265298 -0.482411 -0.070968
1.272362 -0.485359 -0.023770
1.145860 -0.438020 -0.328700
1.309381 -0.500528 0.024468
1.174080 -0.448807 -0.290187
1.311429 -0.501573 0.073584
1.191914 -0.455863 -0.248052
1.347311 -0.515297 0.126202
1.210263 -0.463123 -0.205242
1.238381 -0.474130 -0.162817
1.224326 -0.468749 -0.114697
1.273864 -0.487971 -0.071491
1.279067 -0.490220 -0.023910
1.146974 -0.440512 -0.329218
1.293659 -0.496848 0.024189
1.169657 -0.449458 -0.289287
1.312504 -0.504349 0.073689
1.191117 -0.457943 -0.248052
1.207609 -0.464525 -0.204929
1.245046 -0.478926 -0.163792
1.227225 -0.472317 -0.115046
1.267419 -0.488040 -0.071177
1.285674 -0.495327 -0.024049
1.146203 -0.442513 -0.329218
1.296521 -0.500546 0.024259
1.154328 -0.445881 -0.285688
1.304169 -0.503760 0.073270
1.199472 -0.463559 -0.249960
1.216009 -0.470194 -0.206494
1.236802 -0.478234 -0.162817
1.231974 -0.476615 -0.115569
1.260978 -0.488088 -0.070863
1.299725 -0.503347 -0.024329
1.150832 -0.446610 -0.330771
1.303102 -0.505702 0.024398
1.162631 -0.451422 -0.287937
1.295841 -0.503144 0.072852
1.189511 -0.462098 -0.248052
1.209663 -0.470169 -0.205555
1.232265 -0.478954 -0.162330
1.236710 -0.480930 -0.116091
1.276876 -0.496806 -0.071805
1.287664 -0.501263 -0.024119
1.150051 -0.448617 -0.330771
1.307806 -0.510155 0.024503
1.170918 -0.456993 -0.290187
1.300542 -0.507583 0.073166
1.188703 -0.464173 -0.248052
1.221720 -0.477312 -0.207745
1.235125 -0.482549 -0.162817
1.235869 -0.483088 -0.116091
1.266706 -0.495397 -0.071282
1.283063 -0.502052 -0.024049
1.143871 -0.448508 -0.329218
1.299467 -0.509517 0.024364
1.170119 -0.459036 -0.290187
1.307092 -0.512770 0.073584
1.191546 -0.467681 -0.248815
1.208014 -0.474389 -0.205555
1.234281 -0.484704 -0.162817
1.240587 -0.487430 -0.116614
1.288145 -0.506375 -0.072538
1.287767 -0.506486 -0.024154
1.150275 -0.453337 -0.331288
1.289274 -0.508118 0.024189
1.167503 -0.460362 -0.289737
1.304337 -0.514318 0.073480
1.198033 -0.472642 -0.250341
1.203510 -0.475046 -0.204929
1.250051 -0.493417 -0.165011
1.241588 -0.490327 -0.116789
1.264969 -0.499816 -0.071282
1.285022 -0.507998 -0.024119
1.153075 -0.456767 -0.332324
1.303258 -0.516259 0.024468
1.164886 -0.461681 -0.289287
1.195381 -0.474009 -0.249960
1.211859 -0.480788 -0.206494
1.239962 -0.491937 -0.163792
1.253693 -0.497638 -0.118009
1.271520 -0.504971 -0.071700
1.293425 -0.513932 -0.024294
1.159455 -0.461637 -0.334394
1.296782 -0.516314 0.024364
1.167699 -0.465156 -0.290187
1.200023 -0.478275 -0.251105
1.212853 -0.483634 -0.206806
1.237258 -0.493365 -0.163549
1.247271 -0.497611 -0.117486
1.268782 -0.506449 -0.071596
1.292526 -0.516189 -0.024294
1.151473 -0.460789 -0.332324
1.301448 -0.520806 0.024468
1.174122 -0.470091 -0.291986
1.193719 -0.478179 -0.249960
1.223009 -0.490159 -0.208684
1.240080 -0.497001 -0.164036
1.246400 -0.499787 -0.117486
1.269750 -0.509407 -0.071700
1.282344 -0.514719 -0.024119
1.141705 -0.459194 -0.329735
1.304248 -0.524569 0.024538
1.182339 -0.475777 -0.294236
1.196525 -0.481728 -0.250723
1.222152 -0.492293 -0.208684
1.253941 -0.505098 -0.165986
1.238135 -0.498982 -0.116789
1.287382 -0.519091 -0.072747
1.288862 -0.519949 -0.024259
1.144485 -0.462634 -0.330771
1.172474 -0.474186 -0.291986
1.195682 -0.483815 -0.250723
1.210304 -0.489978 -0.206806
1.256738 -0.508776 -0.166474
1.244648 -0.504134 -0.117486
1.273517 -0.516086 -0.072014
1.291659 -0.523701 -0.024329
1.150834 -0.467539 -0.332841
1.168034 -0.474764 -0.291087
1.207567 -0.491079 -0.253394
1.214937 -0.494323 -0.207745
1.248493 -0.507976 -0.165499
1.240076 -0.504804 -0.117137
1.274464 -0.519061 -0.072119
1.298150 -0.528973 -0.024468
1.158959 -0.473198 -0.335429
1.174420 -0.479750 -0.292886
1.199438 -0.490214 -0.251868
1.217816 -0.497725 -0.208371
1.247604 -0.510154 -0.165499
1.246569 -0.509985 -0.117835
1.280950 -0.524311 -0.072538
1.280570 -0.524417 -0.024154
1.149195 -0.471554 -0.332841
1.175467 -0.482334 -0.293336
1.196851 -0.491352 -0.251486
1.231563 -0.505854 -0.210874
1.250384 -0.513840 -0.165986
1.245767 -0.511942 -0.117835
1.291208 -0.530880 -0.073166
1.274197 -0.524146 -0.024049
1.146667 -0.472622 -0.332324
1.176426 -0.485128 -0.293786
1.192362 -0.491943 -0.250723
1.221549 -0.504234 -0.209309
1.253245 -0.517318 -0.166474
1.241188 -0.512595 -0.117486
1.286588 -0.531607 -0.072956
1.282520 -0.530189 -0.024224
1.145840 -0.474623 -0.332324
1.171976 -0.485688 -0.292886
1.195128 -0.495527 -0.251486
1.218842 -0.505609 -0.208996
1.259675 -0.522547 -0.167448
1.247652 -0.517815 -0.118183
1.272746 -0.528490 -0.072224
1.294519 -0.537796 -0.024468
1.153928 -0.480334 -0.334912
1.171127 -0.487733 -0.292886
1.203323 -0.501388 -0.253394
1.221604 -0.509255 -0.209622
1.255097 -0.523217 -0.166961
1.244908 -0.519225 -0.118009
1.275508 -0.532249 -0.072433
1.323104 -0.552381 -0.025027
1.161999 -0.486075 -0.337500
1.175667 -0.492033 -0.294236
1.200635 -0.502729 -0.253013
1.235290 -0.517493 -0.212125
1.246858 -0.522339 -0.165986
1.251350 -0.524478 -0.118706
1.278261 -0.536019 -0.072642
1.150463 -0.483610 -0.334394
1.180195 -0.496351 -0.295586
1.192517 -0.501778 -0.251486
1.232564 -0.518882 -0.211812
1.249603 -0.526055 -0.166474
1.252269 -0.527434 -0.118880
1.277323 -0.538249 -0.072642
1.149617 -0.485617 -0.334394
1.184712 -0.500686 -0.296935
1.198873 -0.506917 -0.253013
1.229837 -0.520263 -0.211499
1.255996 -0.531329 -0.167448
1.240337 -0.524960 -0.117835
1.283739 -0.543593 -0.073061
1.152325 -0.489133 -0.335429
1.178456 -0.500467 -0.295586
1.203407 -0.511312 -0.254158
1.218019 -0.517771 -0.209622
1.258721 -0.535073 -0.167936
1.241253 -0.527903 -0.118009
1.268085 -0.539577 -0.072224
1.158577 -0.494175 -0.337500
1.173996 -0.500994 -0.294686
1.209735 -0.516495 -0.255684
1.224380 -0.523000 -0.210874
1.257785 -0.537269 -0.167936
1.243994 -0.531635 -0.118357
1.270815 -0.543360 -0.072433
1.159488 -0.496957 -0.338018
1.176701 -0.504578 -0.295586
1.207027 -0.517831 -0.255302
1.230819 -0.528038 -0.212125
1.253197 -0.537898 -0.167448
1.259540 -0.540881 -0.119926
1.277205 -0.548730 -0.072852
1.158619 -0.498980 -0.338018
1.179487 -0.507967 -0.296485
1.199001 -0.516619 -0.253776
1.237151 -0.533314 -0.213377
1.254079 -0.540870 -0.167692
1.240394 -0.534968 -0.118183
1.148969 -0.496965 -0.335429
1.185753 -0.513121 -0.298285
1.205304 -0.521831 -0.255302
1.228968 -0.532331 -0.212125
1.253228 -0.542840 -0.167692
1.244943 -0.539509 -0.118706
1.155186 -0.502050 -0.337500
1.181281 -0.513636 -0.297385
1.211592 -0.527067 -0.256829
1.228037 -0.534476 -0.212125
1.259559 -0.548195 -0.168667
1.234866 -0.537704 -0.117835
1.159620 -0.506384 -0.339053
1.180383 -0.515697 -0.297385
1.210670 -0.529181 -0.256829
1.227102 -0.536618 -0.212125
1.253144 -0.548006 -0.167936
1.241227 -0.543053 -0.118532
1.165810 -0.511512 -0.341124
1.179481 -0.517756 -0.297385
1.206150 -0.529714 -0.256066
1.233398 -0.541937 -0.213377
1.246734 -0.547797 -0.167205
1.243925 -0.546822 -0.118880
1.154310 -0.508871 -0.338018
1.182141 -0.521387 -0.298285
1.205224 -0.531818 -0.256066
1.230643 -0.543292 -0.213064
1.251224 -0.552377 -0.167936
1.306757 -0.577166 -0.124981
1.153420 -0.510884 -0.338018
1.188356 -0.526607 -0.300085
1.211473 -0.537104 -0.257592
1.233304 -0.547040 -0.213690
1.259331 -0.558585 -0.169155
1.156056 -0.514468 -0.339053
1.180314 -0.525510 -0.298285
1.214120 -0.540815 -0.258355
1.221617 -0.544154 -0.211812
1.260167 -0.561590 -0.169398
1.169266 -0.522793 -0.343194
1.183045 -0.528954 -0.299185
1.216853 -0.544325 -0.259119
1.226074 -0.548706 -0.212751
1.235632 -0.553243 -0.166230
1.175492 -0.527794 -0.345265
1.178565 -0.529421 -0.298285
1.208739 -0.543229 -0.257592
1.230520 -0.553276 -0.213690
1.238382 -0.556811 -0.166717
1.174569 -0.529845 -0.345265
1.188297 -0.536287 -0.300985
1.204210 -0.543722 -0.256829
1.234953 -0.557862 -0.214628
1.268163 -0.572864 -0.170861
1.168364 -0.529502 -0.343712
1.192683 -0.540774 -0.302334
1.215774 -0.551500 -0.259500
1.221386 -0.554302 -0.212438
1.170954 -0.533141 -0.344747
1.186417 -0.540431 -0.300985
1.209451 -0.551178 -0.258355
1.225809 -0.558892 -0.213377
1.173536 -0.536791 -0.345782
1.185472 -0.542501 -0.300985
1.215627 -0.556558 -0.259882
1.223035 -0.560208 -0.213064
1.183129 -0.543678 -0.348888
1.184524 -0.544570 -0.300985
1.205736 -0.554576 -0.257974
1.225645 -0.563993 -0.213690
1.169901 -0.540075 -0.345265
1.190648 -0.549905 -0.302784
1.202984 -0.555857 -0.257592
1.237210 -0.571933 -0.215880
1.170709 -0.542928 -0.345782
1.196758 -0.555263 -0.304584
1.200231 -0.557129 -0.257211
1.171511 -0.545787 -0.346300
1.188721 -0.554057 -0.302784
1.202815 -0.560882 -0.257974
1.174056 -0.549468 -0.347335
1.184223 -0.554478 -0.301884
1.208946 -0.566312 -0.259500
1.176592 -0.553160 -0.348370
1.186780 -0.558203 -0.302784
1.195521 -0.562569 -0.256829
1.172131 -0.553563 -0.347335
1.187566 -0.561106 -0.303234
1.192762 -0.563816 -0.256447
1.171163 -0.555608 -0.347335
1.193627 -0.566520 -0.305034
1.186456 -0.563371 -0.255302
1.173679 -0.559313 -0.348370
1.192636 -0.568603 -0.305034
1.179671 -0.564697 -0.350441
1.179339 -0.564792 -0.301884
1.178684 -0.566756 -0.350441
1.183719 -0.569177 -0.303234
1.174313 -0.566926 -0.349406
1.177460 -0.568699 -0.301884
1.164630 -0.564761 -0.346818
1.179972 -0.572455 -0.302784
1.177537 -0.573560 -0.350959
1.178971 -0.574513 -0.302784
1.169593 -0.572218 -0.348888
1.181467 -0.578283 -0.303684
1.182463 -0.581075 -0.353029
1.172785 -0.578863 -0.350441
1.164850 -0.577476 -0.348370
1.175945 -0.585536 -0.351994
1.195656 -0.597957 -0.358206
1.214623 0.371812 0.066571
1.170775 0.356378 0.021362
1.215270 0.369691 0.066571
1.194364 0.361282 0.021781
1.185324 0.358322 0.064897
1.123899 0.338684 -0.020489
1.137541 0.341928 0.020733
1.174471 0.352805 0.064269
1.107754 0.331921 -0.060605
1.174296 0.351636 -0.021397
1.174541 0.350816 0.021397
1.194223 0.356467 0.065315
1.094115 0.325962 -0.099880
1.119817 0.333407 -0.061233
1.125075 0.334758 -0.020489
1.182820 0.351041 0.021536
1.181440 0.350408 0.064583
1.083220 0.320659 -0.098835
1.124228 0.332585 -0.061442
1.171681 0.346401 -0.021327
1.187267 0.350107 0.021606
1.201208 0.353991 0.065629
1.106414 0.325635 -0.141612
1.087601 0.319892 -0.099183
1.132471 0.332875 -0.061861
1.160772 0.340973 -0.021117
1.172524 0.343537 0.021327
1.180739 0.345720 0.064478
1.099359 0.321476 -0.140637
1.107282 0.323582 -0.100926
1.133051 0.330898 -0.061861
1.176722 0.343429 -0.021397
1.163521 0.338695 0.021152
1.162163 0.338079 0.063431
1.099919 0.319556 -0.140637
1.103962 0.320731 -0.100578
1.133569 0.329118 -0.061861
1.169578 0.339351 -0.021257
1.175577 0.340203 0.021362
1.168448 0.337918 0.063745
1.044879 0.301984 -0.211416
1.115676 0.322235 -0.142587
1.135148 0.327644 -0.103367
1.147575 0.331014 -0.062594
1.154797 0.332878 -0.020978
1.166560 0.335387 0.021187
1.155599 0.332018 0.063013
1.045405 0.300160 -0.211416
1.122167 0.321988 -0.184906
1.147209 0.328957 -0.104413
1.175031 0.336713 -0.064059
1.139997 0.326458 -0.020699
1.161375 0.331703 0.021083
1.069999 0.305403 -0.256894
1.160018 0.331096 0.063222
1.068582 0.304797 -0.215996
1.118927 0.318946 -0.184280
1.132453 0.322587 -0.103018
1.154486 0.328646 -0.062908
1.142488 0.325016 -0.020733
1.072351 0.304253 -0.298677
1.167724 0.331313 0.021187
1.044283 0.296093 -0.250595
1.162516 0.329617 0.063327
1.057779 0.299721 -0.213706
1.113780 0.315378 -0.183341
1.136848 0.321696 -0.103367
1.139683 0.322283 -0.062070
1.154600 0.326283 -0.020943
1.087756 0.306574 -0.302818
1.172150 0.330360 0.021257
1.071059 0.301666 -0.256894
1.153477 0.324879 0.062803
1.073420 0.302129 -0.216759
1.135247 0.319318 -0.186783
1.127454 0.317126 -0.143806
