# This PCD file was generated using the MATLAB® pcwrite function
# from Computer Vision System Toolbox®.
# .PCD v.7 - Point Cloud Data file format
VERSION .7
FIELDS x y z
SIZE 4 4 4
TYPE F F F
COUNT 1 1 1
WIDTH 1708
HEIGHT 1
VIEWPOINT 0 0 0 1 0 0 0
POINTS 1708
DATA ascii
1.031930 0.360973 -0.252395
1.035973 0.362184 -0.213324
1.038704 0.362935 -0.174268
1.060678 0.370613 -0.137956
1.034546 0.361280 -0.095871
1.065423 0.371855 -0.059140
1.046019 0.364877 -0.019337
1.029021 0.358142 -0.291948
1.028877 0.357890 -0.251495
1.042166 0.362309 -0.214469
1.044870 0.363249 -0.175207
1.050073 0.364852 -0.136494
1.042704 0.362088 -0.096569
1.058524 0.367375 -0.058721
1.056100 0.366327 -0.019512
1.029645 0.356345 -0.291948
1.038646 0.359460 -0.253745
1.037168 0.358747 -0.213324
1.039901 0.359489 -0.174268
1.043203 0.360426 -0.135519
1.048921 0.362401 -0.097091
1.055323 0.364408 -0.058512
1.039662 0.358797 -0.019198
1.037510 0.357243 -0.294018
1.041115 0.358282 -0.254195
1.030367 0.354382 -0.211798
1.051736 0.361526 -0.176145
1.056909 0.363304 -0.137225
1.040130 0.357334 -0.096220
1.067292 0.366457 -0.059140
1.038395 0.356332 -0.019163
1.027166 0.351677 -0.290913
1.045426 0.357726 -0.255094
1.038414 0.355124 -0.213324
1.035542 0.353940 -0.173329
1.059419 0.362101 -0.137469
1.040752 0.355518 -0.096220
1.077381 0.367820 -0.059663
1.048478 0.357748 -0.019337
1.035093 0.352375 -0.292983
1.046049 0.355900 -0.255094
1.039032 0.353311 -0.213324
1.043640 0.354675 -0.174581
1.067631 0.362620 -0.138444
1.043258 0.354341 -0.096394
1.064782 0.361445 -0.058930
1.045314 0.354633 -0.019267
1.032107 0.349149 -0.291948
1.033746 0.349703 -0.251945
1.050807 0.355269 -0.215614
1.038643 0.350955 -0.173642
1.060739 0.358216 -0.137469
1.047712 0.353612 -0.096743
1.065474 0.359400 -0.058930
1.051677 0.354542 -0.019372
1.047364 0.352273 -0.296089
1.038110 0.348960 -0.252845
1.053347 0.353877 -0.215996
1.044871 0.351029 -0.174581
1.065127 0.357627 -0.137956
1.057771 0.354952 -0.097614
1.071780 0.359445 -0.059244
1.054191 0.353341 -0.019407
1.036984 0.346769 -0.292983
1.049746 0.351037 -0.255544
1.039006 0.347244 -0.212943
1.056724 0.352960 -0.176458
1.069515 0.357025 -0.138444
1.058328 0.353291 -0.097614
1.070449 0.357129 -0.059140
1.062332 0.354215 -0.019547
1.033862 0.343920 -0.291948
1.054056 0.350433 -0.256444
1.050789 0.349144 -0.215233
1.051715 0.349247 -0.175519
1.075727 0.357221 -0.139175
1.049488 0.348305 -0.096743
1.082445 0.359033 -0.059768
1.055356 0.349843 -0.019407
1.041797 0.344541 -0.294018
1.052815 0.347982 -0.255994
1.053261 0.347925 -0.215614
1.042943 0.344315 -0.173955
1.082003 0.357210 -0.139906
1.048202 0.345848 -0.096569
1.077380 0.355267 -0.059454
1.063562 0.350505 -0.019547
1.057078 0.347550 -0.298160
1.047867 0.344319 -0.254645
1.059463 0.347924 -0.216759
1.045420 0.343110 -0.174268
1.076967 0.353464 -0.139175
1.063949 0.348986 -0.097963
1.064713 0.349030 -0.058721
1.066073 0.349271 -0.019582
1.057683 0.345704 -0.298160
1.055876 0.344909 -0.256444
1.054469 0.344247 -0.215614
1.059162 0.345574 -0.176458
1.071921 0.349737 -0.138444
1.068345 0.348364 -0.098312
1.082411 0.352742 -0.059663
1.072385 0.349267 -0.019686
1.054610 0.342664 -0.297124
1.050916 0.341261 -0.255094
1.053201 0.341799 -0.215233
1.061643 0.344334 -0.176771
1.072529 0.347865 -0.138444
1.065161 0.345270 -0.097963
1.083025 0.350852 -0.059663
1.059676 0.343083 -0.019442
1.051530 0.339635 -0.296089
1.053364 0.340025 -0.255544
1.055664 0.340563 -0.215614
1.069763 0.344906 -0.178022
1.084471 0.349648 -0.139906
1.056280 0.340355 -0.097091
1.095043 0.352634 -0.060291
1.067887 0.343684 -0.019582
1.055800 0.338980 -0.297124
1.052101 0.337590 -0.255094
1.059996 0.339920 -0.216377
1.055314 0.338215 -0.175519
1.090750 0.349572 -0.140637
1.066360 0.341550 -0.097963
1.084243 0.347069 -0.059663
1.072294 0.343038 -0.019651
1.056390 0.337137 -0.297124
1.050832 0.335161 -0.254645
1.068070 0.340454 -0.217904
1.065314 0.339371 -0.177084
1.087576 0.346463 -0.140150
1.070751 0.340897 -0.098312
1.082944 0.344570 -0.059558
1.076702 0.342378 -0.019721
1.064342 0.337629 -0.299195
1.064418 0.337449 -0.257794
1.064919 0.337404 -0.217141
1.069612 0.338890 -0.177710
1.074932 0.340369 -0.138444
1.067546 0.337825 -0.097963
1.087352 0.343885 -0.059768
1.069672 0.338087 -0.019582
1.061245 0.334609 -0.298160
1.061230 0.334605 -0.256894
1.063575 0.335141 -0.216759
1.072086 0.337616 -0.178022
1.079311 0.339684 -0.138931
1.071876 0.337344 -0.098312
1.089796 0.342776 -0.059872
1.068294 0.335807 -0.019547
1.061770 0.332942 -0.298160
1.069251 0.335083 -0.258694
1.058538 0.331523 -0.215614
1.067018 0.333974 -0.177084
1.094999 0.342732 -0.140881
1.068660 0.334284 -0.097963
1.098018 0.343257 -0.060291
1.074604 0.335731 -0.019651
1.073415 0.334537 -0.301265
1.056810 0.329160 -0.255544
1.068488 0.332593 -0.217522
1.071372 0.333285 -0.177710
1.095596 0.340820 -0.140881
1.078755 0.335375 -0.098835
1.094801 0.340155 -0.060082
1.084738 0.336820 -0.019826
1.066616 0.330377 -0.299195
1.061106 0.328468 -0.256444
1.080320 0.334208 -0.219812
1.070064 0.330831 -0.177397
1.096189 0.338908 -0.140881
1.083145 0.334669 -0.099183
1.093485 0.337654 -0.059977
1.087234 0.335516 -0.019861
1.081962 0.333062 -0.303336
1.067265 0.328334 -0.257794
1.069642 0.328861 -0.217522
1.078193 0.331284 -0.178648
1.083496 0.332913 -0.139175
1.087537 0.333947 -0.099532
1.099800 0.337502 -0.060291
1.080171 0.331273 -0.019721
1.071457 0.327782 -0.300230
1.075291 0.328750 -0.259594
1.068337 0.326420 -0.217141
1.088216 0.332286 -0.180213
1.099264 0.335659 -0.141125
1.084307 0.330885 -0.099183
1.098477 0.335001 -0.060186
1.076922 0.328221 -0.019651
1.064635 0.323664 -0.298160
1.068405 0.324606 -0.257794
1.072662 0.325695 -0.217904
1.079343 0.327518 -0.178648
1.099848 0.333740 -0.141125
1.079163 0.327257 -0.098660
1.104795 0.334820 -0.060500
1.075579 0.325761 -0.019617
1.072595 0.324040 -0.300230
1.072701 0.323868 -0.258694
1.078868 0.325524 -0.219049
1.085529 0.327534 -0.179587
1.111832 0.335258 -0.142587
1.089271 0.328248 -0.099532
1.107290 0.333468 -0.060605
1.091465 0.328494 -0.019896
1.080560 0.324390 -0.302301
1.069475 0.321062 -0.257794
1.090660 0.327214 -0.221338
1.082315 0.324504 -0.178961
1.102908 0.330469 -0.141368
1.091694 0.327108 -0.099706
1.109725 0.332301 -0.060710
1.097727 0.328499 -0.020000
1.088473 0.324902 -0.304371
1.073769 0.320309 -0.258694
1.079941 0.321945 -0.219049
1.098025 0.327127 -0.181464
1.093913 0.325902 -0.140150
1.086534 0.323498 -0.099183
1.110304 0.330363 -0.060710
1.092549 0.324873 -0.019896
1.077925 0.319706 -0.301265
1.081800 0.320649 -0.260493
1.082384 0.320617 -0.219430
1.096700 0.324650 -0.181151
1.109708 0.328500 -0.142100
1.090918 0.322731 -0.099532
1.118540 0.330690 -0.061128
1.075854 0.317866 -0.019582
1.078482 0.317824 -0.301265
1.087966 0.320412 -0.261843
1.082942 0.318727 -0.219430
1.091580 0.321063 -0.180213
1.110279 0.326563 -0.142100
1.085745 0.319141 -0.099009
1.115283 0.327611 -0.060919
1.084082 0.318241 -0.019721
1.086451 0.318113 -0.303336
1.081043 0.316324 -0.260043
1.100456 0.321796 -0.222865
1.084554 0.316941 -0.178961
1.126091 0.329079 -0.144050
1.092038 0.318920 -0.099532
1.113936 0.325105 -0.060814
1.086556 0.316908 -0.019756
1.087005 0.316215 -0.303336
1.079722 0.313893 -0.259594
1.091589 0.317136 -0.220957
1.098385 0.318902 -0.181151
1.107600 0.321578 -0.141612
1.090680 0.316459 -0.099358
1.114501 0.323160 -0.060814
1.102473 0.319463 -0.020035
1.098690 0.317536 -0.306442
1.087757 0.314171 -0.261393
1.095914 0.316319 -0.221720
1.097042 0.316438 -0.180838
1.117696 0.322395 -0.142831
1.098888 0.316762 -0.100055
1.124660 0.323979 -0.061338
1.095342 0.315326 -0.019896
1.091815 0.313486 -0.304371
1.092050 0.313347 -0.262293
1.085141 0.311159 -0.219430
1.105188 0.316699 -0.182090
1.112532 0.318804 -0.142100
1.097524 0.314296 -0.099880
1.125223 0.322015 -0.061338
1.095891 0.313414 -0.019896
1.088645 0.310520 -0.303336
1.098217 0.313043 -0.263643
1.091347 0.310878 -0.220575
1.100040 0.313147 -0.181151
1.122633 0.319579 -0.143318
1.098071 0.312380 -0.099880
1.127705 0.320597 -0.061442
1.107977 0.314780 -0.020105
1.092903 0.309673 -0.304371
1.089387 0.308471 -0.261393
1.097555 0.310577 -0.221720
1.102485 0.311765 -0.181464
1.121279 0.317079 -0.143075
1.106283 0.312629 -0.100578
1.122496 0.317000 -0.061128
1.116223 0.315018 -0.020245
1.093442 0.307764 -0.304371
1.086172 0.305514 -0.260493
1.096205 0.308129 -0.221338
1.103028 0.309839 -0.181464
1.114186 0.312974 -0.142100
1.106827 0.310698 -0.100578
1.115356 0.312882 -0.060710
1.151430 0.322785 -0.020873
1.108861 0.310017 -0.308512
1.092334 0.305191 -0.261843
1.096741 0.306216 -0.221338
1.107372 0.308976 -0.182090
1.116643 0.311562 -0.142343
1.115045 0.310907 -0.101275
1.121672 0.312544 -0.061024
1.125022 0.313265 -0.020384
1.098232 0.304980 -0.305406
1.098498 0.304847 -0.263193
1.104841 0.306400 -0.222865
1.119332 0.310208 -0.183967
1.115272 0.309083 -0.142100
1.113665 0.308428 -0.101101
1.126066 0.311651 -0.061233
1.125567 0.311301 -0.020384
1.098763 0.303063 -0.305406
1.104664 0.304483 -0.264542
1.097804 0.302385 -0.221338
1.112200 0.306351 -0.182715
1.134949 0.312404 -0.144537
1.104597 0.303842 -0.100229
1.142015 0.313920 -0.062070
1.126108 0.309337 -0.020384
1.103017 0.302165 -0.306442
1.101382 0.301717 -0.263643
1.117213 0.305844 -0.225155
1.105111 0.302325 -0.181464
1.135492 0.310423 -0.144537
1.106995 0.302632 -0.100403
1.132873 0.309494 -0.061547
1.110946 0.302462 -0.308512
1.094386 0.297748 -0.261843
1.108272 0.301319 -0.223247
1.113262 0.302467 -0.182715
1.128316 0.306557 -0.143562
1.115212 0.302788 -0.101101
1.133411 0.307516 -0.061547
1.111472 0.300523 -0.308512
1.096785 0.296346 -0.262293
1.120169 0.302455 -0.225536
1.123324 0.303096 -0.184280
1.128849 0.304587 -0.143562
1.123434 0.302916 -0.101798
1.132018 0.305018 -0.061442
1.104532 0.296578 -0.306442
1.108594 0.297462 -0.264992
1.101732 0.295415 -0.221720
1.121944 0.300624 -0.183967
1.127462 0.302102 -0.143318
1.116262 0.298893 -0.101101
1.142195 0.305623 -0.061966
1.108781 0.295645 -0.307477
1.114760 0.297032 -0.266342
1.106041 0.294501 -0.222483
1.122467 0.298665 -0.183967
1.139497 0.303197 -0.144781
1.112931 0.295921 -0.100752
1.140797 0.303116 -0.061861
1.109295 0.293710 -0.307477
1.107741 0.293092 -0.264542
1.112247 0.294076 -0.223628
1.115347 0.294688 -0.182715
1.128509 0.298166 -0.143318
1.117299 0.294995 -0.101101
1.145187 0.302144 -0.062070
1.117280 0.293738 -0.309548
1.104482 0.290168 -0.263643
1.114657 0.292634 -0.224010
1.119681 0.293743 -0.183341
1.142469 0.299721 -0.145025
1.129376 0.296076 -0.102147
1.139916 0.298626 -0.061756
1.129006 0.294716 -0.312653
1.108758 0.289223 -0.264542
1.134164 0.295639 -0.227826
1.124015 0.292784 -0.183967
1.125701 0.293223 -0.142831
1.133747 0.295107 -0.102495
1.144301 0.297642 -0.061966
1.118298 0.289836 -0.309548
1.118693 0.289731 -0.266792
1.109970 0.287265 -0.222865
1.135999 0.293789 -0.185844
1.141586 0.295234 -0.144781
1.126544 0.291135 -0.101798
1.148687 0.296643 -0.062175
1.118803 0.287884 -0.309548
1.126746 0.289719 -0.268592
1.133288 0.291190 -0.227444
1.132683 0.290824 -0.185218
1.145945 0.294229 -0.145268
1.119331 0.287188 -0.101101
1.156942 0.296622 -0.062594
1.119303 0.285932 -0.309548
1.117810 0.285342 -0.266342
1.118576 0.285329 -0.224391
1.127447 0.287383 -0.184280
1.146457 0.292229 -0.145268
1.127554 0.287200 -0.101798
1.149715 0.292631 -0.062175
1.123546 0.284927 -0.310583
1.116417 0.282912 -0.265892
1.138104 0.288197 -0.228208
1.126032 0.284930 -0.183967
1.158512 0.293149 -0.146731
1.133848 0.286697 -0.102321
1.154097 0.291602 -0.062384
1.135282 0.285795 -0.313689
1.124468 0.282864 -0.267692
1.119565 0.281423 -0.224391
1.145686 0.287777 -0.187096
1.139769 0.286290 -0.144293
1.140144 0.286173 -0.102844
1.156541 0.290074 -0.062489
1.124534 0.281003 -0.310583
1.130632 0.282318 -0.269041
1.133388 0.282796 -0.227063
1.142303 0.285020 -0.186470
1.157602 0.288622 -0.146487
1.140642 0.284183 -0.102844
1.155108 0.287573 -0.062384
1.128772 0.279970 -0.311618
1.132966 0.281010 -0.269491
1.116681 0.276765 -0.223628
1.140882 0.282551 -0.186157
1.150396 0.284694 -0.145512
1.135285 0.280955 -0.102321
1.169130 0.289114 -0.063117
1.129211 0.278197 -0.311618
1.131562 0.278567 -0.269041
1.117162 0.274815 -0.223628
1.135618 0.279145 -0.185218
1.166264 0.286678 -0.147462
1.131903 0.278022 -0.101972
1.171573 0.287549 -0.063222
1.133448 0.277143 -0.312653
1.130154 0.276129 -0.268592
1.159599 0.283109 -0.232024
1.143780 0.279035 -0.186470
1.153262 0.281349 -0.145756
1.145937 0.279350 -0.103192
1.160430 0.282668 -0.062594
1.141439 0.276987 -0.314724
1.132528 0.274615 -0.269041
1.129563 0.273687 -0.225918
1.148105 0.277968 -0.187096
1.161469 0.281204 -0.146731
1.150296 0.278286 -0.103541
1.164804 0.281580 -0.062803
1.134408 0.273185 -0.312653
1.133006 0.272638 -0.269041
1.147218 0.275847 -0.229352
1.156271 0.277810 -0.188347
1.167749 0.280568 -0.147462
1.143030 0.274417 -0.102844
1.165293 0.279548 -0.062803
1.134883 0.271205 -0.312653
1.139166 0.272018 -0.270391
1.130511 0.269743 -0.225918
1.149068 0.273959 -0.187096
1.172099 0.279449 -0.147949
1.145446 0.272884 -0.103018
1.179381 0.280751 -0.063536
1.139114 0.270115 -0.313689
1.137743 0.269580 -0.269941
1.142443 0.270483 -0.228208
1.153389 0.272862 -0.187721
1.162926 0.275118 -0.146731
1.143981 0.270426 -0.102844
1.166262 0.275478 -0.062803
1.147106 0.269897 -0.315759
1.138211 0.267594 -0.269941
1.141002 0.268040 -0.227826
1.146171 0.269043 -0.186470
1.167269 0.273996 -0.147218
1.152211 0.270249 -0.103541
1.166741 0.273442 -0.062803
1.151338 0.268773 -0.316795
1.140574 0.266050 -0.270391
1.158676 0.270059 -0.231261
1.158183 0.269731 -0.188347
1.169679 0.272408 -0.147462
1.156561 0.269141 -0.103890
1.174998 0.273214 -0.063222
1.144277 0.265019 -0.314724
1.150530 0.266255 -0.272641
1.138105 0.263171 -0.227063
1.158652 0.267709 -0.188347
1.160482 0.268132 -0.146243
1.157030 0.267121 -0.103890
1.179365 0.272062 -0.063431
1.144738 0.263021 -0.314724
1.145295 0.262939 -0.271291
1.161525 0.266452 -0.231642
1.162968 0.266569 -0.188973
1.178362 0.270098 -0.148437
1.155552 0.264657 -0.103715
1.187626 0.271785 -0.063850
1.148962 0.261882 -0.315759
1.149552 0.261805 -0.272191
1.139017 0.259197 -0.227063
1.155727 0.262787 -0.187721
1.167218 0.265400 -0.146974
1.157955 0.263081 -0.103890
1.184203 0.268827 -0.063641
1.149418 0.259876 -0.315759
1.142404 0.258081 -0.270391
1.170109 0.264124 -0.233169
1.165818 0.262943 -0.189286
1.185107 0.267293 -0.149168
1.162300 0.261936 -0.104238
1.180774 0.265882 -0.063431
1.157409 0.259561 -0.317830
1.150459 0.257791 -0.272191
1.149494 0.257364 -0.228971
1.158564 0.259183 -0.188034
1.166200 0.260891 -0.146731
1.170533 0.261645 -0.104936
1.183185 0.264256 -0.063536
1.157861 0.257540 -0.317830
1.156614 0.257051 -0.273540
1.163357 0.258337 -0.231642
1.176371 0.261011 -0.190850
1.184095 0.262724 -0.148924
1.163207 0.257877 -0.104238
1.181695 0.261760 -0.063431
1.150762 0.253854 -0.315759
1.162770 0.256290 -0.274890
1.156137 0.254616 -0.230116
1.165250 0.256410 -0.188973
1.170981 0.257671 -0.147218
1.165601 0.256274 -0.104413
1.197756 0.263125 -0.064269
1.154978 0.252670 -0.316795
1.149889 0.251347 -0.271741
1.154662 0.252180 -0.229734
1.173416 0.256060 -0.190224
1.204400 0.262821 -0.151362
1.166047 0.254240 -0.104413
1.194310 0.260184 -0.064059
1.162969 0.252293 -0.318865
1.159849 0.251404 -0.273990
1.155100 0.250163 -0.229734
1.169999 0.253177 -0.189599
1.167993 0.252743 -0.146731
1.170383 0.253046 -0.104761
1.186954 0.256411 -0.063641
1.167185 0.251076 -0.319900
1.162191 0.249789 -0.274440
1.165133 0.250208 -0.231642
1.183959 0.254036 -0.191789
1.189782 0.255285 -0.149412
1.178616 0.252673 -0.105458
1.195211 0.256013 -0.064059
1.163843 0.248232 -0.318865
1.156908 0.246542 -0.273091
1.179009 0.251037 -0.234313
1.174696 0.250119 -0.190224
1.176635 0.250316 -0.147706
1.175157 0.249787 -0.105110
1.201517 0.255172 -0.064373
1.160494 0.245401 -0.317830
1.172546 0.247949 -0.276690
1.162114 0.245531 -0.230879
1.184795 0.250108 -0.191789
1.202320 0.253588 -0.150874
1.169700 0.246708 -0.104587
1.207780 0.254519 -0.064687
1.168441 0.245165 -0.319900
1.167255 0.244703 -0.275340
1.187521 0.248735 -0.235840
1.171695 0.245207 -0.189599
1.185230 0.248040 -0.148681
1.177929 0.246297 -0.105284
1.200402 0.250777 -0.064269
1.168867 0.243125 -0.319900
1.161956 0.241476 -0.273990
1.168731 0.242671 -0.232024
1.187595 0.246371 -0.192102
1.203155 0.249599 -0.150874
1.180308 0.244645 -0.105458
1.198882 0.248277 -0.064164
1.173074 0.241864 -0.320936
1.170011 0.241021 -0.275790
1.190305 0.244984 -0.236222
1.176414 0.241911 -0.190224
1.178311 0.242301 -0.147706
1.192443 0.244991 -0.106504
1.197357 0.245782 -0.064059
1.173494 0.239817 -0.320936
1.178067 0.240537 -0.277590
1.161876 0.237020 -0.230497
1.194255 0.243409 -0.193040
1.209854 0.246588 -0.151605
1.183107 0.240921 -0.105633
1.205613 0.245285 -0.064478
1.170124 0.237001 -0.319900
1.182305 0.239254 -0.278489
1.177683 0.238104 -0.233550
1.184996 0.239368 -0.191476
1.194716 0.241331 -0.149656
1.173761 0.236885 -0.104761
1.217786 0.245548 -0.065106
1.178112 0.236480 -0.321971
1.171257 0.234890 -0.275790
1.176171 0.235663 -0.233169
1.193160 0.238850 -0.192727
1.216547 0.243532 -0.152337
1.189802 0.237962 -0.106156
1.216254 0.243032 -0.065001
1.182313 0.235176 -0.323006
1.173576 0.233226 -0.276240
1.199689 0.238198 -0.237748
1.189700 0.235998 -0.192102
1.191657 0.236387 -0.149168
1.201942 0.238209 -0.107202
1.202962 0.238193 -0.064269
1.190303 0.234607 -0.325077
1.179718 0.232307 -0.277590
1.180840 0.232314 -0.233932
1.199801 0.235827 -0.193666
1.203755 0.236604 -0.150631
1.198446 0.235343 -0.106853
1.222975 0.239938 -0.065315
1.183126 0.231048 -0.323006
1.187772 0.231740 -0.279389
1.167754 0.227623 -0.231261
1.198272 0.233355 -0.193353
1.196372 0.232985 -0.149656
1.198855 0.233251 -0.106853
1.221431 0.237422 -0.065211
1.183528 0.228983 -0.323006
1.186261 0.229297 -0.278939
1.197065 0.231168 -0.236985
1.202557 0.232012 -0.193979
1.220166 0.235409 -0.152580
1.199260 0.231158 -0.106853
1.225766 0.236045 -0.065420
1.187720 0.227645 -0.324041
1.190488 0.227959 -0.279839
1.189753 0.227604 -0.235458
1.187438 0.226946 -0.191476
1.208876 0.231043 -0.151118
1.201619 0.229438 -0.107027
1.226176 0.233906 -0.065420
1.195708 0.227012 -0.326112
1.187054 0.225155 -0.278939
1.192077 0.225892 -0.235840
1.211123 0.229282 -0.195230
1.219030 0.230779 -0.152337
1.211806 0.229193 -0.107899
1.224620 0.231394 -0.065315
1.199899 0.225639 -0.327147
1.193191 0.224162 -0.280289
1.213695 0.227795 -0.240038
1.199872 0.224984 -0.193353
1.227235 0.230114 -0.153312
1.206329 0.225976 -0.107376
1.226985 0.229624 -0.065420
1.192694 0.222130 -0.325077
1.191665 0.221723 -0.279839
1.190928 0.221371 -0.235458
1.217743 0.226135 -0.196169
1.198359 0.222536 -0.149656
1.214557 0.225324 -0.108073
1.227384 0.227482 -0.065420
1.193080 0.220048 -0.325077
1.197799 0.220702 -0.281189
1.210621 0.222846 -0.239275
1.204536 0.221509 -0.193979
1.231936 0.226547 -0.153799
1.203191 0.221044 -0.107027
1.233673 0.226421 -0.065734
1.193462 0.217965 -0.325077
1.203934 0.219660 -0.282539
1.203282 0.219325 -0.237748
1.216581 0.221529 -0.195856
1.218659 0.221907 -0.152093
1.215336 0.221083 -0.108073
1.226206 0.222840 -0.065315
1.205247 0.217944 -0.328183
1.198563 0.216520 -0.281189
1.219120 0.220013 -0.240801
1.201376 0.216811 -0.193353
1.236626 0.222950 -0.154287
1.215720 0.218962 -0.108073
1.234455 0.222114 -0.065734
1.205626 0.215840 -0.328183
1.196983 0.214293 -0.280739
1.215599 0.217407 -0.240038
1.228976 0.219578 -0.197733
1.215517 0.216955 -0.151605
1.221947 0.218102 -0.108596
1.230870 0.219473 -0.065525
1.202159 0.213271 -0.327147
1.212706 0.214924 -0.284338
1.215976 0.215285 -0.240038
1.221539 0.216270 -0.196482
1.239314 0.219193 -0.154530
1.218402 0.215276 -0.108247
1.243053 0.219408 -0.066153
1.202529 0.211173 -0.327147
1.218800 0.214030 -0.285688
1.208578 0.212018 -0.238511
1.225807 0.214819 -0.197107
1.227962 0.214976 -0.153068
1.216776 0.213018 -0.108073
1.247331 0.218143 -0.066362
1.210509 0.210397 -0.329218
1.219209 0.211690 -0.285688
1.220589 0.211710 -0.240801
1.210646 0.209768 -0.194605
1.249851 0.216561 -0.155749
1.221109 0.211361 -0.108422
1.247747 0.215748 -0.066362
1.218490 0.209594 -0.331288
1.211894 0.208242 -0.283888
1.228696 0.210909 -0.242327
1.226586 0.210325 -0.197107
1.220879 0.209347 -0.152093
1.229331 0.210575 -0.109119
1.240247 0.212223 -0.065943
1.215045 0.206819 -0.330253
1.206492 0.205146 -0.282539
1.225192 0.208106 -0.241564
1.219161 0.206862 -0.195856
1.234942 0.209540 -0.153799
1.233626 0.209095 -0.109468
1.252431 0.212058 -0.066571
1.223024 0.205981 -0.332324
1.226066 0.206273 -0.287038
1.221681 0.205316 -0.240801
1.237053 0.207677 -0.198672
1.252926 0.210342 -0.155993
1.230059 0.206283 -0.109119
1.246890 0.208882 -0.066257
1.215760 0.202576 -0.330253
1.236035 0.205733 -0.289287
1.231721 0.204793 -0.242709
1.231567 0.204547 -0.197733
1.251333 0.207830 -0.155749
1.224520 0.203158 -0.108596
1.253164 0.207685 -0.066571
1.216111 0.200454 -0.330253
1.228701 0.202309 -0.287487
1.232076 0.202644 -0.242709
1.243618 0.204320 -0.199610
1.267364 0.208221 -0.157699
1.228805 0.201665 -0.108945
1.249582 0.204851 -0.066362
1.224086 0.199575 -0.332324
1.229052 0.200164 -0.287487
1.249868 0.203331 -0.246144
1.232274 0.200247 -0.197733
1.254010 0.203779 -0.155993
1.233089 0.200159 -0.109293
1.249938 0.202670 -0.066362
1.228247 0.198053 -0.333359
1.229400 0.198018 -0.287487
1.242468 0.199901 -0.244617
1.242373 0.199663 -0.199298
1.250443 0.200960 -0.155505
1.249174 0.200532 -0.110688
1.250290 0.200488 -0.066362
1.228591 0.195909 -0.333359
1.243215 0.198019 -0.290637
1.236998 0.196807 -0.243472
1.248573 0.198425 -0.200236
1.256674 0.199712 -0.156237
1.241651 0.197103 -0.109991
1.270364 0.201434 -0.067409
1.225114 0.193163 -0.332324
1.239709 0.195242 -0.289737
1.239279 0.194952 -0.243854
1.245014 0.195632 -0.199610
1.268787 0.199367 -0.157699
1.238056 0.194318 -0.109642
1.278606 0.200453 -0.067827
1.240720 0.193405 -0.336465
1.240048 0.193078 -0.289737
1.253197 0.194901 -0.246525
1.241450 0.192852 -0.198985
1.273056 0.197762 -0.158186
1.252175 0.194295 -0.110862
1.265138 0.196080 -0.067095
1.237237 0.190650 -0.335429
1.240383 0.190913 -0.289737
1.255476 0.193012 -0.246907
1.249594 0.191885 -0.200236
1.255740 0.192828 -0.155993
1.248574 0.191505 -0.110513
1.275350 0.195384 -0.067618
1.241387 0.189072 -0.336465
1.246494 0.189627 -0.291087
1.246106 0.189346 -0.244999
1.251880 0.190000 -0.200549
1.252150 0.190041 -0.155505
1.270575 0.192610 -0.112431
1.271739 0.192560 -0.067409
1.241716 0.186905 -0.336465
1.248750 0.187742 -0.291537
1.244493 0.186880 -0.244617
1.260024 0.188986 -0.201800
1.276037 0.191388 -0.158430
1.251205 0.187441 -0.110688
1.279974 0.191522 -0.067827
1.242040 0.184738 -0.336465
1.260641 0.187280 -0.294236
1.260353 0.187012 -0.247670
1.264260 0.187366 -0.202426
1.286187 0.190616 -0.159649
1.257443 0.186132 -0.111211
1.276355 0.188703 -0.067618
1.246183 0.183132 -0.337500
1.251326 0.183664 -0.291986
1.262620 0.185097 -0.248052
1.260676 0.184587 -0.201800
1.276697 0.186933 -0.158430
1.263680 0.184802 -0.111734
1.276683 0.186476 -0.067618
1.250325 0.181512 -0.338535
1.249716 0.181200 -0.291537
1.270713 0.184018 -0.249578
1.259010 0.182324 -0.201488
1.273092 0.184136 -0.157943
1.262029 0.182311 -0.111559
1.280960 0.184818 -0.067827
1.262113 0.180974 -0.341641
1.249999 0.179237 -0.291537
1.259340 0.180352 -0.247288
1.269103 0.181525 -0.203052
1.277342 0.182475 -0.158430
1.270203 0.181455 -0.112257
1.293112 0.184497 -0.068455
1.258571 0.178449 -0.340606
1.271534 0.180060 -0.296485
1.267429 0.179254 -0.248815
1.279198 0.180690 -0.204616
1.279593 0.180746 -0.158674
1.278409 0.180351 -0.112954
1.291454 0.181962 -0.068351
1.255054 0.175716 -0.339571
1.277636 0.178651 -0.297835
1.273573 0.177856 -0.249960
1.263860 0.176275 -0.202113
1.293669 0.180432 -0.160380
1.274776 0.177570 -0.112605
1.299683 0.180808 -0.068769
1.259186 0.174055 -0.340606
1.274085 0.175888 -0.296935
1.268047 0.174828 -0.248815
1.264166 0.174069 -0.202113
1.307747 0.180069 -0.162086
1.279031 0.175888 -0.112954
1.298018 0.178268 -0.068665
1.267144 0.172902 -0.342676
1.260874 0.171822 -0.293786
1.281967 0.174468 -0.251486
1.276212 0.173458 -0.203991
1.300192 0.176718 -0.161111
1.291182 0.175263 -0.114000
1.298327 0.176002 -0.068665
1.275102 0.171721 -0.344747
1.270829 0.170919 -0.296036
1.280324 0.171969 -0.251105
1.278470 0.171493 -0.204303
1.288693 0.172865 -0.159649
1.287537 0.172480 -0.113651
1.282795 0.171617 -0.067827
1.275400 0.169495 -0.344747
1.278852 0.169727 -0.297835
1.265052 0.167671 -0.248052
1.294434 0.171335 -0.206806
1.290961 0.170875 -0.159893
1.283885 0.169711 -0.113302
1.298933 0.171470 -0.068665
1.275694 0.167269 -0.344747
1.283011 0.168001 -0.298735
1.280916 0.167499 -0.251105
1.281020 0.167285 -0.204616
1.307004 0.170678 -0.161842
1.288131 0.167984 -0.113651
1.315075 0.171265 -0.069502
1.272152 0.164546 -0.343712
1.283302 0.165761 -0.298735
1.287048 0.166017 -0.252250
1.281310 0.165049 -0.204616
1.321082 0.170172 -0.163549
1.288422 0.165737 -0.113651
1.301505 0.167189 -0.068769
1.280102 0.163304 -0.345782
1.279724 0.163029 -0.297835
1.293179 0.164513 -0.253394
1.279637 0.162564 -0.204303
1.303654 0.165615 -0.161355
1.300569 0.164992 -0.114697
1.303776 0.165167 -0.068874
1.291886 0.162516 -0.348888
1.283873 0.161280 -0.298735
1.293464 0.162256 -0.253394
1.295599 0.162294 -0.206806
1.307880 0.163833 -0.161842
1.304808 0.163216 -0.115046
1.308026 0.163387 -0.069083
1.282582 0.159072 -0.346300
1.286087 0.159279 -0.299185
1.289848 0.159517 -0.252631
1.295880 0.160033 -0.206806
1.319985 0.163009 -0.163305
1.297182 0.159963 -0.114348
1.314256 0.161837 -0.069397
1.286693 0.157302 -0.347335
1.290231 0.157507 -0.300085
1.299869 0.158453 -0.254539
1.296157 0.157771 -0.206806
1.314355 0.159986 -0.162574
1.293503 0.157218 -0.114000
1.316519 0.159783 -0.069502
1.294637 0.155980 -0.349406
1.284700 0.154556 -0.298735
1.298194 0.155950 -0.254158
1.292508 0.155037 -0.206181
1.320546 0.158400 -0.163305
1.301689 0.155909 -0.114697
1.326712 0.158671 -0.070026
1.296826 0.153949 -0.349923
1.290773 0.153002 -0.300085
1.308213 0.154837 -0.256066
1.296700 0.153246 -0.206806
1.324763 0.156562 -0.163792
1.315809 0.155271 -0.115917
1.309135 0.154251 -0.069083
1.316280 0.153929 -0.355100
1.292974 0.150974 -0.300535
1.306531 0.152326 -0.255684
1.300890 0.151439 -0.207432
1.319119 0.153561 -0.163061
1.318057 0.153204 -0.116091
1.323290 0.153578 -0.069816
1.305032 0.150305 -0.351994
1.304851 0.150053 -0.303234
1.298993 0.149150 -0.254158
1.307040 0.149843 -0.208371
1.325301 0.151936 -0.163792
1.320302 0.151130 -0.116266
1.313634 0.150134 -0.069293
1.305292 0.148027 -0.351994
1.307048 0.147995 -0.303684
1.320710 0.149309 -0.258355
1.307299 0.147562 -0.208371
1.329510 0.150069 -0.164280
1.308685 0.147486 -0.115220
1.339696 0.150745 -0.070654
1.307469 0.145963 -0.352512
1.307304 0.145714 -0.303684
1.319018 0.146786 -0.257974
1.311481 0.145715 -0.208996
1.341607 0.149063 -0.165742
1.316861 0.146081 -0.115917
1.330031 0.147307 -0.070130
1.303881 0.143259 -0.351476
1.303682 0.143007 -0.302784
1.330981 0.145766 -0.260263
1.319589 0.144286 -0.210248
1.333972 0.145859 -0.164767
1.321076 0.144215 -0.116266
1.326315 0.144552 -0.069921
1.315653 0.142229 -0.354582
1.309742 0.141358 -0.304134
1.323426 0.142602 -0.258737
1.323766 0.142405 -0.210874
1.340146 0.144167 -0.165499
1.329249 0.142760 -0.116963
1.332523 0.142876 -0.070235
1.310136 0.139320 -0.353029
1.313863 0.139484 -0.305034
1.325625 0.140499 -0.259119
1.322024 0.140117 -0.210561
1.346317 0.142454 -0.166230
1.333459 0.140858 -0.117312
1.338729 0.141179 -0.070549
1.318063 0.137837 -0.355100
1.325709 0.138636 -0.307733
1.321939 0.138009 -0.258355
1.330125 0.138629 -0.211812
1.346564 0.140104 -0.166230
1.319807 0.137320 -0.116091
1.350869 0.140313 -0.071177
1.312513 0.135172 -0.353547
1.318195 0.135524 -0.305933
1.341708 0.137706 -0.262172
1.328400 0.136106 -0.211499
1.358631 0.139203 -0.167692
1.320045 0.135016 -0.116091
1.345151 0.137348 -0.070863
1.320435 0.133659 -0.355617
1.316491 0.133028 -0.305484
1.341946 0.135363 -0.262172
1.334532 0.134380 -0.212438
1.345046 0.135439 -0.165986
1.330190 0.133709 -0.116963
1.335452 0.134002 -0.070340
1.328355 0.132119 -0.357688
1.324478 0.131500 -0.307283
1.340227 0.132828 -0.261790
1.342628 0.132829 -0.213690
1.347256 0.133287 -0.166230
1.342318 0.132562 -0.118009
1.351585 0.133239 -0.071177
1.324738 0.129425 -0.356653
1.324705 0.129188 -0.307283
1.332640 0.129727 -0.260263
1.344824 0.130677 -0.214002
1.357365 0.131895 -0.167448
1.330649 0.129065 -0.116963
1.349827 0.130687 -0.071072
1.321116 0.126744 -0.355617
1.330748 0.127433 -0.308633
1.328956 0.127028 -0.259500
1.341117 0.127954 -0.213377
1.359570 0.129715 -0.167692
1.334839 0.127119 -0.117312
1.354030 0.128709 -0.071282
1.325182 0.124800 -0.356653
1.329028 0.124928 -0.308183
1.340904 0.125809 -0.261790
1.345272 0.125981 -0.214002
1.363747 0.127711 -0.168180
1.335059 0.124790 -0.117312
1.362207 0.127088 -0.071700
1.317601 0.121535 -0.305484
1.346986 0.124008 -0.262935
1.341555 0.123272 -0.213377
1.358037 0.124786 -0.167448
1.333290 0.122278 -0.117137
1.336571 0.122343 -0.070340
1.331397 0.120464 -0.308633
1.337424 0.120774 -0.261027
1.341768 0.120930 -0.213377
1.364184 0.122950 -0.168180
1.347392 0.121200 -0.118357
1.358664 0.121975 -0.071491
1.327723 0.117796 -0.307733
1.339588 0.118612 -0.261408
1.359687 0.120153 -0.216192
1.358465 0.120045 -0.167448
1.343632 0.118498 -0.118009
1.341517 0.116660 -0.310882
1.330014 0.115426 -0.259500
1.348086 0.116757 -0.214315
1.372516 0.118873 -0.169155
1.343837 0.116152 -0.118009
1.357252 0.115642 -0.314482
1.334126 0.113437 -0.260263
1.354193 0.114905 -0.215254
1.374699 0.116645 -0.169398
1.348009 0.114143 -0.118357
1.407943 0.117487 -0.326179
1.328452 0.110619 -0.259119
1.360297 0.113032 -0.216192
1.366988 0.113588 -0.168423
1.356148 0.112450 -0.119055
1.371692 0.111810 -0.267514
1.356555 0.110337 -0.215567
1.371141 0.111523 -0.168911
1.356342 0.110082 -0.119055
1.422768 0.113473 -0.277436
1.370529 0.109067 -0.217757
1.369355 0.108973 -0.168667
1.356532 0.107715 -0.119055
1.369543 0.106583 -0.168667
1.358705 0.105501 -0.119229
1.385562 0.105397 -0.170617
1.354913 0.102828 -0.118880
1.361052 0.100905 -0.119403
1.363213 0.098673 -0.119578
0.721653 0.603610 -0.252090
0.733191 0.613261 0.016685
0.719098 0.601259 -0.216403
0.720147 0.602136 0.049196
0.724559 0.605611 -0.183558
0.732064 0.611884 -0.151116
0.737295 0.616038 -0.117970
0.730939 0.610510 -0.083321
0.735898 0.614434 -0.050243
0.738438 0.616337 -0.016789
0.713801 0.594928 -0.248984
0.748085 0.623502 0.016999
0.712556 0.593890 -0.214153
0.722731 0.602157 0.049300
0.710426 0.591905 -0.179742
0.734649 0.611870 -0.151429
0.741421 0.617290 -0.118457
0.721179 0.600437 -0.082101
0.738398 0.614555 -0.050347
0.733257 0.610060 -0.016650
0.714735 0.593806 -0.248984
0.735221 0.610826 0.016685
0.733080 0.608832 -0.220002
0.729822 0.606126 0.049719
0.717500 0.595680 -0.181269
0.728116 0.604279 -0.149864
0.737807 0.612322 -0.117726
0.722226 0.599178 -0.082101
0.745619 0.618365 -0.050766
0.735860 0.610056 -0.016685
0.721722 0.597485 -0.251054
0.736286 0.609542 0.016685
0.719129 0.595127 -0.215503
0.732417 0.606124 0.049824
0.726102 0.600684 -0.183177
0.726125 0.600489 -0.149238
0.741934 0.613563 -0.118213
0.720199 0.595377 -0.081752
0.738999 0.610702 -0.050243
0.740007 0.611317 -0.016754
0.722764 0.596225 -0.251054
0.737348 0.608256 0.016685
0.717160 0.591391 -0.214603
0.727311 0.599762 0.049405
0.724120 0.596919 -0.182413
0.736318 0.606758 -0.151116
0.743004 0.612267 -0.118213
0.724313 0.596653 -0.082101
0.736980 0.606872 -0.050033
0.744161 0.612567 -0.016824
0.723803 0.594962 -0.251054
0.743043 0.610777 0.016789
0.731742 0.601273 -0.218652
0.722184 0.593419 0.048986
0.726678 0.596900 -0.182795
0.734323 0.602965 -0.150490
0.744071 0.610970 -0.118213
0.728433 0.597916 -0.082449
0.744214 0.610652 -0.050452
0.742136 0.608731 -0.016754
0.727830 0.596146 -0.252090
0.748749 0.613281 0.016894
0.723743 0.592588 -0.215953
0.734036 0.601015 0.049719
0.723160 0.591900 -0.181650
0.743018 0.607937 -0.152054
0.745136 0.609670 -0.118213
0.727933 0.595382 -0.082275
0.742186 0.606824 -0.050243
0.738553 0.603638 -0.016650
0.722883 0.589989 -0.250019
0.743622 0.606915 0.016754
0.729306 0.595020 -0.217303
0.736631 0.600996 0.049824
0.728757 0.594360 -0.182795
0.739485 0.602895 -0.151116
0.749276 0.610877 -0.118701
0.722794 0.589076 -0.081578
0.747890 0.609312 -0.050557
0.747358 0.608662 -0.016824
0.723911 0.588727 -0.250019
0.749334 0.609402 0.016859
0.728831 0.592517 -0.216853
0.731480 0.594670 0.049405
0.734364 0.596801 -0.183940
0.734403 0.596621 -0.149864
0.750341 0.609569 -0.118701
0.730007 0.592838 -0.082275
0.748952 0.608006 -0.050557
0.748419 0.607356 -0.016824
0.727939 0.589895 -0.251054
0.744182 0.603057 0.016719
0.717750 0.581431 -0.213254
0.737173 0.597164 0.049719
0.732353 0.593047 -0.183177
0.738514 0.597824 -0.150490
0.759119 0.614503 -0.119919
0.732589 0.592816 -0.082449
0.740695 0.599161 -0.049929
0.760362 0.614851 -0.017068
0.737986 0.595905 -0.254160
0.753012 0.608039 0.016894
0.733928 0.592417 -0.217753
0.733552 0.592113 0.049405
0.728803 0.588070 -0.182032
0.744169 0.600255 -0.151429
0.741649 0.598222 -0.116995
0.738276 0.595288 -0.082972
0.749515 0.604134 -0.050452
0.747420 0.602231 -0.016754
0.729994 0.587350 -0.251054
0.750957 0.604216 0.016824
0.730405 0.587471 -0.216403
0.739253 0.594587 0.049719
0.734418 0.590488 -0.183177
0.748295 0.601430 -0.152054
0.751976 0.604388 -0.118457
0.729995 0.586512 -0.081926
0.747453 0.600324 -0.050243
0.748470 0.600926 -0.016754
0.728004 0.583658 -0.250019
0.755130 0.605406 0.016894
0.732950 0.587414 -0.216853
0.741847 0.594545 0.049824
0.736980 0.590433 -0.183558
0.743176 0.595184 -0.150803
0.759227 0.608038 -0.119432
0.727907 0.582746 -0.081578
0.751619 0.601515 -0.050452
0.755764 0.604615 -0.016894
0.735059 0.587210 -0.252090
0.749937 0.599095 0.016754
0.730929 0.583702 -0.215953
0.739763 0.590757 0.049614
0.730338 0.583021 -0.181650
0.747302 0.596350 -0.151429
0.760287 0.606712 -0.119432
0.732038 0.583960 -0.081926
0.758914 0.605183 -0.050871
0.756818 0.603295 -0.016894
0.736082 0.585926 -0.252090
0.754110 0.600276 0.016824
0.728896 0.579998 -0.215053
0.747044 0.594439 0.050033
0.745183 0.592745 -0.185085
0.751434 0.597504 -0.152054
0.755130 0.600443 -0.118457
0.736175 0.585161 -0.082275
0.750587 0.596402 -0.050243
0.759435 0.603217 -0.016929
0.734077 0.582240 -0.251054
0.752023 0.596474 0.016754
0.725327 0.575093 -0.213703
0.738691 0.585689 0.049405
0.740062 0.586566 -0.183558
0.744734 0.590058 -0.150490
0.751509 0.595425 -0.117726
0.741881 0.587586 -0.082798
0.751626 0.595091 -0.050243
0.755783 0.598168 -0.016824
0.738123 0.583353 -0.252090
0.767183 0.606319 0.017068
0.750795 0.593155 -0.220902
0.741279 0.585637 0.049510
0.733380 0.579190 -0.181650
0.750414 0.592429 -0.151429
0.758779 0.599033 -0.118701
0.736649 0.581353 -0.082101
0.757368 0.597490 -0.050557
0.750545 0.591895 -0.016685
0.733069 0.577283 -0.250019
0.754100 0.593845 0.016754
0.742642 0.584612 -0.218203
0.748577 0.589284 0.049929
0.735933 0.579122 -0.182032
0.751447 0.591118 -0.151429
0.758263 0.596480 -0.118457
0.732965 0.576372 -0.081578
0.763120 0.599870 -0.050871
0.761011 0.597997 -0.016894
0.737116 0.578388 -0.251054
0.755136 0.592528 0.016754
0.740594 0.580909 -0.217303
0.755890 0.592907 0.050347
0.749302 0.587528 -0.185085
0.746157 0.585062 -0.150177
0.765553 0.600054 -0.119432
0.740242 0.580007 -0.082275
0.759449 0.594842 -0.050557
0.762054 0.596668 -0.016894
0.741167 0.579481 -0.252090
0.759319 0.593673 0.016824
0.735365 0.574944 -0.215503
0.750629 0.586667 0.049929
0.754865 0.589978 -0.186230
0.754960 0.589839 -0.151741
0.760341 0.593830 -0.118457
0.744293 0.581297 -0.082624
0.758808 0.592420 -0.050452
0.775602 0.605313 -0.017173
0.745125 0.580690 -0.253125
0.766560 0.597396 0.016964
0.751740 0.585636 -0.220002
0.746823 0.581805 0.049614
0.741953 0.577803 -0.182795
0.754429 0.587307 -0.151429
0.755007 0.587757 -0.117482
0.745306 0.579997 -0.082624
0.759841 0.591094 -0.050452
0.762450 0.592910 -0.016859
0.743085 0.577019 -0.252090
0.773919 0.600963 0.017103
0.746604 0.579543 -0.218203
0.744682 0.578051 0.049405
0.736756 0.571693 -0.181269
0.761697 0.590833 -0.152680
0.765443 0.593738 -0.118945
0.744743 0.577474 -0.082449
0.765607 0.593438 -0.050766
0.758741 0.587904 -0.016754
0.744091 0.575722 -0.252090
0.762315 0.589822 0.016824
0.747614 0.578239 -0.218203
0.752009 0.581639 0.049824
0.745518 0.576410 -0.183177
0.756475 0.584670 -0.151429
0.768049 0.593616 -0.119188
0.742596 0.573737 -0.082101
0.768223 0.593321 -0.050871
0.762932 0.589023 -0.016824
0.742035 0.572063 -0.251054
0.764926 0.589711 0.016859
0.747079 0.575744 -0.217753
0.759352 0.585202 0.050243
0.752744 0.579901 -0.184703
0.757494 0.583349 -0.151429
0.775375 0.597119 -0.120163
0.746754 0.574870 -0.082449
0.764508 0.588326 -0.050557
0.770298 0.592568 -0.016964
0.749160 0.575474 -0.253125
0.767541 0.589593 0.016894
0.748082 0.574439 -0.217753
0.755619 0.580227 0.049929
0.752198 0.577391 -0.184321
0.764780 0.586836 -0.152680
0.781140 0.599390 -0.120894
0.749337 0.574779 -0.082624
0.763949 0.585775 -0.050452
0.772919 0.592439 -0.016999
0.756300 0.578863 -0.255196
0.776508 0.594330 0.017068
0.739798 0.566028 -0.215053
0.753458 0.576479 0.049719
0.750086 0.573691 -0.183558
0.761095 0.581901 -0.151741
0.766415 0.585969 -0.118457
0.753505 0.575890 -0.082972
0.763383 0.583228 -0.050347
0.777130 0.593516 -0.017068
0.748092 0.570513 -0.252090
0.782314 0.596612 0.017173
0.756282 0.576550 -0.219552
0.756052 0.576374 0.049824
0.746401 0.568811 -0.182413
0.763681 0.581769 -0.152054
0.770595 0.587036 -0.118945
0.751339 0.572160 -0.082624
0.773935 0.589154 -0.050975
0.771799 0.587315 -0.016929
0.749087 0.569206 -0.252090
0.776986 0.590406 0.017034
0.755736 0.574051 -0.219102
0.761828 0.578678 0.050138
0.755211 0.573444 -0.184321
0.764695 0.580435 -0.152054
0.770037 0.584490 -0.118701
0.742813 0.563622 -0.081578
0.774962 0.587802 -0.050975
0.776010 0.588384 -0.016999
0.750079 0.567898 -0.252090
0.773232 0.585428 0.016929
0.756736 0.572730 -0.219102
0.762837 0.577348 0.050138
0.753079 0.569756 -0.183558
0.759405 0.574333 -0.150803
0.782139 0.591527 -0.120407
0.751743 0.568332 -0.082449
0.769613 0.581632 -0.050557
0.777036 0.587028 -0.016999
0.757238 0.571242 -0.254160
0.774253 0.584077 0.016929
0.749955 0.565543 -0.216853
0.759059 0.572408 0.049824
0.766614 0.577895 -0.186611
0.768294 0.578951 -0.152367
0.776829 0.585383 -0.119432
0.755916 0.569417 -0.082798
0.767436 0.577885 -0.050347
0.778059 0.585671 -0.016999
0.764411 0.574562 -0.256231
0.772074 0.580322 0.016859
0.768079 0.577109 -0.221802
0.753670 0.566283 0.049405
0.758203 0.569482 -0.184321
0.770883 0.578795 -0.152680
0.771500 0.579258 -0.118457
0.761689 0.571685 -0.083321
0.771639 0.578942 -0.050557
0.777481 0.583113 -0.016964
0.759227 0.568595 -0.254160
0.782689 0.586166 0.017068
0.759725 0.568761 -0.219102
0.759454 0.568558 0.049719
0.756052 0.565805 -0.183558
0.779801 0.583366 -0.154244
0.775688 0.580289 -0.118945
0.754708 0.564388 -0.082449
0.774248 0.578790 -0.050661
0.772090 0.576967 -0.016824
0.750929 0.560337 -0.251054
0.783711 0.584799 0.017068
0.762278 0.568599 -0.219552
0.763647 0.569619 0.049929
0.757038 0.564485 -0.183558
0.769731 0.573740 -0.152054
0.781475 0.582494 -0.119676
0.755692 0.563070 -0.082449
0.778461 0.579824 -0.050871
0.776303 0.578007 -0.016894
0.758107 0.563636 -0.253125
0.778312 0.578658 0.016929
0.757013 0.562618 -0.217753
0.772655 0.574243 0.050452
0.762750 0.566675 -0.184703
0.767560 0.570040 -0.151429
0.796833 0.591781 -0.121869
0.758273 0.562938 -0.082624
0.773056 0.573704 -0.050452
0.777311 0.576651 -0.016894
0.759090 0.562312 -0.253125
0.779320 0.577298 0.016929
0.765824 0.567095 -0.220002
0.768841 0.569328 0.050138
0.766894 0.567679 -0.185466
0.770141 0.569875 -0.151741
0.778716 0.576220 -0.118945
0.765661 0.566353 -0.083321
0.777268 0.574728 -0.050661
0.787965 0.582425 -0.017103
0.766287 0.565575 -0.255196
0.783544 0.578312 0.016999
0.758973 0.559972 -0.217753
0.761797 0.562056 0.049614
0.767884 0.566340 -0.185466
0.775905 0.572046 -0.152680
0.781319 0.576037 -0.119188
0.769857 0.567380 -0.083670
0.778270 0.573371 -0.050661
0.788980 0.581049 -0.017103
0.764160 0.561948 -0.254160
0.790996 0.581683 0.017138
0.780360 0.573651 -0.223601
0.761168 0.559543 0.049510
0.756215 0.555698 -0.182413
0.783270 0.575369 -0.153932
0.785522 0.577024 -0.119676
0.762816 0.560139 -0.082798
0.785710 0.576739 -0.051080
0.781932 0.573756 -0.016929
0.758907 0.556046 -0.252090
0.780719 0.572028 0.016894
0.771928 0.565379 -0.220902
0.765104 0.560177 -0.184321
0.774708 0.567001 -0.152054
0.786528 0.575652 -0.119676
0.760577 0.556454 -0.082449
0.783491 0.573008 -0.050871
0.782932 0.572391 -0.016929
0.766117 0.559277 -0.254160
0.783332 0.571844 0.016929
0.760320 0.554841 -0.217303
0.769252 0.561155 -0.185085
0.774101 0.564484 -0.151741
0.798759 0.582465 -0.121382
0.766377 0.558647 -0.082972
0.776418 0.565760 -0.050347
0.793628 0.578087 -0.017138
0.767092 0.557939 -0.254160
0.790797 0.575181 0.017068
0.764439 0.555806 -0.218203
0.776583 0.564428 -0.186611
0.779879 0.566616 -0.152680
0.785321 0.570569 -0.119188
0.767350 0.557309 -0.082972
0.782253 0.567923 -0.050661
0.797873 0.579050 -0.017208
0.771194 0.558866 -0.255196
0.788562 0.571452 0.016999
0.762252 0.552184 -0.217303
0.771207 0.558466 -0.185085
0.780867 0.565253 -0.152680
0.791140 0.572689 -0.119919
0.774779 0.560640 -0.083670
0.786480 0.568898 -0.050871
0.790780 0.571798 -0.017034
0.772168 0.557520 -0.255196
0.799285 0.577099 0.017208
0.769535 0.555415 -0.219102
0.765812 0.552524 -0.183558
0.785057 0.566201 -0.153306
0.790528 0.570147 -0.119676
0.775756 0.559287 -0.083670
0.790713 0.569860 -0.051080
0.790154 0.569249 -0.016999
0.766866 0.551659 -0.253125
0.797044 0.573368 0.017138
0.772086 0.555209 -0.219552
0.769963 0.553479 -0.184321
0.789252 0.567135 -0.153932
0.799582 0.574558 -0.120894
0.771877 0.554445 -0.083147
0.793328 0.569644 -0.051185
0.794395 0.570201 -0.017068
0.770969 0.552570 -0.254160
0.788292 0.564986 0.016929
0.768301 0.550455 -0.218203
0.788485 0.564709 -0.188519
0.780604 0.558857 -0.152054
0.792513 0.567384 -0.119676
0.769602 0.550778 -0.082798
0.791072 0.565935 -0.050975
0.797016 0.569976 -0.017103
0.778221 0.555715 -0.256231
0.795786 0.568258 0.017068
0.770847 0.550246 -0.218652
0.781479 0.557630 -0.186611
0.783088 0.558778 -0.152367
0.809663 0.577527 -0.122113
0.775429 0.552904 -0.083321
0.790432 0.563394 -0.050871
0.806152 0.574387 -0.017278
0.779190 0.554355 -0.256231
0.796777 0.566868 0.017068
0.770122 0.547904 -0.218203
0.775954 0.551850 -0.185085
0.785672 0.558555 -0.152680
0.789635 0.561164 -0.118945
0.777921 0.552839 -0.083495
0.796201 0.565622 -0.051185
0.803793 0.570804 -0.017208
0.773756 0.548661 -0.254160
0.804191 0.570242 0.017208
0.780616 0.553321 -0.220902
0.773713 0.548225 -0.184321
0.796318 0.564033 -0.154557
0.793755 0.562218 -0.119432
0.777258 0.550330 -0.083321
0.803708 0.568847 -0.051603
0.794993 0.562470 -0.016999
0.774712 0.547310 -0.254160
0.805185 0.568838 0.017208
0.783173 0.553082 -0.221352
0.782688 0.552535 -0.186230
0.787617 0.555809 -0.152680
0.807710 0.569988 -0.121382
0.776590 0.547824 -0.083147
0.798171 0.562839 -0.051185
0.802512 0.565690 -0.017138
0.781985 0.550404 -0.256231
0.802906 0.565130 0.017138
0.779356 0.548350 -0.220002
0.786862 0.553427 -0.186993
0.791818 0.556706 -0.153306
0.800584 0.562869 -0.120163
0.779175 0.547613 -0.083321
0.792615 0.556852 -0.050766
0.810044 0.568886 -0.017278
0.782945 0.549039 -0.256231
0.800617 0.561432 0.017068
0.773929 0.542515 -0.218203
0.789435 0.553179 -0.187374
0.792789 0.555323 -0.153306
0.798314 0.559193 -0.119676
0.785026 0.549681 -0.083844
0.801767 0.561195 -0.051289
0.811035 0.567471 -0.017278
0.787069 0.549884 -0.257266
0.811431 0.566905 0.017278
0.779667 0.544510 -0.219552
0.780740 0.545058 -0.185085
0.793757 0.553939 -0.153306
0.802544 0.560071 -0.120163
0.792520 0.552869 -0.084541
0.801107 0.558652 -0.051185
0.805462 0.561481 -0.017138
0.788028 0.548510 -0.257266
0.812419 0.565488 0.017278
0.795013 0.553166 -0.223601
0.781691 0.543694 -0.185085
0.801210 0.557063 -0.154557
0.813300 0.565469 -0.121626
0.785303 0.545801 -0.083670
0.805361 0.559532 -0.051394
0.806441 0.560074 -0.017138
0.782633 0.542730 -0.255196
0.811762 0.562930 0.017243
0.791173 0.548447 -0.222252
0.785866 0.544565 -0.185848
0.794061 0.550040 -0.152993
0.802862 0.556136 -0.119919
0.782979 0.542160 -0.083321
0.809621 0.560399 -0.051603
0.809062 0.559803 -0.017173
0.783580 0.541363 -0.255196
0.811098 0.560375 0.017208
0.784111 0.541528 -0.220002
0.793278 0.547655 -0.187374
0.793395 0.547531 -0.152680
0.821804 0.567136 -0.122601
0.785564 0.541924 -0.083495
0.808953 0.557851 -0.051499
0.811684 0.559526 -0.017208
0.794071 0.546567 -0.258301
0.813722 0.560093 0.017243
0.794688 0.546787 -0.222702
0.794232 0.546269 -0.187374
0.805743 0.553979 -0.154870
0.808070 0.555579 -0.120407
0.791434 0.543938 -0.084018
0.814864 0.559832 -0.051813
0.815956 0.560372 -0.017278
0.798211 0.547365 -0.259337
0.816347 0.559802 0.017278
0.781175 0.535482 -0.218652
0.785467 0.538224 -0.185085
0.803450 0.550339 -0.154244
0.810677 0.555290 -0.120651
0.795671 0.544807 -0.084367
0.805951 0.551640 -0.051185
0.808681 0.553301 -0.017103
0.792784 0.541612 -0.257266
0.820625 0.560633 0.017348
0.803028 0.548406 -0.224501
0.781541 0.533531 -0.183940
0.807672 0.551163 -0.154870
0.806726 0.550517 -0.119919
0.791682 0.540050 -0.083844
0.820114 0.559234 -0.052022
0.806341 0.549636 -0.017034
0.787340 0.535880 -0.255196
0.813337 0.553574 0.017173
0.794317 0.540426 -0.221802
0.790588 0.537687 -0.185848
0.803732 0.546421 -0.153932
0.824101 0.560270 -0.122357
0.789328 0.536427 -0.083495
0.817785 0.555557 -0.051813
0.817225 0.554969 -0.017243
0.794670 0.538841 -0.257266
0.809337 0.548787 0.017068
0.787194 0.533572 -0.219552
0.791525 0.536306 -0.185848
0.807956 0.547233 -0.154557
0.818504 0.554377 -0.121382
0.790263 0.535049 -0.083495
0.822061 0.556368 -0.052022
0.818192 0.553542 -0.017243
0.795609 0.537454 -0.257266
0.815264 0.550731 0.017173
0.797814 0.538740 -0.222252
0.795714 0.537121 -0.186611
0.805634 0.543612 -0.153932
0.824407 0.556279 -0.122113
0.792848 0.534782 -0.083670
0.809783 0.546000 -0.051185
0.829106 0.558819 -0.017452
0.802957 0.540379 -0.259337
0.816225 0.549308 0.017173
0.792285 0.532996 -0.220452
0.798280 0.536827 -0.186993
0.819697 0.551021 -0.156434
0.808902 0.543764 -0.119676
0.798741 0.536732 -0.084192
0.822340 0.552382 -0.051917
0.823440 0.552911 -0.017313
0.797480 0.534673 -0.257266
0.825487 0.553450 0.017348
0.793214 0.531613 -0.220452
0.792692 0.531062 -0.185466
0.810810 0.542995 -0.154557
0.814798 0.545666 -0.120407
0.796365 0.533120 -0.083844
0.821643 0.549835 -0.051813
0.819417 0.548138 -0.017208
0.791986 0.528989 -0.255196
0.821462 0.548677 0.017243
0.818451 0.546459 -0.227201
0.800149 0.534037 -0.186993
0.810113 0.540483 -0.154244
0.827308 0.551955 -0.122113
0.795637 0.530624 -0.083670
0.835896 0.557263 -0.052650
0.822037 0.547816 -0.017243
0.799342 0.531886 -0.257266
0.822419 0.547242 0.017243
0.795065 0.528841 -0.220452
0.799445 0.531552 -0.186611
0.809410 0.537975 -0.153932
0.818351 0.543917 -0.120651
0.794902 0.528132 -0.083495
0.820230 0.544753 -0.051603
0.831321 0.551911 -0.017418
0.803489 0.532625 -0.258301
0.820039 0.543596 0.017173
0.804110 0.532834 -0.222702
0.805282 0.533409 -0.187756
0.811995 0.537652 -0.154244
0.835850 0.553447 -0.123088
0.804130 0.532242 -0.084367
0.822845 0.544423 -0.051708
0.832283 0.550459 -0.017418
0.807642 0.533351 -0.259337
0.827662 0.546572 0.017313
0.795280 0.524988 -0.220002
0.802934 0.529840 -0.186993
0.814581 0.537321 -0.154557
0.815273 0.537778 -0.119919
0.803394 0.529741 -0.084192
0.833799 0.549581 -0.052336
0.828234 0.545705 -0.017313
0.808571 0.531941 -0.259337
0.835297 0.549523 0.017452
0.799451 0.525741 -0.220902
0.794015 0.521967 -0.184703
0.830375 0.545662 -0.157373
