# This PCD file was generated using the MATLAB® pcwrite function
# from Computer Vision System Toolbox®.
# .PCD v.7 - Point Cloud Data file format
VERSION .7
FIELDS x y z
SIZE 4 4 4
TYPE F F F
COUNT 1 1 1
WIDTH 1733
HEIGHT 1
VIEWPOINT 0 0 0 1 0 0 0
POINTS 1733
DATA ascii
1.071958 0.404845 -0.264542
1.279886 0.483374 0.071700
1.096544 0.413912 -0.227826
1.319722 0.498155 0.123413
1.116325 0.421156 -0.188973
1.346550 0.508013 0.176711
1.144103 0.431636 -0.150143
1.395498 0.526202 0.236216
1.170755 0.441458 -0.109468
1.401722 0.528269 0.291175
1.199859 0.452193 -0.067199
1.244443 0.468747 -0.023212
1.056064 0.396948 -0.302301
1.265360 0.475618 0.023596
1.070839 0.402289 -0.264093
1.267640 0.476222 0.070968
1.097265 0.411998 -0.227826
1.328051 0.498653 0.124110
1.117058 0.419207 -0.188973
1.351151 0.507057 0.177198
1.146713 0.430336 -0.150387
1.377919 0.516828 0.233087
1.173389 0.440114 -0.109642
1.400804 0.525133 0.290793
1.213738 0.455006 -0.067932
1.226533 0.459558 -0.022863
1.053136 0.393752 -0.301265
1.266188 0.473409 0.023596
1.069714 0.399737 -0.263643
1.270340 0.474708 0.071072
1.090625 0.407334 -0.226299
1.321453 0.493546 0.123413
1.125191 0.420020 -0.190224
1.352034 0.504698 0.177198
1.164200 0.434582 -0.152580
1.367714 0.510280 0.231210
1.151755 0.429708 -0.107550
1.409076 0.525431 0.292319
1.199559 0.447304 -0.067095
1.225460 0.456719 -0.022828
1.046579 0.389219 -0.299195
1.263264 0.469803 0.023526
1.081369 0.401943 -0.266342
1.271167 0.472491 0.071072
1.095015 0.406798 -0.227063
1.309239 0.486382 0.122192
1.122218 0.416680 -0.189599
1.356635 0.503719 0.177686
1.166818 0.433240 -0.152824
1.376010 0.510641 0.232462
1.156239 0.429083 -0.107899
1.402628 0.520240 0.290793
1.220936 0.452850 -0.068246
1.478133 0.548245 0.363971
1.231880 0.456664 -0.022932
1.047256 0.387392 -0.299195
1.262206 0.466905 0.023491
1.080242 0.399379 -0.265892
1.279483 0.473041 0.071491
1.103090 0.407608 -0.228589
1.313823 0.485477 0.122541
1.115532 0.411984 -0.188347
1.353788 0.499976 0.177198
1.148950 0.424326 -0.150387
1.384312 0.510974 0.233713
1.153248 0.425684 -0.107550
1.390641 0.513034 0.288122
1.202987 0.443805 -0.067199
1.462633 0.539594 0.359922
1.228922 0.453130 -0.022863
1.055183 0.388232 -0.301265
1.257389 0.462629 0.023386
1.073621 0.394803 -0.264093
1.276558 0.469429 0.071282
1.098271 0.403650 -0.227444
1.325889 0.487307 0.123587
1.125520 0.413442 -0.189911
1.339751 0.492136 0.175248
1.144099 0.420267 -0.149656
1.381493 0.507196 0.233087
1.165211 0.427791 -0.108596
1.400750 0.513988 0.290030
1.198134 0.439641 -0.066885
1.443448 0.529656 0.354973
1.237221 0.453738 -0.023002
1.059487 0.387718 -0.302301
1.261950 0.461809 0.023456
1.081629 0.395606 -0.265892
1.275499 0.466514 0.071177
1.100818 0.402407 -0.227826
1.326738 0.484992 0.123587
1.124385 0.410799 -0.189599
1.344337 0.491160 0.175736
1.148560 0.419632 -0.150143
1.378665 0.503429 0.232462
1.169699 0.427124 -0.108945
1.403489 0.512216 0.290411
1.197024 0.436865 -0.066781
1.433387 0.523127 0.352273
1.230497 0.448838 -0.022863
1.049270 0.381903 -0.299195
1.270271 0.462341 0.023596
1.082318 0.393718 -0.265892
1.268804 0.461556 0.070758
1.081223 0.393106 -0.223628
1.320092 0.479953 0.122890
1.126957 0.409510 -0.189911
1.356387 0.492880 0.177198
1.145559 0.416270 -0.149656
1.372115 0.498325 0.231210
1.159207 0.421001 -0.107899
1.402535 0.509096 0.290030
1.220313 0.442952 -0.068037
1.426970 0.517965 0.350474
1.227519 0.445325 -0.022793
1.046302 0.378756 -0.298160
1.261675 0.456720 0.023421
1.070176 0.387187 -0.262743
1.277120 0.462059 0.071177
1.092985 0.395223 -0.225918
1.309686 0.473583 0.121844
1.120239 0.404857 -0.188660
1.359112 0.491187 0.177442
1.150018 0.415620 -0.150143
1.371124 0.495258 0.230897
1.144949 0.413562 -0.106504
1.403422 0.506647 0.290030
1.207934 0.436074 -0.067304
1.418708 0.512165 0.348224
1.230175 0.443861 -0.022828
1.046962 0.376930 -0.298160
1.254944 0.451808 0.023282
1.074517 0.386638 -0.263643
1.277925 0.459829 0.071177
1.095520 0.393980 -0.226299
1.319885 0.474667 0.122715
1.119084 0.402234 -0.188347
1.354363 0.486800 0.176711
1.152610 0.414284 -0.150387
1.383141 0.496871 0.232775
1.162544 0.417625 -0.108073
1.398760 0.502206 0.288885
1.221852 0.438690 -0.068037
1.428770 0.512981 0.350474
1.236594 0.443740 -0.022932
1.051256 0.376404 -0.299195
1.257613 0.450291 0.023316
1.069686 0.382793 -0.262293
1.271203 0.454906 0.070758
1.105449 0.395373 -0.228208
1.316959 0.471021 0.122367
1.116064 0.398950 -0.187721
1.345864 0.481094 0.175492
1.142115 0.408262 -0.148924
1.380286 0.493127 0.232149
1.155766 0.412914 -0.107376
1.390390 0.496463 0.286977
1.201925 0.429169 -0.066885
1.424157 0.508521 0.349124
1.241134 0.442925 -0.023002
1.059191 0.377161 -0.301265
1.269700 0.452120 0.023526
1.074025 0.382231 -0.263193
1.275759 0.454026 0.070968
1.093189 0.388837 -0.225536
1.330920 0.473396 0.123587
1.122273 0.399182 -0.188660
1.352313 0.480740 0.176223
1.148438 0.408263 -0.149656
1.373699 0.488071 0.230897
1.165873 0.414231 -0.108247
1.396718 0.496250 0.288122
1.221494 0.433754 -0.067932
1.417697 0.503426 0.347324
1.226829 0.435407 -0.022723
1.052563 0.372732 -0.299195
1.272372 0.450570 0.023561
1.078298 0.381845 -0.264093
1.272783 0.450467 0.070758
1.090097 0.385810 -0.224773
1.316636 0.465987 0.122192
1.124830 0.397882 -0.188973
1.353067 0.478615 0.176223
1.145405 0.404934 -0.149168
1.370739 0.484596 0.230272
1.164643 0.411736 -0.108073
1.404986 0.496429 0.289648
1.197692 0.423185 -0.066571
1.425923 0.503547 0.349124
1.229396 0.434146 -0.022758
1.042215 0.367226 -0.296089
1.267420 0.446578 0.023456
1.086315 0.382552 -0.265892
1.275373 0.449130 0.070863
1.094473 0.385210 -0.225536
1.315567 0.463027 0.122018
1.121796 0.394607 -0.188347
1.361391 0.478887 0.177198
1.151658 0.405111 -0.149899
1.375310 0.483514 0.230897
1.152203 0.405077 -0.106853
1.402146 0.492674 0.288885
1.226694 0.431025 -0.068141
1.430390 0.502598 0.350024
1.232039 0.432661 -0.022793
1.053793 0.369240 -0.299195
1.260649 0.441720 0.023316
1.077785 0.377435 -0.263643
1.272385 0.445584 0.070654
1.095143 0.383299 -0.225536
1.310732 0.458755 0.121495
1.115025 0.390039 -0.187096
1.347234 0.471267 0.175248
1.159858 0.405722 -0.150874
1.376151 0.481113 0.230897
1.158550 0.405038 -0.107376
1.393737 0.486988 0.286977
1.197277 0.418342 -0.066467
1.431265 0.500100 0.350024
1.240344 0.433148 -0.022932
1.052612 0.366765 -0.298677
1.253864 0.436888 0.023177
1.072921 0.373631 -0.262293
1.275047 0.444019 0.070758
1.101373 0.383323 -0.226681
1.322821 0.460396 0.122541
1.123167 0.390688 -0.188347
1.348055 0.468914 0.175248
1.147440 0.399131 -0.149168
1.380721 0.480008 0.231523
1.166783 0.405632 -0.108073
1.398294 0.485843 0.287740
1.214985 0.422152 -0.067409
1.421091 0.493764 0.347324
1.233542 0.428358 -0.022793
1.056901 0.366192 -0.299712
1.262183 0.437317 0.023316
1.077254 0.373033 -0.263193
1.262609 0.437218 0.070026
1.096475 0.379474 -0.225536
1.323623 0.458086 0.122541
1.120113 0.387437 -0.187721
1.345119 0.465264 0.174761
1.144383 0.395831 -0.148681
1.370355 0.473725 0.229646
1.163723 0.402293 -0.107725
1.404707 0.485325 0.288885
1.191179 0.411551 -0.066048
1.414583 0.488737 0.345525
1.228617 0.424247 -0.022688
1.050233 0.361830 -0.297642
1.270507 0.437719 0.023456
1.077904 0.371152 -0.263193
1.269036 0.436964 0.070340
1.091566 0.375644 -0.224391
1.311232 0.451238 0.121321
1.130128 0.388693 -0.189286
1.357192 0.466789 0.176223
1.145072 0.393833 -0.148681
1.367443 0.470048 0.229020
1.155003 0.397023 -0.106853
1.409265 0.484149 0.289648
1.201340 0.412717 -0.066571
1.419120 0.487535 0.346425
1.231247 0.422751 -0.022723
1.047208 0.358743 -0.296607
1.263702 0.432908 0.023316
1.078550 0.369270 -0.263193
1.275465 0.436689 0.070654
1.097793 0.375645 -0.225536
1.306362 0.447014 0.120798
1.130805 0.386720 -0.189286
1.354248 0.463135 0.175736
1.143879 0.391191 -0.148437
1.372000 0.468938 0.229646
1.157579 0.395651 -0.107027
1.397103 0.477247 0.286977
1.217178 0.415785 -0.067409
1.423656 0.486317 0.347324
1.226306 0.418663 -0.022618
1.047832 0.356915 -0.296607
1.264456 0.430702 0.023316
1.075503 0.366132 -0.262293
1.278116 0.435107 0.070758
1.098447 0.373728 -0.225536
1.312799 0.446658 0.121321
1.118386 0.380294 -0.187096
1.347537 0.458214 0.174761
1.153957 0.392390 -0.149656
1.376557 0.467815 0.230272
1.156381 0.392990 -0.106853
1.390498 0.472281 0.285450
1.191426 0.404667 -0.065943
1.426348 0.484458 0.347774
1.230822 0.417808 -0.022688
1.055772 0.357565 -0.298677
1.259523 0.426570 0.023212
1.066911 0.361130 -0.260043
1.273198 0.430954 0.070444
1.100957 0.372439 -0.225918
1.321126 0.446920 0.122018
1.122791 0.379607 -0.187721
1.344573 0.454590 0.174273
1.150880 0.389103 -0.149168
1.384857 0.467940 0.231523
1.162728 0.392884 -0.107376
1.393180 0.470482 0.285832
1.182669 0.399392 -0.065420
1.414268 0.477603 0.344625
1.235339 0.416938 -0.022758
1.060057 0.356955 -0.299712
1.260266 0.424372 0.023212
1.073080 0.361132 -0.261393
1.266376 0.426183 0.070026
1.096023 0.368639 -0.224773
1.321904 0.444613 0.122018
1.129069 0.379535 -0.188660
1.349128 0.453508 0.174761
1.147793 0.385830 -0.148681
1.374436 0.461748 0.229646
1.155858 0.388316 -0.106679
1.397722 0.469299 0.286595
1.190938 0.399869 -0.065839
1.420641 0.476995 0.345975
1.226585 0.411601 -0.022583
1.049686 0.351424 -0.296607
1.274278 0.426615 0.023456
1.073709 0.359258 -0.261393
1.270906 0.425239 0.070235
1.094802 0.366104 -0.224391
1.309451 0.437883 0.120798
1.131603 0.378190 -0.188973
1.355565 0.453040 0.175492
1.148465 0.383826 -0.148681
1.375240 0.459348 0.229646
1.160313 0.387560 -0.107027
1.409712 0.470590 0.288885
1.199212 0.400321 -0.066257
1.430714 0.477600 0.348224
1.223508 0.408194 -0.022514
1.046632 0.348371 -0.295571
1.267432 0.421864 0.023316
1.092826 0.363535 -0.265892
1.281122 0.426173 0.070758
1.095440 0.364192 -0.224391
1.308323 0.434968 0.120624
1.124763 0.373723 -0.187721
1.358238 0.451299 0.175736
1.156669 0.384324 -0.149656
1.379789 0.458193 0.230272
1.145861 0.380511 -0.105633
1.397488 0.463799 0.286214
1.196118 0.396968 -0.066048
1.429696 0.474488 0.347774
1.235607 0.409834 -0.022723
1.047239 0.346544 -0.295571
1.258674 0.416510 0.023142
1.078657 0.356732 -0.262293
1.276175 0.422055 0.070444
1.105394 0.365360 -0.226299
1.320431 0.436435 0.121669
1.125414 0.371759 -0.187721
1.347714 0.445192 0.174273
1.157338 0.382305 -0.149656
1.373084 0.453307 0.229020
1.154091 0.381009 -0.106330
1.387109 0.457669 0.283924
1.185429 0.391125 -0.065420
1.437924 0.474435 0.349574
1.230623 0.405799 -0.022618
1.051512 0.345923 -0.296607
1.257499 0.413688 0.023107
1.073724 0.353023 -0.260943
1.275013 0.419203 0.070340
1.102300 0.362205 -0.225536
1.321190 0.434130 0.121669
1.125996 0.369991 -0.187721
1.344717 0.441600 0.173786
1.146687 0.376568 -0.148193
1.381380 0.453374 0.230272
1.156647 0.379616 -0.106504
1.395288 0.457938 0.285450
1.189905 0.390301 -0.065629
1.422085 0.466458 0.345525
1.227529 0.402404 -0.022549
1.055787 0.345289 -0.297642
1.263921 0.413358 0.023212
1.079834 0.353153 -0.262293
1.273844 0.416357 0.070235
1.099135 0.359253 -0.224773
1.318083 0.430816 0.121321
1.126640 0.368025 -0.187721
1.349183 0.440720 0.174273
1.147343 0.374567 -0.148193
1.374579 0.448751 0.229020
1.166712 0.380890 -0.107376
1.403550 0.457938 0.286977
1.213302 0.395866 -0.066885
1.424750 0.464579 0.345975
1.224357 0.399236 -0.022479
1.052653 0.342435 -0.296607
1.268372 0.412609 0.023282
1.080449 0.351268 -0.262293
1.276396 0.414972 0.070340
1.096026 0.356120 -0.224010
1.311254 0.426052 0.120624
1.131038 0.367279 -0.188347
1.351838 0.438979 0.174517
1.151705 0.373990 -0.148681
1.371603 0.445131 0.228394
1.146529 0.372088 -0.105458
1.402480 0.454882 0.286595
1.191193 0.386353 -0.065629
1.408795 0.456930 0.341926
1.221247 0.395865 -0.022409
1.049573 0.339408 -0.295571
1.261480 0.407933 0.023142
1.084769 0.350580 -0.263193
1.284720 0.415201 0.070758
1.098514 0.354811 -0.224391
1.306307 0.421926 0.120101
1.120399 0.361663 -0.186470
1.365826 0.440887 0.176223
1.158024 0.373808 -0.149412
1.381777 0.445769 0.229959
1.156658 0.373145 -0.106330
1.390192 0.448216 0.283924
1.216577 0.392240 -0.066990
1.429992 0.461048 0.346875
1.221936 0.393733 -0.022409
1.042807 0.335211 -0.293501
1.256479 0.403895 0.023037
1.079813 0.346898 -0.261843
1.283541 0.412347 0.070654
1.097263 0.352293 -0.224010
1.320321 0.423909 0.121321
1.122909 0.360311 -0.186783
1.351472 0.433650 0.174273
1.156784 0.371180 -0.149168
1.376910 0.441548 0.229020
1.145924 0.367475 -0.105284
1.398450 0.448186 0.285450
1.192534 0.382192 -0.065629
1.430794 0.458552 0.346875
1.220717 0.390990 -0.022374
1.054432 0.336918 -0.296607
1.260991 0.402919 0.023107
1.072991 0.342642 -0.260043
1.276648 0.407676 0.070235
1.109098 0.353959 -0.226299
1.315364 0.419787 0.120798
1.125418 0.358951 -0.187096
1.342771 0.428275 0.173054
1.149866 0.366748 -0.148193
1.383325 0.440943 0.229959
1.157953 0.369104 -0.106330
1.404842 0.447533 0.286595
1.185587 0.377686 -0.065211
1.431592 0.456054 0.346875
1.225209 0.390071 -0.022444
1.058701 0.336246 -0.297642
1.259787 0.400112 0.023072
1.079160 0.342537 -0.261393
1.269743 0.403031 0.069816
1.096614 0.347867 -0.223628
1.323692 0.419900 0.121495
1.129809 0.358179 -0.187721
1.352978 0.428930 0.174273
1.152396 0.365340 -0.148437
1.376560 0.436142 0.228707
1.156696 0.366482 -0.106156
1.388776 0.439746 0.283161
1.186245 0.375615 -0.065211
1.406377 0.445319 0.340576
1.218262 0.385519 -0.022304
1.055601 0.333236 -0.296607
1.266204 0.399719 0.023177
1.077898 0.340067 -0.260943
1.278064 0.403217 0.070235
1.095348 0.345362 -0.223247
1.305421 0.411598 0.119752
1.132316 0.356801 -0.188034
1.355617 0.427165 0.174517
1.154925 0.363926 -0.148681
1.377319 0.433739 0.228707
1.155434 0.363864 -0.105981
1.408269 0.443215 0.286977
1.183088 0.372345 -0.065001
1.425740 0.448714 0.345075
1.217025 0.382793 -0.022269
1.045122 0.327922 -0.293501
1.257360 0.394515 0.023002
1.091506 0.342267 -0.264093
1.278766 0.400986 0.070235
1.099695 0.344624 -0.224010
1.311841 0.411106 0.120275
1.123512 0.351872 -0.186470
1.354467 0.424205 0.174273
1.159348 0.363095 -0.149168
1.379959 0.431924 0.229020
1.146560 0.358871 -0.105110
1.379061 0.431379 0.280871
1.198986 0.375050 -0.065839
1.420942 0.444479 0.343725
1.217691 0.380668 -0.022269
1.053070 0.328398 -0.295571
1.252319 0.390534 0.022898
1.080939 0.336882 -0.261393
1.281371 0.399347 0.070340
1.104044 0.343872 -0.224773
1.316361 0.410001 0.120624
1.124124 0.349911 -0.186470
1.349519 0.420070 0.173542
1.161875 0.361662 -0.149412
1.376939 0.428341 0.228394
1.156697 0.359828 -0.105981
1.392935 0.433051 0.283542
1.216803 0.378294 -0.066781
1.429159 0.444313 0.345525
1.224083 0.380322 -0.022374
1.053642 0.326559 -0.295571
1.260639 0.390715 0.023037
1.077802 0.333842 -0.260493
1.272526 0.394156 0.069816
1.108393 0.343105 -0.225536
1.313268 0.406525 0.120275
1.132282 0.350283 -0.187721
1.350250 0.417714 0.173542
1.153022 0.356699 -0.148193
1.379571 0.426521 0.228707
1.155420 0.357220 -0.105807
1.395564 0.431199 0.283924
1.188838 0.367325 -0.065211
1.428070 0.441243 0.345075
1.230477 0.379955 -0.022479
1.057902 0.325857 -0.296607
1.263230 0.389103 0.023072
1.078383 0.331960 -0.260493
1.263668 0.388997 0.069293
1.095856 0.337129 -0.222865
1.321593 0.406575 0.120972
1.131004 0.347726 -0.187409
1.350977 0.415357 0.173542
1.142259 0.351186 -0.146731
1.376537 0.422953 0.228081
1.165564 0.358130 -0.106679
1.405698 0.431644 0.285832
1.187568 0.364663 -0.065106
1.423250 0.437033 0.343725
1.225403 0.376047 -0.022374
1.058469 0.324011 -0.296607
1.263907 0.386898 0.023072
1.078961 0.330077 -0.260493
1.270074 0.388543 0.069607
1.102075 0.336938 -0.224010
1.318489 0.403103 0.120624
1.133437 0.346527 -0.187721
1.347903 0.411839 0.173054
1.150463 0.351513 -0.147706
1.369716 0.418242 0.226830
1.154754 0.352603 -0.105633
1.393231 0.425422 0.283161
1.188203 0.362590 -0.065106
1.420282 0.433411 0.342825
1.222232 0.372742 -0.022304
1.051640 0.319914 -0.294536
1.256928 0.382363 0.022932
1.083207 0.329517 -0.261393
1.272662 0.386907 0.069711
1.100724 0.334636 -0.223628
1.309590 0.398134 0.119752
1.126480 0.342250 -0.186470
1.348548 0.409720 0.173054
1.154874 0.350658 -0.148193
1.379822 0.418959 0.228394
1.159119 0.351947 -0.105981
1.405243 0.426410 0.285450
1.198327 0.363623 -0.065629
1.428496 0.433193 0.344625
1.222816 0.370820 -0.022304
1.052142 0.318262 -0.294536
1.253699 0.379231 0.022863
1.083780 0.327626 -0.261393
1.277091 0.386063 0.069921
1.103186 0.333281 -0.224010
1.317912 0.398152 0.120449
1.127076 0.340285 -0.186470
1.341659 0.405071 0.172080
1.163025 0.351138 -0.149168
1.376769 0.415409 0.227769
1.157824 0.349348 -0.105807
1.379670 0.416021 0.280108
1.189399 0.358647 -0.065106
1.434772 0.432637 0.345975
1.227290 0.369840 -0.022374
1.056396 0.317537 -0.295571
1.258189 0.378193 0.022932
1.069420 0.321248 -0.257794
1.275851 0.383259 0.069816
1.101885 0.330792 -0.223628
1.312880 0.394133 0.119926
1.127668 0.338317 -0.186470
1.342364 0.402729 0.172080
1.152228 0.345685 -0.147706
1.379384 0.413573 0.228081
1.164158 0.349042 -0.106330
1.399201 0.419248 0.283924
1.184283 0.354851 -0.064792
1.437392 0.430691 0.346425
1.233681 0.369419 -0.022479
1.064353 0.317904 -0.297642
1.262680 0.377141 0.023002
1.081183 0.322726 -0.260493
1.268862 0.378747 0.069397
1.104342 0.329429 -0.224010
1.317384 0.392980 0.120275
1.132043 0.337477 -0.187096
1.354479 0.403788 0.173542
1.145220 0.341405 -0.146731
1.383890 0.412293 0.228707
1.159037 0.345304 -0.105807
1.384877 0.412324 0.280871
1.215528 0.361903 -0.066467
1.419464 0.422622 0.341926
1.224741 0.364413 -0.022304
1.057498 0.313848 -0.295571
1.261419 0.374368 0.022967
1.085481 0.321947 -0.261393
1.269521 0.376532 0.069397
1.104916 0.327501 -0.224010
1.310427 0.388415 0.119578
1.140206 0.337745 -0.188347
1.355182 0.401423 0.173542
1.145814 0.339406 -0.146731
1.373243 0.406513 0.226830
1.153906 0.341584 -0.105284
1.406303 0.416032 0.285069
1.202751 0.355815 -0.065734
1.423937 0.421249 0.342825
1.223457 0.361708 -0.022269
1.058044 0.312001 -0.295571
1.260152 0.371600 0.022932
1.093518 0.322255 -0.263193
1.274008 0.375445 0.069607
1.097952 0.323353 -0.222483
1.311103 0.386128 0.119578
1.125634 0.331292 -0.185844
1.344455 0.395694 0.172080
1.157831 0.340768 -0.148193
1.377741 0.405230 0.227456
1.162146 0.341818 -0.105981
1.395726 0.410255 0.282779
1.197622 0.352025 -0.065420
1.426540 0.419313 0.343275
1.216412 0.357317 -0.022130
1.058587 0.310154 -0.295571
1.256961 0.368276 0.022863
1.082857 0.317060 -0.260493
1.274661 0.373221 0.069607
1.109821 0.324744 -0.224773
1.302214 0.381041 0.118706
1.122418 0.328218 -0.185218
1.348954 0.394462 0.172567
1.162234 0.339861 -0.148681
1.376549 0.402271 0.227143
1.160829 0.339231 -0.105807
1.379479 0.402865 0.279344
1.192483 0.348255 -0.065106
1.425399 0.416276 0.342825
1.228552 0.358556 -0.022339
1.055417 0.307227 -0.294536
1.253762 0.364964 0.022793
1.081538 0.314625 -0.260043
1.275311 0.370995 0.069607
1.110386 0.322808 -0.224773
1.306703 0.379880 0.119055
1.122989 0.326259 -0.185218
1.340109 0.389338 0.171348
1.155200 0.335617 -0.147706
1.390529 0.403723 0.229333
1.163333 0.337759 -0.105981
1.404692 0.407569 0.284305
1.183498 0.343390 -0.064583
1.427995 0.414330 0.343275
1.236858 0.358639 -0.022479
1.067086 0.308604 -0.297642
1.262081 0.364997 0.022932
1.083958 0.313278 -0.260493
1.264444 0.365441 0.068979
1.101517 0.318145 -0.222865
1.311193 0.378705 0.119403
1.127353 0.325394 -0.185844
1.338879 0.386448 0.171105
1.151970 0.332499 -0.147218
1.379843 0.398011 0.227456
1.167749 0.336833 -0.106330
1.384650 0.399135 0.280108
1.187934 0.342430 -0.064792
1.428716 0.411837 0.343275
1.227874 0.353711 -0.022304
1.063910 0.305674 -0.296607
1.266560 0.363898 0.023002
1.086376 0.311924 -0.260943
1.263160 0.362683 0.068874
1.100183 0.315680 -0.222483
1.300361 0.373118 0.118357
1.131717 0.324515 -0.186470
1.349092 0.386846 0.172323
1.154457 0.331035 -0.147462
1.371041 0.392881 0.225891
1.160674 0.332599 -0.105633
1.404218 0.402123 0.283924
1.188530 0.340357 -0.064792
1.433179 0.410416 0.344175
1.222722 0.349917 -0.022199
1.051438 0.300105 -0.292983
1.259501 0.359491 0.022863
1.085045 0.309493 -0.260493
1.277236 0.364313 0.069607
1.100732 0.313760 -0.222483
1.302926 0.371394 0.118532
1.124682 0.320374 -0.185218
1.351675 0.385034 0.172567
1.153124 0.328476 -0.147218
1.375525 0.391569 0.226517
1.149755 0.327300 -0.104587
1.393588 0.396448 0.281634
1.196806 0.340468 -0.065211
1.418898 0.403649 0.340576
1.223331 0.347782 -0.022199
1.051960 0.298270 -0.292983
1.256279 0.356202 0.022793
1.085583 0.307599 -0.260493
1.281713 0.363172 0.069816
1.103168 0.312373 -0.222865
1.309324 0.370748 0.119055
1.125240 0.318411 -0.185218
1.344704 0.380514 0.171592
1.161336 0.328625 -0.148193
1.385710 0.391856 0.228081
1.161828 0.328546 -0.105633
1.392388 0.393481 0.281252
1.191633 0.336749 -0.064897
1.430852 0.404351 0.343275
1.227785 0.346734 -0.022269
1.061777 0.299052 -0.295571
1.256899 0.354008 0.022793
1.080491 0.304119 -0.259144
1.270810 0.357687 0.069188
1.109381 0.312042 -0.224010
1.304214 0.366844 0.118532
1.127696 0.316981 -0.185531
1.339633 0.376554 0.170861
1.150441 0.323374 -0.146731
1.384490 0.388902 0.227769
1.160481 0.325978 -0.105458
1.393073 0.391051 0.281252
1.184527 0.332509 -0.064478
1.425927 0.400273 0.341926
1.238015 0.347291 -0.022444
1.062297 0.297198 -0.295571
1.265218 0.353969 0.022932
1.077266 0.301184 -0.258244
1.269508 0.354931 0.069083
1.106142 0.309049 -0.223247
1.322123 0.369392 0.120101
1.137760 0.317668 -0.187096
1.334553 0.372614 0.170130
1.151004 0.321366 -0.146731
1.377556 0.384362 0.226517
1.174482 0.327700 -0.106679
1.391862 0.388091 0.280871
1.192801 0.332587 -0.064897
1.420992 0.396214 0.340576
1.223209 0.340836 -0.022165
1.055369 0.293275 -0.293501
1.256200 0.349084 0.022758
1.079668 0.299825 -0.258694
1.272050 0.353249 0.069188
1.102896 0.306068 -0.222483
1.303567 0.361757 0.118357
1.134506 0.314627 -0.186470
1.339027 0.371345 0.170617
1.151563 0.319357 -0.146731
1.376321 0.381429 0.226204
1.157772 0.320861 -0.105110
1.403890 0.388806 0.283161
1.191455 0.329972 -0.064792
1.423560 0.394253 0.341026
1.223802 0.338701 -0.022165
1.052155 0.290404 -0.292466
1.262590 0.348486 0.022863
1.087704 0.300012 -0.260493
1.278441 0.352622 0.069502
1.103429 0.304142 -0.222483
1.304197 0.359481 0.118357
1.127381 0.310745 -0.185218
1.341587 0.369534 0.170861
1.152119 0.317346 -0.146731
1.378889 0.379551 0.226517
1.156409 0.318311 -0.104936
1.396927 0.384516 0.281634
1.201658 0.330540 -0.065315
1.424246 0.391768 0.341026
1.230176 0.338154 -0.022269
1.045207 0.286525 -0.290395
1.259340 0.345226 0.022793
1.086294 0.297788 -0.260043
1.269423 0.347751 0.068979
1.103905 0.302408 -0.222483
1.289387 0.353220 0.116963
1.126017 0.308254 -0.184906
1.340251 0.366902 0.170617
1.164159 0.318478 -0.148193
1.381389 0.377906 0.226830
1.154986 0.315969 -0.104761
1.393809 0.381041 0.280871
1.190616 0.325492 -0.064687
1.432447 0.391336 0.342825
1.230705 0.336221 -0.022269
1.058703 0.288438 -0.294018
1.256021 0.342196 0.022723
1.081172 0.294356 -0.258694
1.277676 0.347855 0.069397
1.115798 0.303574 -0.224773
1.313072 0.357246 0.119055
1.132271 0.307844 -0.185844
1.335142 0.363001 0.169886
1.153165 0.313525 -0.146731
1.380140 0.374976 0.226517
1.168995 0.317609 -0.105981
1.398261 0.379637 0.281634
1.195037 0.324461 -0.064897
1.427418 0.387553 0.341476
1.235150 0.335120 -0.022339
1.061070 0.287094 -0.294536
1.260478 0.341047 0.022793
1.083565 0.292977 -0.259144
1.268641 0.343019 0.068874
1.108745 0.299578 -0.223247
1.298306 0.350796 0.117660
1.128993 0.304837 -0.185218
1.339607 0.361705 0.170373
1.153710 0.311511 -0.146731
1.376978 0.371537 0.225891
1.163777 0.314011 -0.105458
1.395131 0.376174 0.280871
1.189816 0.320815 -0.064583
1.418684 0.382525 0.339226
1.231871 0.331923 -0.022269
1.054107 0.283236 -0.292466
1.268795 0.340923 0.022932
1.089721 0.292601 -0.260493
1.271167 0.341321 0.068979
1.099785 0.295098 -0.221338
1.306613 0.350595 0.118357
1.140971 0.305936 -0.187096
1.345988 0.360909 0.171105
1.154252 0.309497 -0.146731
1.366176 0.366066 0.224014
1.166247 0.312495 -0.105633
1.403370 0.375770 0.282397
1.228960 0.329069 -0.066676
1.424997 0.381561 0.340576
1.224722 0.327705 -0.022130
1.050867 0.280400 -0.291430
1.265525 0.337676 0.022863
1.093996 0.291703 -0.261393
1.277550 0.340646 0.069293
1.107886 0.295200 -0.222865
1.284121 0.342159 0.116266
1.133868 0.301911 -0.185844
1.344698 0.358048 0.170861
1.164382 0.310036 -0.147949
1.374449 0.365712 0.225266
1.149462 0.305848 -0.104064
1.400229 0.372311 0.281634
1.200580 0.319226 -0.065106
1.427544 0.379574 0.341026
1.227225 0.326080 -0.022165
1.053222 0.279060 -0.291948
1.258380 0.333418 0.022723
1.086968 0.287799 -0.259594
1.276212 0.337905 0.069188
1.110298 0.293768 -0.223247
1.305903 0.345522 0.118183
1.122934 0.296902 -0.183967
1.329968 0.351641 0.168911
1.163002 0.307496 -0.147706
1.371265 0.362305 0.224640
1.159626 0.306387 -0.104936
1.389488 0.366859 0.279344
1.195342 0.315600 -0.064792
1.431973 0.378076 0.341926
1.227792 0.323938 -0.022165
1.064917 0.280171 -0.295054
1.258960 0.331222 0.022723
1.078045 0.283423 -0.257344
1.280663 0.336693 0.069397
1.110809 0.291830 -0.223247
1.296869 0.340711 0.117312
1.134915 0.297952 -0.185844
1.330579 0.349320 0.168911
1.155857 0.303450 -0.146731
1.371896 0.359910 0.224640
1.160159 0.304362 -0.104936
1.395823 0.365927 0.280489
1.192027 0.312500 -0.064583
1.425090 0.373600 0.340126
1.230290 0.322302 -0.022199
1.065404 0.278312 -0.295054
1.267275 0.331046 0.022863
1.080424 0.282034 -0.257794
1.275451 0.332944 0.069083
1.107517 0.288899 -0.222483
1.316741 0.343476 0.119055
1.127787 0.293977 -0.184593
1.342713 0.350001 0.170373
1.156385 0.301431 -0.146731
1.374433 0.358013 0.224953
1.172257 0.305350 -0.105981
1.402160 0.364974 0.281634
1.184839 0.308406 -0.064164
1.423854 0.370620 0.339676
1.225044 0.318644 -0.022095
1.058408 0.274512 -0.292983
1.267851 0.328833 0.022863
1.088460 0.282103 -0.259594
1.266364 0.328211 0.068560
1.098517 0.284505 -0.220575
1.298051 0.336183 0.117312
1.143597 0.295968 -0.187096
1.339478 0.346662 0.169886
1.160752 0.300407 -0.147218
1.371231 0.354624 0.224327
1.159285 0.299811 -0.104761
1.402795 0.362527 0.281634
1.224050 0.316333 -0.066257
1.430159 0.369598 0.341026
1.229471 0.317505 -0.022165
1.053274 0.271218 -0.291430
1.264550 0.325622 0.022793
1.094613 0.281660 -0.260943
1.276606 0.328489 0.069083
1.106617 0.284543 -0.222102
1.300565 0.334413 0.117486
1.136459 0.292004 -0.185844
1.351617 0.347287 0.171348
1.157430 0.297393 -0.146731
1.364195 0.350266 0.223076
1.161737 0.298283 -0.104936
1.384409 0.355199 0.277818
1.189778 0.305262 -0.064373
1.427027 0.366133 0.340126
1.228086 0.314862 -0.022130
1.051873 0.268901 -0.290913
1.261242 0.322424 0.022723
1.079997 0.275891 -0.257344
1.282982 0.327744 0.069397
1.112819 0.284068 -0.223247
1.299216 0.331649 0.117312
1.131225 0.288556 -0.184906
1.332986 0.340022 0.168911
1.165641 0.297335 -0.147706
1.372460 0.349837 0.224327
1.154533 0.294287 -0.104238
1.381222 0.351812 0.277055
1.209663 0.308115 -0.065420
1.437106 0.366047 0.342376
1.230572 0.313212 -0.022165
1.057958 0.268491 -0.292466
1.261802 0.320223 0.022723
1.088033 0.275921 -0.259144
1.270001 0.322067 0.068665
1.111410 0.281643 -0.222865
1.315244 0.333297 0.118706
1.133591 0.287264 -0.185218
1.337426 0.338670 0.169398
1.158461 0.293352 -0.146731
1.374984 0.347925 0.224640
1.166634 0.295204 -0.105284
1.389385 0.351569 0.278581
1.186963 0.300128 -0.064164
1.424517 0.360194 0.339226
1.236933 0.312532 -0.022269
1.062172 0.267588 -0.293501
1.262359 0.318020 0.022723
1.090355 0.274688 -0.259594
1.272498 0.320338 0.068769
1.108043 0.278938 -0.222102
1.309969 0.329771 0.118183
1.132176 0.284803 -0.184906
1.337956 0.336568 0.169398
1.160896 0.291813 -0.146974
1.373613 0.345283 0.224327
1.163231 0.292400 -0.104936
1.397613 0.351057 0.280108
1.187433 0.298263 -0.064164
1.417584 0.355809 0.337427
1.233544 0.309616 -0.022199
1.058843 0.264981 -0.292466
1.278376 0.319921 0.023002
1.085161 0.271366 -0.258244
1.265249 0.316401 0.068351
1.110433 0.277480 -0.222483
1.310543 0.327484 0.118183
1.138420 0.284263 -0.185844
1.346245 0.336156 0.170373
1.161353 0.289989 -0.146974
1.368464 0.341451 0.223388
1.167606 0.291334 -0.105284
1.403939 0.350041 0.281252
1.187952 0.296190 -0.064164
1.429486 0.356411 0.340126
1.224380 0.305046 -0.022025
1.057429 0.262667 -0.291948
1.267288 0.314797 0.022793
1.095090 0.271819 -0.260493
1.273553 0.316116 0.068769
1.103294 0.273651 -0.220957
1.289841 0.319920 0.116266
1.138915 0.282275 -0.185844
1.342976 0.332851 0.169886
1.156077 0.286529 -0.146243
1.367141 0.338586 0.223076
1.154575 0.285942 -0.104064
1.389302 0.343817 0.278200
1.229182 0.304192 -0.066362
1.426322 0.352979 0.339226
1.228793 0.303869 -0.022095
1.065389 0.262671 -0.294018
1.256187 0.309712 0.022583
1.087994 0.268043 -0.258694
1.281860 0.315804 0.069188
1.109489 0.273133 -0.222102
1.309744 0.322432 0.118009
1.131733 0.278399 -0.184593
1.331989 0.327661 0.168423
1.170069 0.287830 -0.147949
1.367729 0.336200 0.223076
1.158942 0.284878 -0.104413
1.399432 0.343734 0.280108
1.190918 0.292518 -0.064269
1.432614 0.351884 0.340576
1.233206 0.302676 -0.022165
1.060216 0.259433 -0.292466
1.264495 0.309420 0.022723
1.078995 0.263829 -0.256444
1.278529 0.312618 0.068979
1.113778 0.272128 -0.222865
1.302562 0.318253 0.117312
1.130298 0.275955 -0.184280
1.328702 0.324394 0.167936
1.160927 0.283433 -0.146731
1.374071 0.335217 0.224014
1.165244 0.284272 -0.104936
1.377141 0.335711 0.275528
1.193368 0.290912 -0.064373
1.427546 0.347998 0.339226
1.233732 0.300524 -0.022165
1.064422 0.258494 -0.293501
1.261147 0.306268 0.022653
1.087029 0.263784 -0.258244
1.267427 0.307560 0.068351
1.110435 0.269258 -0.222102
1.312797 0.318327 0.118183
1.132698 0.274447 -0.184593
1.333125 0.323009 0.168423
1.161420 0.281406 -0.146731
1.368894 0.331424 0.223076
1.165739 0.282238 -0.104936
1.394899 0.337462 0.278963
1.189991 0.287889 -0.064164
1.416786 0.342757 0.336527
1.226480 0.296490 -0.022025
1.061115 0.255731 -0.292466
1.273343 0.306879 0.022863
1.085593 0.261430 -0.257794
1.275729 0.307218 0.068769
1.103269 0.265482 -0.220575
1.299791 0.312772 0.116963
1.129334 0.271546 -0.183967
1.337547 0.321611 0.168911
1.158049 0.278451 -0.146243
1.365629 0.328111 0.222450
1.173978 0.282064 -0.105633
1.382123 0.331818 0.276291
1.219623 0.292805 -0.065734
1.428752 0.343013 0.339226
1.228940 0.294816 -0.022060
1.055923 0.252531 -0.290913
1.262208 0.301865 0.022653
1.093630 0.261346 -0.259594
1.272378 0.304062 0.068560
1.117097 0.266748 -0.223247
1.308087 0.312354 0.117660
1.133649 0.270492 -0.184593
1.347761 0.321579 0.170130
1.166257 0.278272 -0.147218
1.364278 0.325269 0.222137
1.157026 0.275856 -0.104064
1.392249 0.331681 0.278200
1.208475 0.287899 -0.065106
1.425557 0.339616 0.338326
1.229453 0.292670 -0.022060
1.067640 0.253364 -0.294018
1.258842 0.298738 0.022583
1.084603 0.257189 -0.257344
1.280680 0.303684 0.068979
1.113740 0.263893 -0.222483
1.293120 0.306396 0.116266
1.130275 0.267602 -0.183967
1.338661 0.316940 0.168911
1.168673 0.276693 -0.147462
1.378300 0.326071 0.224327
1.163323 0.275212 -0.104587
1.379452 0.326089 0.275528
1.189538 0.281195 -0.064059
1.435630 0.339369 0.340576
1.228015 0.290064 -0.022025
1.064320 0.250614 -0.292983
1.263254 0.297457 0.022653
1.079360 0.253957 -0.255994
1.277320 0.300534 0.068769
1.116111 0.262398 -0.222865
1.316927 0.309610 0.118357
1.132663 0.266081 -0.184280
1.323753 0.310971 0.166961
1.165289 0.273745 -0.146974
1.375021 0.322762 0.223701
1.169620 0.274548 -0.105110
1.395310 0.327267 0.278581
1.190027 0.279119 -0.064059
1.419145 0.332858 0.336527
1.242148 0.291115 -0.022269
1.062875 0.248316 -0.292466
1.267666 0.296161 0.022723
1.083597 0.252959 -0.256894
1.264228 0.295126 0.068037
1.116567 0.260450 -0.222865
1.311645 0.305954 0.117835
1.135050 0.264552 -0.184593
1.332026 0.310462 0.167936
1.158032 0.269908 -0.145999
1.377506 0.320810 0.224014
1.172038 0.272958 -0.105284
1.401615 0.326167 0.279726
1.192458 0.277494 -0.064164
1.419724 0.330380 0.336527
1.230968 0.286229 -0.022060
1.059543 0.245589 -0.291430
1.268181 0.293949 0.022723
1.087834 0.251946 -0.257794
1.276416 0.295622 0.068665
1.099805 0.254517 -0.219430
1.314118 0.304113 0.118009
1.145133 0.264796 -0.186157
1.332566 0.308138 0.167936
1.158501 0.267888 -0.145999
1.364591 0.315292 0.221824
1.153100 0.266426 -0.103541
1.388792 0.320628 0.277055
1.198779 0.276760 -0.064478
1.427893 0.329655 0.338326
1.223672 0.282283 -0.021920
1.054322 0.242440 -0.289877
1.264794 0.290838 0.022653
1.092070 0.250920 -0.258694
1.265250 0.290711 0.068037
1.113642 0.255672 -0.222102
1.287460 0.295577 0.115569
1.132115 0.259705 -0.183967
1.338907 0.307143 0.168667
1.164771 0.267196 -0.146731
1.374767 0.315116 0.223388
1.155506 0.264858 -0.103715
1.391263 0.318642 0.277436
1.205101 0.276005 -0.064792
1.426567 0.326728 0.337876
1.235858 0.282822 -0.022130
1.062277 0.242319 -0.291948
1.261400 0.287741 0.022583
1.084906 0.247281 -0.256894
1.281334 0.292053 0.068874
1.114087 0.253728 -0.222102
1.317114 0.299966 0.118183
1.136419 0.258606 -0.184593
1.333634 0.303484 0.167936
1.176850 0.267806 -0.148193
1.379167 0.313592 0.224014
1.165680 0.265050 -0.104587
1.376501 0.312734 0.274383
1.199738 0.272574 -0.064478
1.430936 0.325101 0.338776
1.234400 0.280223 -0.022095
1.066467 0.241317 -0.292983
1.261901 0.285539 0.022583
1.077733 0.243669 -0.255094
1.277946 0.288935 0.068665
1.122188 0.253514 -0.223628
1.304031 0.294594 0.116963
1.134942 0.256186 -0.184280
1.334162 0.301155 0.167936
1.161824 0.262254 -0.146243
1.383566 0.312054 0.224640
1.160310 0.261700 -0.104064
1.394282 0.314215 0.277818
1.190469 0.268284 -0.063955
1.425798 0.321318 0.337427
1.242691 0.279824 -0.022234
1.070656 0.240301 -0.294018
1.266300 0.284212 0.022653
1.091467 0.244772 -0.258244
1.268704 0.284519 0.068141
1.116881 0.250266 -0.222483
1.323986 0.296674 0.118706
1.137315 0.254637 -0.184593
1.340497 0.300128 0.168667
1.164217 0.260660 -0.146487
1.372542 0.307052 0.222763
1.166598 0.260980 -0.104587
1.383332 0.309211 0.275528
1.194834 0.267077 -0.064164
1.418749 0.317128 0.335627
1.231467 0.275040 -0.022025
1.067302 0.237593 -0.292983
1.270697 0.282871 0.022723
1.091893 0.242867 -0.258244
1.280896 0.284906 0.068769
1.105817 0.245761 -0.220194
1.291437 0.287014 0.115743
1.137758 0.252652 -0.184593
1.337142 0.296928 0.168180
1.160795 0.257768 -0.145999
1.373076 0.304655 0.222763
1.163162 0.258080 -0.104238
1.404954 0.311471 0.279726
1.206998 0.267585 -0.064792
1.419300 0.314651 0.335627
1.231946 0.272891 -0.022025
1.067716 0.235730 -0.292983
1.263379 0.278928 0.022583
1.098024 0.242220 -0.259594
1.273590 0.280949 0.068351
1.106245 0.243831 -0.220194
1.303610 0.287333 0.116789
1.140126 0.251090 -0.184906
1.347352 0.296728 0.169398
1.168997 0.257449 -0.146974
1.373606 0.302258 0.222763
1.159719 0.255193 -0.103890
1.382486 0.303959 0.275147
1.209414 0.265907 -0.064897
1.435073 0.315522 0.339226
1.238279 0.272027 -0.022130
1.068125 0.233866 -0.292983
1.263863 0.276723 0.022583
1.090830 0.238637 -0.257794
1.285785 0.281287 0.068979
1.116258 0.243996 -0.222102
1.294378 0.282930 0.115917
1.132843 0.247414 -0.183654
1.336231 0.291834 0.167936
1.171384 0.255832 -0.147218
1.377991 0.300702 0.223388
1.167949 0.254867 -0.104587
1.394524 0.304056 0.277436
1.198168 0.261243 -0.064269
1.428006 0.311356 0.337427
1.234844 0.269014 -0.022060
1.076083 0.233640 -0.295054
1.264345 0.274516 0.022583
1.085532 0.235494 -0.256444
1.280419 0.277773 0.068665
1.122439 0.243295 -0.223247
1.316289 0.285314 0.117835
1.139065 0.246691 -0.184593
1.332859 0.288661 0.167448
1.160188 0.251265 -0.145756
1.378514 0.298298 0.223388
1.166444 0.252408 -0.104413
1.373944 0.297058 0.273238
1.192765 0.257885 -0.063955
1.428547 0.308863 0.337427
1.247040 0.269392 -0.022269
1.063269 0.228916 -0.291430
1.264822 0.272309 0.022583
1.084036 0.233189 -0.255994
1.273091 0.273857 0.068246
1.113265 0.239273 -0.221338
1.295358 0.278410 0.115917
1.135631 0.243873 -0.183967
1.337242 0.287168 0.167936
1.160625 0.249240 -0.145756
1.373238 0.294648 0.222450
1.176623 0.252462 -0.105284
1.401335 0.300420 0.278581
1.210790 0.259571 -0.064897
1.427179 0.305961 0.336977
1.239687 0.265539 -0.022130
1.056110 0.225447 -0.289360
1.269206 0.270937 0.022653
1.090159 0.232516 -0.257344
1.269660 0.270801 0.068037
1.106000 0.235693 -0.219812
1.311431 0.279471 0.117312
1.139919 0.242714 -0.184593
1.345507 0.286488 0.168911
1.164941 0.248042 -0.146243
1.371818 0.291839 0.222137
1.167318 0.248334 -0.104413
1.380733 0.293484 0.274383
1.193658 0.253720 -0.063955
1.425804 0.303064 0.336527
1.228412 0.260884 -0.021920
1.056502 0.223603 -0.289360
1.265764 0.267892 0.022583
1.102003 0.233032 -0.260043
1.281855 0.271064 0.068665
1.106410 0.233762 -0.219812
1.292423 0.273063 0.115569
1.140341 0.240724 -0.184593
1.344063 0.283729 0.168667
1.161488 0.245188 -0.145756
1.372326 0.289445 0.222137
1.163851 0.245474 -0.104064
1.390849 0.293097 0.276291
1.201917 0.253283 -0.064373
1.426331 0.300575 0.336527
1.236692 0.260387 -0.022060
1.066344 0.223742 -0.291948
1.262316 0.264862 0.022514
1.090964 0.228709 -0.257344
1.286236 0.269646 0.068874
1.108737 0.232234 -0.220194
1.318248 0.276117 0.117835
1.138784 0.238527 -0.184280
1.336784 0.279756 0.167692
1.175515 0.246007 -0.147462
1.376696 0.287857 0.222763
1.158427 0.242219 -0.103541
1.389386 0.290511 0.275910
1.192582 0.249144 -0.063850
1.434484 0.299680 0.338326
1.233230 0.257411 -0.021990
1.074299 0.223454 -0.294018
1.258861 0.261843 0.022444
1.081782 0.225011 -0.255094
1.273016 0.264556 0.068141
1.109101 0.230492 -0.220194
1.297222 0.269587 0.115917
1.137265 0.236138 -0.183967
1.339166 0.278060 0.167936
1.156506 0.239922 -0.145025
1.381015 0.286497 0.223388
1.170511 0.242827 -0.104587
1.391813 0.288485 0.276291
1.191016 0.246865 -0.063745
1.427372 0.295595 0.336527
1.241465 0.257096 -0.022130
1.070864 0.220986 -0.292983
1.271021 0.262291 0.022653
1.087899 0.224303 -0.256444
1.259738 0.259733 0.067409
1.109501 0.228556 -0.220194
1.323059 0.272548 0.118183
1.145415 0.235745 -0.185218
1.335760 0.274921 0.167448
1.158826 0.238505 -0.145268
1.371838 0.282097 0.221824
1.172885 0.241185 -0.104761
1.378853 0.283289 0.273620
1.195357 0.245590 -0.063955
1.427834 0.293353 0.336527
1.236036 0.253722 -0.022025
1.071248 0.219116 -0.292983
1.271477 0.260072 0.022653
1.092107 0.223185 -0.257344
1.277800 0.261134 0.068351
1.104128 0.225440 -0.219049
1.300108 0.265455 0.116091
1.140018 0.232561 -0.184280
1.345963 0.274573 0.168667
1.163130 0.237276 -0.145756
1.362650 0.277731 0.220260
1.167447 0.237945 -0.104238
1.406278 0.286366 0.278963
1.205570 0.245495 -0.064478
1.428344 0.290860 0.336527
1.228639 0.249969 -0.021885
1.064056 0.215711 -0.290913
1.264090 0.256263 0.022514
1.098225 0.222439 -0.258694
1.272382 0.257713 0.068037
1.106444 0.223902 -0.219430
1.312286 0.265557 0.117137
1.138486 0.230179 -0.183967
1.344495 0.271830 0.168423
1.165488 0.235638 -0.145999
1.376687 0.278089 0.222450
1.162002 0.234723 -0.103715
1.385607 0.279639 0.274765
1.205997 0.243391 -0.064478
1.436490 0.289908 0.338326
1.234954 0.249010 -0.021990
1.064430 0.213854 -0.290913
1.264535 0.254057 0.022514
1.092880 0.219371 -0.257344
1.282621 0.257457 0.068560
1.114533 0.223515 -0.220957
1.287352 0.258173 0.114871
1.129201 0.226252 -0.182403
1.341074 0.268704 0.167936
1.173683 0.235165 -0.146974
1.371359 0.274523 0.221511
1.162410 0.232695 -0.103715
1.391868 0.278375 0.275910
1.200544 0.240110 -0.064164
1.433172 0.286636 0.337427
1.239308 0.247639 -0.022060
1.068591 0.212750 -0.291948
1.261054 0.251069 0.022444
1.085616 0.215942 -0.255544
1.271315 0.252880 0.067932
1.116847 0.221952 -0.221338
1.317113 0.261752 0.117486
1.139282 0.226204 -0.183967
1.327911 0.263657 0.166230
1.164356 0.231183 -0.145756
1.379587 0.273666 0.222763
1.168677 0.231828 -0.104238
1.376945 0.272893 0.272857
1.193125 0.236462 -0.063745
1.427936 0.282999 0.336077
1.239738 0.245475 -0.022060
1.076542 0.212380 -0.294018
1.273262 0.251189 0.022653
1.089815 0.214801 -0.256444
1.267835 0.249889 0.067723
1.113380 0.219244 -0.220575
1.307794 0.257527 0.116614
1.139675 0.224215 -0.183967
1.332265 0.262105 0.166717
1.156967 0.227617 -0.144781
1.374247 0.270115 0.221824
1.169080 0.229788 -0.104238
1.400537 0.275028 0.277436
1.197455 0.235148 -0.063955
1.424603 0.279754 0.335177
1.234278 0.242156 -0.021955
1.059848 0.207166 -0.289360
1.273698 0.248966 0.022653
1.097839 0.214393 -0.258244
1.276110 0.249207 0.068141
1.102199 0.215045 -0.218286
1.316063 0.256771 0.117312
1.140065 0.222226 -0.183967
1.342463 0.261678 0.167936
1.167105 0.227497 -0.145999
1.376656 0.268094 0.222137
1.169479 0.227748 -0.104238
1.383671 0.269209 0.274002
1.201785 0.233821 -0.064164
1.427002 0.277640 0.335627
1.228810 0.238857 -0.021850
1.054518 0.204214 -0.287807
1.266278 0.245222 0.022514
1.092472 0.211366 -0.256894
1.276543 0.246979 0.068141
1.116066 0.215729 -0.220957
1.293035 0.249936 0.115220
1.140451 0.220235 -0.183967
1.354612 0.261592 0.169398
1.167500 0.225459 -0.145999
1.375182 0.265317 0.221824
1.164006 0.224574 -0.103715
1.397633 0.269395 0.276673
1.208075 0.232857 -0.064478
1.427485 0.275149 0.335627
1.235116 0.237846 -0.021955
1.058667 0.203101 -0.288842
1.254920 0.240752 0.022304
1.090925 0.209092 -0.256444
1.286780 0.246631 0.068665
1.118369 0.214149 -0.221338
1.313038 0.251425 0.116963
1.133073 0.216761 -0.182715
1.331669 0.254753 0.166474
1.169841 0.223794 -0.146243
1.379523 0.263658 0.222450
1.164396 0.222542 -0.103715
1.380746 0.263641 0.273238
1.200632 0.229250 -0.064059
1.433705 0.273753 0.336977
1.235529 0.235690 -0.021955
1.070407 0.203417 -0.291948
1.259268 0.239307 0.022374
1.083630 0.205734 -0.254645
1.279360 0.242894 0.068246
1.124528 0.213295 -0.222483
1.299772 0.246535 0.115743
1.137331 0.215518 -0.183341
1.334063 0.252797 0.166717
1.162429 0.220274 -0.145268
1.383863 0.261984 0.223076
1.164783 0.220509 -0.103715
1.392778 0.263421 0.275528
1.195143 0.226041 -0.063745
1.428436 0.270165 0.335627
1.241833 0.234647 -0.022060
1.070761 0.201548 -0.291948
1.267544 0.238589 0.022514
1.091648 0.205283 -0.256444
1.268005 0.238446 0.067618
1.115251 0.209520 -0.220575
1.325657 0.249048 0.118009
1.137706 0.213533 -0.183341
1.328649 0.249370 0.165986
1.158909 0.217512 -0.144781
1.374611 0.257748 0.221511
1.174957 0.220312 -0.104587
1.381657 0.258820 0.273238
1.193572 0.223587 -0.063641
1.425075 0.266953 0.334727
1.234379 0.231008 -0.021920
1.071111 0.199679 -0.291948
1.271891 0.237109 0.022583
1.099668 0.204804 -0.258244
1.284127 0.239158 0.068455
1.104034 0.205418 -0.218286
1.294749 0.240903 0.115220
1.138077 0.211547 -0.183341
1.336889 0.248502 0.166961
1.165142 0.216578 -0.145512
1.369232 0.254267 0.220573
1.163586 0.216078 -0.103541
1.405271 0.260706 0.277818
1.209671 0.224418 -0.064478
1.429371 0.265177 0.335627
1.232814 0.228489 -0.021885
1.060059 0.195705 -0.288842
1.268370 0.234163 0.022514
1.096191 0.202178 -0.257344
1.278650 0.235830 0.068141
1.108252 0.204203 -0.219049
1.322599 0.243697 0.117660
1.134522 0.209043 -0.182715
1.337320 0.246168 0.166961
1.169423 0.215262 -0.145999
1.375502 0.252949 0.221511
1.163962 0.214047 -0.103541
1.378646 0.253527 0.272475
1.206132 0.221584 -0.064269
1.435581 0.263737 0.336977
1.235178 0.226697 -0.021920
1.062299 0.194202 -0.289360
1.264842 0.231230 0.022444
1.092673 0.199755 -0.256444
1.279059 0.233598 0.068141
1.114366 0.203519 -0.220194
1.301421 0.237681 0.115743
1.134885 0.207062 -0.182715
1.335752 0.243711 0.166717
1.171750 0.213577 -0.146243
1.377841 0.251142 0.221824
1.166257 0.212576 -0.103715
1.396470 0.254285 0.275910
1.196654 0.217900 -0.063745
1.437957 0.261580 0.337427
1.231598 0.224041 -0.021850
1.068306 0.193567 -0.290913
1.269139 0.229956 0.022514
1.089185 0.197153 -0.255544
1.279425 0.231588 0.068141
1.124379 0.203321 -0.222102
1.319479 0.238601 0.117312
1.139133 0.205784 -0.183341
1.334222 0.241027 0.166474
1.160363 0.209619 -0.144781
1.376333 0.248386 0.221511
1.166626 0.210540 -0.103715
1.383387 0.249409 0.273238
1.197032 0.215812 -0.063745
1.424941 0.256901 0.334277
1.245763 0.224373 -0.022095
1.076248 0.193066 -0.292983
1.269538 0.227740 0.022514
1.089527 0.195252 -0.255544
1.273929 0.228298 0.067827
1.111204 0.198936 -0.219430
1.306165 0.233840 0.116091
1.139490 0.203795 -0.183341
1.334641 0.238697 0.166474
1.164635 0.208292 -0.145268
1.372876 0.245288 0.220885
1.176798 0.210256 -0.104587
1.401215 0.250099 0.276673
1.207238 0.215477 -0.064269
1.427306 0.254756 0.334727
1.236309 0.220443 -0.021920
1.065171 0.189161 -0.289877
1.273872 0.226223 0.022583
1.097542 0.194711 -0.257344
1.276292 0.226423 0.067932
1.113483 0.197339 -0.219812
1.320303 0.233994 0.117312
1.139844 0.201806 -0.183341
1.338965 0.237060 0.166961
1.164997 0.206259 -0.145268
1.367466 0.241859 0.219947
1.163430 0.205772 -0.103367
1.384249 0.244579 0.273238
1.199745 0.211980 -0.063850
1.433505 0.253282 0.336077
1.226846 0.216547 -0.021746
1.069305 0.187970 -0.290913
1.266387 0.222614 0.022444
1.101718 0.193470 -0.258244
1.274718 0.223850 0.067827
1.111892 0.195057 -0.219430
1.297161 0.227558 0.115220
1.140195 0.199816 -0.183341
1.341332 0.235065 0.167205
1.165355 0.204225 -0.145268
1.377615 0.241175 0.221511
1.165750 0.204085 -0.103541
1.398211 0.244530 0.275910
1.207983 0.211262 -0.064269
1.433945 0.250780 0.336077
1.231162 0.215093 -0.021816
1.062018 0.184779 -0.288842
1.264803 0.220061 0.022409
1.090535 0.189545 -0.255544
1.281010 0.222651 0.068141
1.114165 0.193451 -0.219812
1.319149 0.229042 0.117137
1.132756 0.196475 -0.182090
1.337828 0.232045 0.166717
1.173534 0.203548 -0.146243
1.381927 0.239446 0.222137
1.164141 0.201710 -0.103367
1.387029 0.240080 0.273620
1.204414 0.208471 -0.064059
1.436301 0.248609 0.336527
1.239417 0.214307 -0.021955
1.069955 0.184237 -0.290913
1.267156 0.218193 0.022444
1.085102 0.186650 -0.254195
1.281397 0.220415 0.068141
1.122240 0.192836 -0.221338
1.297947 0.223028 0.115220
1.136991 0.195167 -0.182715
1.328449 0.228031 0.165499
1.164105 0.199821 -0.145025
1.386236 0.237701 0.222763
1.168419 0.200351 -0.103715
1.391316 0.238322 0.274383
1.189027 0.203671 -0.063222
1.429049 0.244785 0.334727
1.245702 0.213156 -0.022060
1.081701 0.184316 -0.294018
1.277391 0.217660 0.022618
1.095032 0.186391 -0.256444
1.269966 0.216167 0.067513
1.118704 0.190219 -0.220575
1.331726 0.226440 0.118183
1.141225 0.193844 -0.183341
1.340587 0.227706 0.166961
1.164452 0.197789 -0.145025
1.371069 0.232638 0.220260
1.178588 0.199978 -0.104587
1.382052 0.234252 0.272475
1.205134 0.204266 -0.064059
1.425632 0.241639 0.333827
1.232271 0.208645 -0.021816
1.074401 0.181143 -0.291948
1.279741 0.215763 0.022653
1.095356 0.184479 -0.256444
1.274281 0.214613 0.067723
1.109354 0.186638 -0.218667
1.298718 0.218496 0.115220
1.145458 0.192506 -0.183967
1.344898 0.226024 0.167448
1.166753 0.196085 -0.145268
1.369525 0.229917 0.219947
1.165182 0.195612 -0.103367
1.405693 0.235737 0.277055
1.205489 0.202163 -0.064059
1.426051 0.239151 0.333827
1.232633 0.206494 -0.021816
1.059471 0.176724 -0.287807
1.272226 0.212213 0.022514
1.095676 0.182567 -0.256444
1.272683 0.212061 0.067618
1.115488 0.185669 -0.219812
1.308924 0.217865 0.116091
1.141895 0.189858 -0.183341
1.343332 0.223351 0.167205
1.163177 0.193397 -0.144781
1.373821 0.228174 0.220573
1.161590 0.192925 -0.103018
1.384798 0.229749 0.272857
1.209780 0.200712 -0.064269
1.436079 0.238257 0.336077
1.238910 0.205322 -0.021920
1.059778 0.174875 -0.287807
1.268648 0.209341 0.022444
1.092147 0.180021 -0.255544
1.280934 0.211139 0.068037
1.115811 0.183721 -0.219812
1.303405 0.214609 0.115569
1.138326 0.187224 -0.182715
1.326091 0.218106 0.165011
1.173306 0.192977 -0.145999
1.382014 0.227057 0.221824
1.165857 0.191544 -0.103367
1.389071 0.227967 0.273620
1.194362 0.196012 -0.063431
1.432647 0.235118 0.335177
1.239267 0.203160 -0.021920
1.071522 0.174893 -0.290913
1.265065 0.206483 0.022374
1.090537 0.177801 -0.255094
1.279329 0.208581 0.067932
1.125818 0.183351 -0.221720
1.325408 0.215857 0.117486
1.138651 0.185238 -0.182715
1.330388 0.216430 0.165499
1.167763 0.189974 -0.145268
1.384358 0.224961 0.222137
1.170123 0.190147 -0.103715
1.383653 0.224599 0.272475
1.202588 0.195208 -0.063850
