# This PCD file was generated using the MATLAB® pcwrite function
# from Computer Vision System Toolbox®.
# .PCD v.7 - Point Cloud Data file format
VERSION .7
FIELDS x y z
SIZE 4 4 4
TYPE F F F
COUNT 1 1 1
WIDTH 1679
HEIGHT 1
VIEWPOINT 0 0 0 1 0 0 0
POINTS 1679
DATA ascii
0.980576 0.095801 -0.263995
0.991104 0.096655 -0.229900
0.986779 0.096059 -0.192717
1.018448 0.098963 -0.162066
1.007651 0.097914 -0.124307
0.981626 0.095212 -0.086284
1.025789 0.099315 -0.054011
0.980741 0.094089 -0.263995
0.987392 0.094553 -0.229000
0.994763 0.095084 -0.194244
1.002888 0.095684 -0.159563
1.011773 0.096532 -0.124794
0.977824 0.093120 -0.085936
1.010055 0.096012 -0.053173
0.984751 0.092739 -0.265031
0.983675 0.092465 -0.228100
1.002746 0.094081 -0.195770
0.997153 0.093381 -0.158625
1.017869 0.095321 -0.125525
0.977985 0.091414 -0.085936
1.006243 0.093878 -0.052964
0.986835 0.091198 -0.265548
0.985775 0.090928 -0.228550
1.010728 0.093051 -0.197297
1.011084 0.092906 -0.160815
1.012104 0.092999 -0.124794
0.992031 0.090981 -0.087156
1.010384 0.092486 -0.053173
0.985069 0.089302 -0.265031
0.985933 0.089207 -0.228550
0.995247 0.089874 -0.194244
1.007310 0.090786 -0.160189
0.998425 0.089985 -0.123088
0.990204 0.089070 -0.086981
1.014522 0.091079 -0.053383
0.981374 0.087240 -0.263995
0.988028 0.087658 -0.229000
0.987580 0.087444 -0.192717
1.017290 0.090075 -0.161753
1.012422 0.089466 -0.124794
0.978450 0.086292 -0.085936
1.010700 0.088958 -0.053173
0.983450 0.085695 -0.264513
0.992047 0.086444 -0.229900
0.989672 0.086063 -0.193099
1.003670 0.087104 -0.159563
1.016532 0.088042 -0.125282
0.970645 0.084067 -0.085238
1.034717 0.089434 -0.054429
0.981658 0.083986 -0.263995
0.992197 0.084712 -0.229900
0.993733 0.084669 -0.193862
1.011693 0.086022 -0.160815
1.024581 0.087118 -0.126257
0.986672 0.083720 -0.086633
1.034871 0.087628 -0.054429
0.987579 0.082756 -0.265548
0.982633 0.082169 -0.227650
0.997792 0.083261 -0.194625
1.001999 0.083436 -0.159250
1.008905 0.084011 -0.124307
0.978875 0.081338 -0.085936
1.029051 0.085327 -0.054115
0.989647 0.081190 -0.266066
0.984717 0.080613 -0.228100
0.990109 0.080880 -0.193099
1.015925 0.082810 -0.161440
0.997179 0.081282 -0.122844
1.002845 0.081568 -0.088027
1.033180 0.083854 -0.054325
0.982085 0.078844 -0.263995
0.988741 0.079205 -0.229000
0.998076 0.079778 -0.194625
1.010161 0.080566 -0.160502
1.011171 0.080646 -0.124550
0.985111 0.078395 -0.086458
1.029343 0.081734 -0.054115
0.974517 0.076525 -0.261925
0.996649 0.078088 -0.230800
0.982556 0.076811 -0.191572
1.020147 0.079571 -0.162066
1.017248 0.079345 -0.125282
0.979287 0.076212 -0.085936
1.025502 0.079628 -0.053906
0.984280 0.075564 -0.264513
0.989012 0.075753 -0.229000
1.006179 0.076891 -0.196152
1.000587 0.076289 -0.158937
1.017385 0.077570 -0.125282
0.979419 0.074502 -0.085936
1.005724 0.076327 -0.052859
0.986337 0.073990 -0.265031
0.987199 0.073881 -0.228550
0.990649 0.073966 -0.193099
0.998749 0.074395 -0.158625
1.013559 0.075498 -0.124794
0.987495 0.073384 -0.086633
1.023781 0.075901 -0.053801
0.992245 0.072692 -0.266584
0.981496 0.071732 -0.227201
0.986861 0.071951 -0.192335
1.018579 0.074085 -0.161753
1.005770 0.073153 -0.123819
0.983647 0.071371 -0.086284
0.998016 0.072239 -0.052441
0.978881 0.069995 -0.262960
0.989395 0.070574 -0.229000
0.990901 0.070508 -0.193099
1.006884 0.071468 -0.159876
1.011837 0.071819 -0.124550
0.979795 0.069374 -0.085936
1.034002 0.073030 -0.054325
0.975148 0.068018 -0.261925
0.995349 0.069253 -0.230350
0.991023 0.068778 -0.193099
1.020802 0.070666 -0.162066
1.009980 0.069917 -0.124307
0.975939 0.067389 -0.085587
1.012210 0.069715 -0.053173
0.979120 0.066578 -0.262960
0.987691 0.066988 -0.228550
0.983306 0.066518 -0.191572
0.997273 0.067288 -0.158312
1.014062 0.068421 -0.124794
0.980031 0.065953 -0.085936
0.996388 0.066879 -0.052336
0.985017 0.065252 -0.264513
0.978084 0.064621 -0.226301
1.001052 0.065964 -0.195007
0.997389 0.065547 -0.158312
1.014180 0.066651 -0.124794
0.984121 0.064503 -0.086284
0.996503 0.065140 -0.052336
0.983202 0.063409 -0.263995
0.987919 0.063540 -0.228550
0.995288 0.063839 -0.193862
1.003405 0.064360 -0.159250
1.006370 0.064374 -0.123819
0.994174 0.063419 -0.087156
1.010568 0.064288 -0.053069
0.987167 0.061934 -0.265031
0.991907 0.062232 -0.229450
0.977752 0.061173 -0.190427
1.015345 0.063347 -0.161128
1.016387 0.063233 -0.125038
0.986318 0.061363 -0.086458
1.000700 0.062082 -0.052545
1.025882 0.063464 -0.017941
0.979550 0.059912 -0.262960
0.999795 0.060975 -0.231250
0.987656 0.060062 -0.192335
1.003623 0.060857 -0.159250
1.020448 0.061877 -0.125525
0.980458 0.059281 -0.085936
1.016756 0.061297 -0.053383
1.018007 0.061194 -0.017801
0.983510 0.058431 -0.263995
0.992118 0.058769 -0.229450
0.991679 0.058569 -0.193099
0.999784 0.058873 -0.158625
1.018573 0.059979 -0.125282
0.980560 0.057569 -0.085936
1.004899 0.058822 -0.052755
1.036079 0.060466 -0.018116
0.983611 0.056715 -0.263995
0.980546 0.056366 -0.226751
0.983939 0.056389 -0.191572
0.999885 0.057128 -0.158625
1.004803 0.057409 -0.123576
0.980659 0.055858 -0.085936
0.997023 0.056615 -0.052336
0.991423 0.055429 -0.266066
0.984535 0.054871 -0.227650
0.987957 0.054890 -0.192335
0.999984 0.055383 -0.158625
1.008866 0.055875 -0.124063
0.998659 0.055134 -0.087504
0.997121 0.054875 -0.052336
1.014320 0.055644 -0.017732
0.985732 0.053385 -0.264513
0.992413 0.053573 -0.229450
0.978249 0.052638 -0.190427
1.004024 0.053849 -0.159250
1.012926 0.054326 -0.124550
0.976868 0.052221 -0.085587
1.001204 0.053347 -0.052545
1.014416 0.053873 -0.017732
0.976177 0.051159 -0.261925
0.992505 0.051842 -0.229450
0.986182 0.051338 -0.191954
1.000171 0.051892 -0.158625
1.015002 0.052661 -0.124794
0.984917 0.050928 -0.086284
1.013263 0.052216 -0.053173
1.006520 0.051693 -0.017592
0.980124 0.049651 -0.262960
0.975077 0.049225 -0.225401
0.990191 0.049815 -0.192717
0.996314 0.049948 -0.157999
1.019058 0.051088 -0.125282
0.983014 0.049110 -0.086110
0.997394 0.049653 -0.052336
0.996622 0.049441 -0.017418
0.984068 0.048129 -0.263995
0.977108 0.047618 -0.225851
0.994199 0.048276 -0.193480
0.998373 0.048305 -0.158312
1.011214 0.048926 -0.124307
0.989069 0.047682 -0.086633
0.999475 0.048008 -0.052441
1.018679 0.048753 -0.017801
0.989940 0.046685 -0.265548
0.988869 0.046461 -0.228550
0.986437 0.046174 -0.191954
1.006348 0.046930 -0.159563
1.007332 0.046976 -0.123819
0.985170 0.045770 -0.086284
1.001552 0.046356 -0.052545
1.006777 0.046422 -0.017592
0.984230 0.044694 -0.263995
1.040769 0.047261 0.018185
0.990896 0.044823 -0.229000
0.984555 0.044364 -0.191572
1.006429 0.045174 -0.159563
1.011379 0.045396 -0.124307
0.981268 0.043873 -0.085936
1.001631 0.044608 -0.052545
1.002861 0.044487 -0.017522
0.978517 0.042723 -0.262443
1.026865 0.044834 0.017941
0.990972 0.043094 -0.229000
0.992476 0.042985 -0.193099
0.992684 0.042994 -0.157373
1.015423 0.043802 -0.124794
0.983333 0.042246 -0.086110
1.009689 0.043201 -0.052964
1.000939 0.042652 -0.017487
0.976660 0.040934 -0.261925
1.010958 0.042371 0.017662
0.989092 0.041455 -0.228550
0.990581 0.041345 -0.192717
0.992757 0.041262 -0.157373
1.025415 0.042439 -0.126013
0.981408 0.040618 -0.085936
1.001774 0.041286 -0.052545
1.022983 0.041982 -0.017871
0.986374 0.039789 -0.264513
1.003031 0.040461 0.017522
0.993057 0.039886 -0.229450
0.990652 0.039616 -0.192717
0.998749 0.039765 -0.158312
1.013579 0.040355 -0.124550
0.991431 0.039300 -0.086807
0.993861 0.039223 -0.052127
1.013064 0.039803 -0.017697
0.992233 0.038292 -0.266066
1.005099 0.038788 0.017557
0.983388 0.037778 -0.227201
0.982872 0.037586 -0.191191
0.996843 0.037947 -0.157999
1.003730 0.038209 -0.123332
0.989507 0.037495 -0.086633
1.001912 0.037789 -0.052545
1.007137 0.037810 -0.017592
0.980715 0.036133 -0.262960
1.029145 0.037917 0.017976
0.987348 0.036204 -0.228100
0.986860 0.036014 -0.191954
0.998882 0.036279 -0.158312
1.011730 0.036745 -0.124307
0.983598 0.035551 -0.086110
1.005968 0.036184 -0.052755
1.009200 0.036124 -0.017627
0.976916 0.034285 -0.261925
1.023214 0.035910 0.017871
0.989357 0.034549 -0.228550
0.981035 0.034088 -0.190809
0.996970 0.034467 -0.157999
1.015761 0.035116 -0.124794
0.973703 0.033492 -0.085238
1.004034 0.034360 -0.052650
1.017256 0.034635 -0.017767
0.976974 0.032580 -0.261925
1.005288 0.033525 0.017557
0.985520 0.032693 -0.227650
0.983055 0.032440 -0.191191
0.993080 0.032597 -0.157373
1.017804 0.033409 -0.125038
0.981725 0.032052 -0.085936
0.994111 0.032284 -0.052127
1.025309 0.033118 -0.017906
0.980891 0.030997 -0.262960
1.011341 0.031959 0.017662
0.983628 0.030912 -0.227201
0.990960 0.030969 -0.192717
0.995109 0.030925 -0.157686
1.009924 0.031385 -0.124063
0.977796 0.030216 -0.085587
0.994166 0.030549 -0.052127
1.021368 0.031205 -0.017836
0.980944 0.029285 -0.262960
1.015393 0.030314 0.017732
0.983681 0.029195 -0.227201
0.991012 0.029239 -0.192717
0.999106 0.029478 -0.158312
1.004025 0.029448 -0.123332
0.989797 0.028858 -0.086633
1.002203 0.029044 -0.052545
1.017423 0.029308 -0.017767
0.984856 0.027682 -0.263995
1.005450 0.028261 0.017557
0.989569 0.027815 -0.228550
0.983207 0.027464 -0.191191
1.003105 0.027844 -0.158937
1.008044 0.027805 -0.123819
0.985858 0.027193 -0.086284
1.006241 0.027580 -0.052755
1.011471 0.027546 -0.017662
0.977173 0.025930 -0.261925
1.001495 0.026575 0.017487
0.993512 0.026190 -0.229450
0.985216 0.025799 -0.191572
0.999198 0.026165 -0.158312
1.012055 0.026325 -0.124307
0.981920 0.025370 -0.085936
1.010281 0.025926 -0.052964
1.011517 0.025781 -0.017662
0.984942 0.024416 -0.263995
0.981549 0.024332 0.017138
0.989656 0.024533 -0.228550
0.991143 0.024396 -0.192717
0.991343 0.024228 -0.157060
1.020037 0.024751 -0.125282
0.981959 0.023827 -0.085936
0.998340 0.024050 -0.052336
1.015555 0.024287 -0.017732
0.992708 0.022875 -0.266066
0.999582 0.023033 0.017452
0.976064 0.022320 -0.225401
0.993151 0.022538 -0.193099
0.991388 0.022325 -0.157060
1.006187 0.022658 -0.123576
0.989971 0.022120 -0.086633
1.002378 0.022222 -0.052545
1.023597 0.022514 -0.017871
0.985021 0.020977 -0.263995
1.005619 0.021416 0.017557
0.987791 0.020864 -0.228100
0.999077 0.020928 -0.194244
1.003275 0.020840 -0.158937
1.002255 0.020819 -0.123088
0.988016 0.020351 -0.086458
1.006409 0.020554 -0.052755
1.029632 0.020849 -0.017976
0.981193 0.019183 -0.262960
0.997657 0.019504 0.017418
0.991723 0.019215 -0.229000
0.989298 0.018996 -0.192335
0.997385 0.018977 -0.157999
1.008244 0.019183 -0.123819
0.982074 0.018514 -0.085936
1.002449 0.018723 -0.052545
0.991679 0.018349 -0.017313
0.973499 0.017333 -0.260890
1.003688 0.017870 0.017522
1.005394 0.017725 -0.232149
0.985404 0.017200 -0.191572
0.999391 0.017270 -0.158312
1.014231 0.017527 -0.124550
0.982104 0.016800 -0.085936
1.002481 0.016974 -0.052545
1.007705 0.016886 -0.017592
0.985117 0.015820 -0.263995
0.995720 0.015990 0.017383
0.985938 0.015661 -0.227650
0.989358 0.015542 -0.192335
0.991520 0.015403 -0.157060
1.010290 0.015695 -0.124063
0.986116 0.015147 -0.086284
1.010497 0.015345 -0.052964
1.009732 0.015157 -0.017627
0.989007 0.014155 -0.265031
1.007743 0.014423 0.017592
0.985964 0.013940 -0.227650
0.993310 0.013871 -0.193099
0.993520 0.013700 -0.157373
1.002376 0.013822 -0.123088
0.986141 0.013426 -0.086284
1.002534 0.013474 -0.052545
1.003759 0.013315 -0.017522
0.990962 0.012453 -0.265548
1.001768 0.012589 0.017487
0.987935 0.012243 -0.228100
1.026512 0.012722 0.053801
0.989406 0.012089 -0.192335
0.993540 0.012139 -0.157373
0.998429 0.012024 -0.122601
0.990148 0.011752 -0.086633
0.996564 0.011654 -0.052231
1.007780 0.011609 -0.017592
0.985187 0.010661 -0.263995
1.013786 0.010971 0.017697
0.991851 0.010733 -0.229000
1.030527 0.010972 0.054011
0.983535 0.010472 -0.191191
1.003436 0.010508 -0.158937
1.004403 0.010343 -0.123332
0.978211 0.010074 -0.085587
1.004570 0.010170 -0.052650
1.011796 0.010066 -0.017662
0.971680 0.008988 -0.260372
1.005804 0.009304 0.017557
0.997714 0.009055 -0.230350
0.987478 0.008790 -0.191954
0.991601 0.008653 -0.157060
1.006405 0.008607 -0.123576
0.978227 0.008366 -0.085587
1.004586 0.008416 -0.052650
1.009812 0.008284 -0.017627
0.981354 0.007194 -0.262960
0.997821 0.007315 0.017418
0.984087 0.007214 -0.227201
1.038548 0.007432 0.054429
0.991418 0.007094 -0.192717
0.989640 0.006909 -0.156747
1.014359 0.006905 -0.124550
0.986211 0.006541 -0.086284
1.000606 0.006462 -0.052441
1.007827 0.006333 -0.017592
0.987161 0.005513 -0.264513
1.001832 0.005595 0.017487
0.989945 0.005356 -0.228550
1.044551 0.005652 0.054743
0.999283 0.005233 -0.194244
0.993601 0.005203 -0.157373
1.004444 0.005084 -0.123332
0.988213 0.004829 -0.086458
0.996621 0.004697 -0.052231
1.015835 0.004610 -0.017732
0.985237 0.003783 -0.263995
1.005839 0.003862 0.017557
0.991901 0.003809 -0.229000
1.004615 0.003683 0.052650
0.985547 0.003613 -0.191572
0.997559 0.003482 -0.157999
0.996511 0.003305 -0.122357
0.992205 0.003290 -0.086807
0.996627 0.003132 -0.052231
1.009842 0.002996 -0.017627
0.989106 0.002244 -0.265031
1.013843 0.002301 0.017697
0.995804 0.002085 -0.229900
0.990638 0.002074 0.051917
0.979662 0.001881 -0.190427
1.007441 0.001759 -0.159563
1.000485 0.001746 -0.122844
0.982247 0.001543 -0.085936
1.014607 0.001417 -0.053173
1.007846 0.001232 -0.017592
0.973653 0.000510 -0.260890
1.013846 0.000531 0.017697
0.993858 0.000347 -0.229450
0.994635 0.000347 0.052127
0.987517 0.000173 -0.191954
0.989664 -0.000000 -0.156747
1.004457 -0.000000 -0.123332
0.978263 -0.000171 -0.085587
1.010613 -0.000353 -0.052964
1.009846 -0.000529 -0.017627
0.981380 -0.001199 -0.262960
1.005846 -0.001229 0.017557
0.989959 -0.001382 -0.228550
1.014607 -0.001417 0.053173
0.987516 -0.001551 -0.191954
0.993613 -0.001734 -0.157373
1.012396 -0.001767 -0.124307
0.982246 -0.001886 -0.085936
1.004619 -0.002104 -0.052650
1.019842 -0.002314 -0.017801
0.985240 -0.002923 -0.263995
1.001843 -0.002973 0.017487
0.980211 -0.003079 -0.226301
0.980649 -0.003081 0.051394
0.999291 -0.003314 -0.194244
0.993609 -0.003468 -0.157373
1.008421 -0.003520 -0.123819
0.986226 -0.003615 -0.086284
1.002617 -0.003850 -0.052545
1.017837 -0.004086 -0.017767
0.989097 -0.004661 -0.265031
1.007835 -0.004749 0.017592
0.980205 -0.004790 -0.226301
0.982640 -0.004802 0.051499
0.987504 -0.004998 -0.191954
0.999527 -0.005234 -0.158312
0.994518 -0.005207 -0.122113
0.982234 -0.005314 -0.085936
1.018586 -0.005689 -0.053383
1.005830 -0.005793 -0.017557
0.981360 -0.006337 -0.262960
1.021823 -0.006599 0.017836
0.989938 -0.006566 -0.228550
0.978635 -0.006491 0.051289
0.981604 -0.006682 -0.190809
1.001492 -0.006992 -0.158625
1.004432 -0.007012 -0.123332
0.982223 -0.007029 -0.085936
0.998603 -0.007320 -0.052336
0.981823 -0.007369 -0.017138
0.975552 -0.008003 -0.261407
1.009812 -0.008284 0.017627
0.993823 -0.008326 -0.229450
0.990606 -0.008299 0.051917
0.981591 -0.008395 -0.190809
0.995553 -0.008514 -0.157686
1.016329 -0.008869 -0.124794
0.984201 -0.008761 -0.086110
1.030543 -0.009353 -0.054011
1.011803 -0.009360 -0.017662
0.983264 -0.009782 -0.263478
1.003797 -0.009986 0.017522
0.989911 -0.009848 -0.228550
0.998578 -0.010109 0.052336
0.991393 -0.010036 -0.192717
0.995537 -0.010252 -0.157686
1.018297 -0.010664 -0.125038
0.982194 -0.010286 -0.085936
1.000570 -0.010653 -0.052441
1.021785 -0.011057 -0.017836
0.981316 -0.011304 -0.262960
1.007780 -0.011609 0.017592
0.985995 -0.011530 -0.227650
0.992570 -0.011607 0.052022
0.999226 -0.011860 -0.194244
1.002101 -0.011894 0.087679
0.995518 -0.011989 -0.157686
1.000414 -0.012048 -0.122844
0.976198 -0.011927 -0.085413
1.000550 -0.012399 -0.052441
1.025763 -0.012891 -0.017906
0.996748 -0.013222 -0.267101
1.009757 -0.013395 0.017627
0.993768 -0.013356 -0.229450
0.982563 -0.013205 0.051499
0.983499 -0.013390 -0.191191
1.022001 -0.013914 0.089422
0.997470 -0.013754 -0.157999
1.000391 -0.013794 -0.122844
0.992113 -0.013853 -0.086807
0.998530 -0.014117 -0.052336
1.015741 -0.014538 -0.017732
0.981270 -0.014730 -0.262960
1.021729 -0.015337 0.017836
0.985949 -0.014972 -0.227650
0.974550 -0.014799 0.051080
0.979548 -0.015046 -0.190427
1.006038 -0.015453 0.088027
1.003370 -0.015587 -0.158937
1.000366 -0.015540 -0.122844
0.986111 -0.015491 -0.086284
0.998504 -0.015860 -0.052336
1.011716 -0.016247 -0.017662
0.971585 -0.016281 -0.260372
1.013703 -0.016986 0.017697
0.997612 -0.016891 -0.230350
1.004477 -0.017007 0.052650
0.985410 -0.016856 -0.191572
1.029915 -0.017618 0.090119
0.989516 -0.017099 -0.156747
1.012246 -0.017492 -0.124307
0.974130 -0.017004 -0.085238
1.024435 -0.018060 -0.053697
1.019683 -0.018155 -0.017801
0.983144 -0.018191 -0.263478
1.009673 -0.018682 0.017627
0.989787 -0.018486 -0.228550
0.992465 -0.018536 0.052022
0.993230 -0.018724 -0.193099
1.019922 -0.019227 0.089247
0.993435 -0.018901 -0.157373
1.012214 -0.019259 -0.124307
0.978083 -0.018780 -0.085587
1.000439 -0.019384 -0.052441
1.015651 -0.019856 -0.017732
0.985043 -0.019946 -0.263995
1.003641 -0.020322 0.017522
0.985857 -0.020134 -0.227650
0.980450 -0.020024 0.051394
0.993196 -0.020458 -0.193099
1.005943 -0.020720 0.088027
0.993400 -0.020635 -0.157373
0.998286 -0.020737 -0.122601
0.982033 -0.020571 -0.085936
1.018375 -0.021510 -0.053383
1.017614 -0.021671 -0.017767
0.988869 -0.021750 -0.265031
1.009602 -0.022206 0.017627
0.983872 -0.021812 -0.227201
0.978417 -0.021691 0.051289
0.985308 -0.022016 -0.191572
1.021841 -0.022832 0.089422
0.999287 -0.022503 -0.158312
0.992295 -0.022345 -0.121869
0.985979 -0.022375 -0.086284
1.004359 -0.022967 -0.052650
1.013577 -0.023355 -0.017697
0.984967 -0.023384 -0.263995
1.029553 -0.024443 0.017976
0.991625 -0.023715 -0.229000
0.994351 -0.023780 0.052127
0.977417 -0.023546 -0.190046
1.007857 -0.024279 0.088202
1.001221 -0.024294 -0.158625
1.002177 -0.024318 -0.123088
0.981955 -0.023998 -0.085936
1.002321 -0.024671 -0.052545
1.013534 -0.025124 -0.017697
0.979131 -0.024955 -0.262443
1.009518 -0.025730 0.017627
0.989634 -0.025396 -0.228550
0.980332 -0.025157 0.051394
0.987188 -0.025506 -0.191954
0.999846 -0.025833 0.087504
0.993283 -0.025663 -0.157373
1.004117 -0.026118 -0.123332
0.977928 -0.025608 -0.085587
1.010262 -0.026631 -0.052964
1.009491 -0.026787 -0.017627
0.981017 -0.026717 -0.262960
1.009472 -0.027492 0.017627
0.991541 -0.027003 -0.229000
1.000251 -0.027415 0.052441
0.987146 -0.027056 -0.191954
1.001796 -0.027458 0.087679
0.985338 -0.027179 -0.156122
1.010023 -0.028036 -0.124063
0.973903 -0.027033 -0.085238
0.998240 -0.027883 -0.052336
1.009448 -0.028373 -0.017627
0.988698 -0.028480 -0.265031
0.999433 -0.028790 0.017452
0.975909 -0.028282 -0.225401
0.994218 -0.028813 0.052127
0.989060 -0.028836 -0.192335
1.027636 -0.029961 0.089945
0.991213 -0.029072 -0.157060
1.000056 -0.029332 -0.122844
0.981821 -0.028968 -0.085936
0.994197 -0.029507 -0.052127
1.013394 -0.030254 -0.017697
0.988647 -0.030206 -0.265031
1.017370 -0.031083 0.017767
0.987545 -0.030345 -0.228100
0.982188 -0.030180 0.051499
0.985084 -0.030441 -0.191572
1.019617 -0.031508 0.089247
0.995109 -0.030925 -0.157686
0.998020 -0.031015 -0.122601
0.977786 -0.030557 -0.085587
1.008118 -0.031681 -0.052859
1.009342 -0.031896 -0.017627
0.984731 -0.031807 -0.263995
1.011319 -0.032665 0.017662
0.989438 -0.032132 -0.228550
0.986126 -0.032024 0.051708
0.977180 -0.031904 -0.190046
1.015578 -0.033158 0.088899
1.004926 -0.032986 -0.159250
1.003916 -0.032953 -0.123332
0.977731 -0.032264 -0.085587
1.012054 -0.033573 -0.053069
1.005288 -0.033524 -0.017557
0.976951 -0.033262 -0.261925
1.007263 -0.034294 0.017592
0.993276 -0.033992 -0.229450
0.982077 -0.033608 0.051499
0.981047 -0.033745 -0.190809
0.997597 -0.034314 0.087330
0.994995 -0.034398 -0.157686
1.005841 -0.034773 -0.123576
0.965726 -0.033555 -0.084541
1.013990 -0.035409 -0.053173
1.013222 -0.035560 -0.017697
0.982683 -0.035175 -0.263478
1.003205 -0.035909 0.017522
0.993215 -0.035725 -0.229450
0.999980 -0.035969 0.052441
0.990797 -0.035811 -0.192717
1.001518 -0.036199 0.087679
0.990986 -0.035991 -0.157060
1.009746 -0.036673 -0.124063
0.977612 -0.035677 -0.085587
1.015922 -0.037252 -0.053278
1.013158 -0.037328 -0.017697
0.988412 -0.037107 -0.265031
1.011134 -0.037960 0.017662
0.987309 -0.037238 -0.228100
0.989937 -0.037337 0.051917
0.984847 -0.037318 -0.191572
1.019372 -0.038626 0.089247
0.994869 -0.037871 -0.157686
1.005713 -0.038284 -0.123576
0.981531 -0.037535 -0.085936
1.011864 -0.038872 -0.053069
1.021084 -0.039405 -0.017836
0.990276 -0.038908 -0.265548
1.013064 -0.039803 0.017697
0.985296 -0.038885 -0.227650
0.973904 -0.038435 0.051080
0.982819 -0.038959 -0.191191
1.015321 -0.040247 0.088899
1.000723 -0.039843 -0.158625
0.997711 -0.039723 -0.122601
0.989427 -0.039567 -0.086633
1.025764 -0.041199 -0.053801
1.007028 -0.040622 -0.017592
0.984416 -0.040399 -0.263995
1.024981 -0.042063 0.017906
0.991067 -0.040845 -0.229000
0.985809 -0.040628 0.051708
0.976864 -0.040430 -0.190046
1.013259 -0.041937 0.088725
1.010521 -0.042000 -0.160189
1.017474 -0.042289 0.125038
1.005574 -0.041794 -0.123576
0.981394 -0.040961 -0.085936
1.003740 -0.042069 -0.052650
1.008953 -0.042464 -0.017627
0.982414 -0.042034 -0.263478
1.010921 -0.043254 0.017662
1.000729 -0.042993 -0.231250
0.991723 -0.042606 0.052022
0.982677 -0.042389 -0.191191
1.009203 -0.043533 0.088376
0.996638 -0.042991 -0.157999
1.029298 -0.044580 0.126500
1.011449 -0.043807 -0.124307
0.969378 -0.042154 -0.084890
0.991693 -0.043298 -0.052022
1.008877 -0.044225 -0.017627
0.984269 -0.043835 -0.263995
1.006848 -0.044840 0.017592
0.990927 -0.044131 -0.229000
0.993642 -0.044426 0.052127
0.982609 -0.043933 -0.191191
1.009133 -0.045119 0.088376
0.990642 -0.044465 -0.157060
1.013354 -0.045662 -0.124550
0.981252 -0.044215 -0.085936
0.985638 -0.044585 -0.051708
1.012802 -0.045991 -0.017697
0.978409 -0.045114 -0.262443
1.004779 -0.046330 0.017557
0.985008 -0.045590 -0.227650
0.989581 -0.045802 0.051917
0.994298 -0.046194 -0.193480
1.013034 -0.047065 0.088725
0.996482 -0.046470 -0.157999
1.041042 -0.048548 0.127963
1.007332 -0.046976 -0.123819
0.985154 -0.046114 -0.086284
0.983564 -0.046212 -0.051603
1.016715 -0.047947 -0.017767
0.987977 -0.047283 -0.265031
1.014684 -0.048561 0.017732
0.986874 -0.047403 -0.228100
0.981520 -0.047146 0.051499
0.986371 -0.047551 -0.191954
1.020910 -0.049216 0.089422
1.002319 -0.048496 -0.158937
1.029059 -0.049789 0.126500
1.003283 -0.048542 -0.123332
0.991042 -0.048123 -0.086807
0.993456 -0.048414 -0.052127
1.004646 -0.049135 -0.017557
0.987893 -0.049007 -0.265031
1.022587 -0.050728 0.017871
0.988736 -0.049222 -0.228550
0.977446 -0.048660 0.051289
0.986287 -0.049273 -0.191954
1.010873 -0.050501 0.088550
1.000260 -0.050146 -0.158625
1.011127 -0.050691 0.124307
1.007162 -0.050492 -0.123819
0.984987 -0.049553 -0.086284
1.005338 -0.050752 -0.052755
1.008553 -0.051091 -0.017627
0.985877 -0.050632 -0.264513
1.010514 -0.051898 0.017662
0.992541 -0.051148 -0.229450
0.985339 -0.050777 0.051708
0.986199 -0.050994 -0.191954
1.006804 -0.052060 0.088202
0.996225 -0.051687 -0.157999
1.005090 -0.052147 0.123576
1.009055 -0.052353 -0.124063
0.972961 -0.050650 -0.085238
1.001259 -0.052299 -0.052545
1.014453 -0.053165 -0.017732
0.983858 -0.052251 -0.263995
0.998441 -0.053025 0.017452
0.990504 -0.052777 -0.229000
0.987243 -0.052603 0.051813
0.988069 -0.052820 -0.192335
1.012680 -0.054136 0.088725
0.996134 -0.053426 -0.157999
1.003015 -0.053795 0.123332
1.006980 -0.054007 -0.123819
0.976850 -0.052562 -0.085587
0.997178 -0.053831 -0.052336
1.014359 -0.054936 -0.017732
0.985694 -0.054073 -0.264513
1.014320 -0.055644 0.017732
0.986519 -0.054291 -0.228100
0.987150 -0.054326 0.051813
0.993857 -0.054869 -0.193480
1.008606 -0.055683 0.088376
0.988149 -0.054727 -0.156747
1.002920 -0.055545 0.123332
1.000938 -0.055435 -0.123088
0.984714 -0.054709 -0.086284
0.997082 -0.055571 -0.052336
1.018255 -0.056929 -0.017801
0.995242 -0.056340 -0.267101
1.014222 -0.057414 0.017732
0.982531 -0.055792 -0.227201
0.977083 -0.055483 0.051289
0.987879 -0.056269 -0.192335
1.028399 -0.058577 0.090119
0.995941 -0.056902 -0.157999
1.010749 -0.057748 0.124307
1.002821 -0.057296 -0.123332
0.986606 -0.056542 -0.086458
0.992996 -0.057082 -0.052127
1.010168 -0.058246 -0.017662
0.983571 -0.057401 -0.263995
1.016116 -0.059301 0.017767
0.978541 -0.057279 -0.226301
0.990942 -0.058005 0.052022
0.983860 -0.057763 -0.191572
1.004427 -0.058970 0.088027
0.999784 -0.058873 -0.158625
1.020555 -0.060096 0.125525
0.998756 -0.058812 -0.122844
0.980539 -0.057911 -0.085936
0.994888 -0.058933 -0.052231
1.006073 -0.059772 -0.017592
0.975766 -0.058484 -0.261925
1.010033 -0.060538 0.017662
0.995957 -0.059869 -0.230350
0.986862 -0.059322 0.051813
0.989647 -0.059663 -0.192717
1.000356 -0.060308 0.087679
0.993775 -0.060086 -0.157686
1.022441 -0.061819 0.125769
0.998663 -0.060381 -0.122844
0.974481 -0.059090 -0.085413
0.998782 -0.060738 -0.052441
1.009969 -0.061595 -0.017662
0.977591 -0.060306 -0.262443
1.009926 -0.062301 0.017662
0.995851 -0.061607 -0.230350
1.006691 -0.062277 0.052859
0.985622 -0.061147 -0.191954
1.012180 -0.062794 0.088725
0.987754 -0.061452 -0.156747
1.012425 -0.062987 0.124550
1.000537 -0.062247 -0.123088
0.976365 -0.060914 -0.085587
0.994687 -0.062232 -0.052231
1.011856 -0.063483 -0.017697
0.987124 -0.062623 -0.265031
1.001833 -0.063557 0.017522
0.989908 -0.062974 -0.229000
0.986649 -0.062766 0.051813
0.991392 -0.063242 -0.193099
1.020023 -0.065068 0.089422
0.995531 -0.063680 -0.157999
1.004389 -0.064247 0.123576
1.000427 -0.063993 -0.123088
0.982222 -0.063001 -0.086110
0.990591 -0.063711 -0.052022
1.017730 -0.065635 -0.017801
0.990868 -0.064598 -0.266066
1.017684 -0.066346 0.017801
0.987852 -0.064574 -0.228550
0.976573 -0.063837 0.051289
0.991280 -0.064972 -0.193099
1.019907 -0.066848 0.089422
0.991476 -0.065159 -0.157373
1.020122 -0.067041 0.125525
0.994371 -0.065349 -0.122357
1.009204 -0.066501 0.160189
0.988075 -0.065108 -0.086633
0.994464 -0.065704 -0.052231
1.009633 -0.066883 -0.017662
0.984972 -0.065940 -0.264513
1.021557 -0.068389 0.017871
0.991626 -0.066559 -0.229450
1.000373 -0.067146 0.052545
0.979412 -0.065911 -0.190809
1.011838 -0.068093 0.088725
0.999244 -0.067421 -0.158625
1.016042 -0.068554 0.125038
0.998217 -0.067352 -0.122844
1.040621 -0.070395 0.165195
0.983984 -0.066564 -0.086284
1.018260 -0.069061 -0.053487
1.001534 -0.068102 -0.017522
0.979073 -0.067262 -0.262960
1.007472 -0.069213 0.017627
0.997341 -0.068691 -0.230800
0.988299 -0.068069 0.051917
0.989088 -0.068296 -0.192717
1.003767 -0.069310 0.088027
0.991242 -0.068619 -0.157373
1.027803 -0.071150 0.126500
1.004039 -0.069505 -0.123576
1.028672 -0.071391 0.163318
0.971941 -0.067453 -0.085238
1.000206 -0.069590 -0.052545
1.007399 -0.070267 -0.017627
0.984735 -0.069378 -0.264513
0.999370 -0.070409 0.017487
0.987500 -0.069746 -0.228550
1.008102 -0.071201 0.052964
0.981134 -0.069468 -0.191191
1.005632 -0.071203 0.088202
0.997045 -0.070595 -0.158312
1.013817 -0.071960 0.124794
1.007876 -0.071538 -0.124063
1.032487 -0.073466 0.163943
0.985733 -0.070139 -0.086458
1.014028 -0.072331 -0.053278
1.013258 -0.072453 -0.017732
0.984613 -0.071096 -0.264513
1.005229 -0.072585 0.017592
0.981558 -0.070876 -0.227201
0.988056 -0.071518 0.051917
0.994731 -0.072001 -0.193862
1.019429 -0.073789 0.089422
0.996920 -0.072335 -0.158312
1.015682 -0.073696 0.125038
1.005770 -0.073153 -0.123819
1.032370 -0.075088 0.163943
0.983634 -0.071543 -0.086284
0.990010 -0.072181 -0.052022
1.015138 -0.074191 -0.017767
0.986426 -0.072785 -0.265031
1.013091 -0.074752 0.017732
0.983377 -0.072732 -0.227650
1.001885 -0.074101 0.052650
0.992646 -0.073592 -0.193480
1.021285 -0.075715 0.089596
0.990882 -0.073635 -0.157373
1.019511 -0.075763 0.125525
0.997735 -0.074145 -0.122844
1.008599 -0.075129 0.160189
0.989469 -0.073704 -0.086807
0.993866 -0.074206 -0.052231
1.003042 -0.075067 -0.017557
0.980519 -0.074070 -0.263478
1.014953 -0.076671 0.017767
0.987134 -0.074743 -0.228550
0.983830 -0.074493 0.051708
0.986643 -0.074879 -0.192335
1.019165 -0.077347 0.089422
0.996661 -0.075814 -0.158312
1.021357 -0.077693 0.125769
1.001563 -0.076187 -0.123332
1.008466 -0.076889 0.160189
0.983379 -0.074976 -0.086284
1.025598 -0.078375 -0.053906
1.002909 -0.076818 -0.017557
0.978462 -0.075632 -0.262960
1.006843 -0.077826 0.017627
0.992831 -0.076917 -0.229900
1.009585 -0.078215 0.053069
0.988468 -0.076753 -0.192717
1.007110 -0.078200 0.088376
0.986680 -0.076787 -0.156747
1.023199 -0.079629 0.126013
1.005387 -0.078243 -0.123819
1.022116 -0.079724 0.162379
0.977287 -0.076228 -0.085761
0.997583 -0.077986 -0.052441
1.008754 -0.079036 -0.017662
0.982180 -0.077644 -0.263995
1.006706 -0.079583 0.017627
0.984925 -0.078034 -0.228100
0.995510 -0.078873 0.052336
0.990290 -0.078633 -0.193099
1.008958 -0.080116 0.088550
0.990483 -0.078822 -0.157373
1.019101 -0.081100 0.125525
1.011185 -0.080470 -0.124550
1.012130 -0.080723 0.160815
0.987083 -0.078725 -0.086633
1.017355 -0.081318 -0.053487
1.008615 -0.080797 -0.017662
0.980118 -0.079203 -0.263478
1.010552 -0.081662 0.017697
0.986730 -0.079910 -0.228550
0.997362 -0.080771 0.052441
0.996021 -0.080838 -0.194244
1.016760 -0.082521 0.089247
0.986406 -0.080231 -0.156747
1.005108 -0.081752 0.123819
1.003129 -0.081591 -0.123576
1.021832 -0.083292 0.162379
0.979001 -0.079800 -0.085936
0.985361 -0.080492 -0.051813
1.016445 -0.083210 -0.017801
0.991530 -0.081867 -0.266584
1.014393 -0.083755 0.017767
0.990473 -0.081954 -0.229450
0.983286 -0.081359 0.051708
0.984140 -0.081603 -0.191954
1.020586 -0.084625 0.089596
0.996108 -0.082770 -0.158312
1.018811 -0.084657 0.125525
0.995072 -0.082684 -0.122601
1.007905 -0.083928 0.160189
0.992759 -0.082666 -0.087156
0.991190 -0.082710 -0.052127
1.002349 -0.083817 -0.017557
0.977910 -0.082461 -0.262960
1.020223 -0.086029 0.017871
0.990328 -0.083682 -0.229450
0.989113 -0.083580 0.052022
0.976171 -0.082658 -0.190427
1.012496 -0.085734 0.088899
0.997930 -0.084676 -0.158625
1.026574 -0.087106 0.126500
0.998882 -0.084756 -0.123088
0.999884 -0.085017 0.158937
0.978717 -0.083217 -0.085936
1.016915 -0.086644 -0.053487
1.004193 -0.085737 -0.017592
0.975840 -0.084002 -0.262443
1.004133 -0.086438 0.017592
0.996005 -0.085913 -0.230800
1.002895 -0.086507 0.052755
0.985805 -0.085207 -0.192335
1.008374 -0.087157 0.088550
0.999749 -0.086588 -0.158937
1.022465 -0.088555 0.126013
1.000710 -0.086671 -0.123332
1.009573 -0.087616 0.160502
0.984525 -0.085442 -0.086458
1.000844 -0.087034 -0.052650
1.000058 -0.087142 -0.017522
0.979541 -0.086043 -0.263478
0.996013 -0.087490 0.017452
0.993913 -0.087480 -0.230350
0.996773 -0.087732 0.052441
0.987610 -0.087099 -0.192717
1.008221 -0.088917 0.088550
0.985837 -0.086943 -0.156747
1.016377 -0.089815 0.125282
1.008467 -0.089116 -0.124307
1.015322 -0.089901 0.161440
0.978420 -0.086633 -0.085936
1.018596 -0.090370 -0.053592
1.015839 -0.090304 -0.017801
0.979389 -0.087753 -0.263478
1.007809 -0.090299 0.017662
0.980187 -0.087824 -0.227201
0.998608 -0.089650 0.052545
0.995294 -0.089353 -0.194244
1.019986 -0.091570 0.089596
0.995521 -0.089548 -0.158312
1.008326 -0.090700 0.124307
0.994471 -0.089629 -0.122601
1.013212 -0.091318 0.161128
0.978283 -0.088170 -0.085936
0.991336 -0.089521 0.193480
0.992593 -0.089634 -0.052231
1.007730 -0.091179 -0.017662
0.990793 -0.090344 -0.266584
1.007666 -0.091882 0.017662
0.989736 -0.090421 -0.229450
0.980565 -0.089584 0.051603
0.989271 -0.090553 -0.193099
1.019825 -0.093350 0.089596
0.993396 -0.091105 -0.157999
1.014097 -0.093004 0.125038
1.000259 -0.091735 -0.123332
1.007150 -0.092544 0.160189
0.988048 -0.090789 -0.086807
1.002908 -0.092331 0.195770
1.016302 -0.093564 -0.053487
1.009560 -0.093121 -0.017697
0.982940 -0.091358 -0.264513
1.023433 -0.095121 0.017941
0.995397 -0.092691 -0.230800
1.002283 -0.093332 0.052755
0.987157 -0.092097 -0.192717
1.011725 -0.094389 0.088899
1.003070 -0.093758 -0.159563
1.019862 -0.095328 0.125769
1.004050 -0.093850 -0.123819
1.001087 -0.093749 0.159250
0.981937 -0.091956 -0.086284
1.002746 -0.094081 0.195770
0.994263 -0.093285 -0.052336
1.007405 -0.094696 -0.017662
0.980856 -0.092891 -0.263995
1.007339 -0.095399 0.017662
0.999114 -0.094796 -0.231700
0.988200 -0.093760 0.052022
0.985040 -0.093634 -0.192335
1.015526 -0.096532 0.089247
0.993072 -0.094572 -0.157999
1.023647 -0.097484 0.126257
1.005861 -0.095790 -0.124063
1.012720 -0.096622 0.161128
0.979791 -0.093480 -0.086110
0.998671 -0.095457 0.195007
1.017957 -0.097301 -0.053592
1.007238 -0.096454 -0.017662
0.986461 -0.095159 -0.265548
0.995228 -0.096005 0.017452
0.983430 -0.095040 -0.228100
1.003939 -0.097022 0.052859
0.994646 -0.096299 -0.194244
1.011390 -0.097920 0.088899
0.992906 -0.096306 -0.157999
1.013596 -0.098312 0.125038
1.005692 -0.097546 -0.124063
1.012550 -0.098389 0.161128
0.977643 -0.094997 -0.085936
1.004365 -0.097771 0.196152
1.017786 -0.099077 -0.053592
1.015029 -0.098988 -0.017801
0.984371 -0.096692 -0.265031
0.997049 -0.097937 0.017487
0.989080 -0.097329 -0.229450
0.985879 -0.097014 0.051917
1.000337 -0.098613 -0.195388
1.019148 -0.100467 0.089596
0.996668 -0.098427 -0.158625
1.007496 -0.099496 0.124307
1.009472 -0.099691 -0.124550
1.016308 -0.100545 0.161753
0.987390 -0.097684 -0.086807
1.010054 -0.100105 0.197297
0.991773 -0.098293 -0.052231
1.014855 -0.100759 -0.017801
0.993812 -0.099371 -0.267619
1.006825 -0.100672 0.017662
0.988909 -0.099055 -0.229450
0.985708 -0.098734 0.051917
0.990397 -0.099378 -0.193480
1.013024 -0.101649 0.089073
0.996494 -0.100166 -0.158625
1.011271 -0.101651 0.124794
0.995470 -0.100063 -0.122844
1.012200 -0.101923 0.161128
0.981271 -0.098809 -0.086284
1.009878 -0.101867 0.197297
1.005511 -0.101427 -0.052964
1.008709 -0.101927 -0.017697
0.980183 -0.099736 -0.263995
1.006648 -0.102429 0.017662
0.992612 -0.101176 -0.230350
0.989508 -0.100860 0.052127
0.984362 -0.100509 -0.192335
1.016809 -0.103822 0.089422
0.996318 -0.101905 -0.158625
1.022941 -0.104628 0.126257
1.003193 -0.102608 -0.123819
1.008091 -0.103287 0.160502
0.987043 -0.101130 -0.086807
1.035087 -0.106236 0.202258
1.017253 -0.104405 -0.053592
1.008530 -0.103688 -0.017697
0.980008 -0.101447 -0.263995
1.002490 -0.103774 0.017592
1.006002 -0.104315 -0.233499
0.995290 -0.103204 0.052441
0.986138 -0.102429 -0.192717
1.004736 -0.104361 0.088376
1.000068 -0.104053 -0.159250
1.016834 -0.105797 0.125525
1.001038 -0.104154 -0.123576
1.007909 -0.105046 0.160502
0.972993 -0.101407 -0.085587
1.021232 -0.106615 0.199586
0.997205 -0.104107 -0.052545
1.010336 -0.105656 -0.017732
0.985593 -0.103764 -0.265548
0.998330 -0.105105 0.017522
0.996129 -0.105049 -0.231250
0.999081 -0.105360 0.052650
0.995720 -0.105182 -0.194625
1.014459 -0.107161 0.089247
0.992027 -0.104967 -0.157999
1.014673 -0.107363 0.125282
1.012699 -0.107154 -0.125038
1.015582 -0.107638 0.161753
0.982721 -0.104155 -0.086458
0.995665 -0.105703 0.194625
1.004966 -0.106690 -0.052964
1.012138 -0.107630 -0.017767
0.987331 -0.105690 -0.266066
0.998145 -0.106847 0.017522
0.988193 -0.105956 -0.229450
1.004853 -0.107743 0.052964
0.995535 -0.106919 -0.194625
1.020214 -0.109570 0.089770
0.991843 -0.106698 -0.157999
1.014484 -0.109133 0.125282
1.002642 -0.107860 -0.123819
1.015392 -0.109410 0.161753
0.972633 -0.104803 -0.085587
1.007190 -0.108704 0.196915
1.004778 -0.108444 -0.052964
1.015925 -0.109827 -0.017836
0.996748 -0.108457 -0.268654
0.993981 -0.108156 0.017452
0.986070 -0.107470 -0.229000
0.976867 -0.106467 0.051499
0.987540 -0.107804 -0.193099
1.022002 -0.111566 0.089945
0.991674 -0.108256 -0.157999
1.012319 -0.110688 0.125038
1.000479 -0.109394 -0.123576
1.015200 -0.111182 0.161753
0.990274 -0.108453 -0.087156
0.993357 -0.108790 0.194244
0.994660 -0.109109 -0.052441
1.009769 -0.110944 -0.017732
0.983116 -0.108711 -0.265031
1.009691 -0.111649 0.017732
0.985900 -0.109018 -0.229000
0.994546 -0.110150 0.052441
0.975661 -0.108059 -0.190809
1.011924 -0.112075 0.089073
0.999337 -0.110857 -0.159250
1.023982 -0.113591 0.126500
1.004232 -0.111578 -0.124063
1.007171 -0.111904 0.160502
0.976241 -0.108468 -0.085936
1.008775 -0.112261 0.197297
1.016323 -0.113101 -0.053592
1.001644 -0.111644 -0.017592
0.973345 -0.109178 -0.262443
1.011502 -0.113458 0.017767
0.995391 -0.111827 -0.231250
0.984447 -0.110597 0.051917
0.985226 -0.110859 -0.192717
1.013706 -0.114064 0.089247
1.001105 -0.112823 -0.159563
1.019837 -0.114934 0.126013
1.002083 -0.112933 -0.123819
1.010900 -0.114105 0.161128
0.972090 -0.109725 -0.085587
1.000775 -0.113139 0.195770
1.004216 -0.113528 -0.052964
1.003434 -0.113617 -0.017627
0.982750 -0.111970 -0.265031
0.997394 -0.113639 0.017522
0.991322 -0.113122 -0.230350
1.004097 -0.114580 0.052964
0.992833 -0.113470 -0.194244
1.007567 -0.115154 0.088725
0.989131 -0.113222 -0.157686
1.021607 -0.116939 0.126257
1.009774 -0.115585 -0.124794
1.014624 -0.116319 0.161753
0.981794 -0.112556 -0.086458
0.994724 -0.114214 0.194625
0.994096 -0.114142 -0.052441
1.011181 -0.116282 -0.017767
0.984472 -0.113907 -0.265548
1.001167 -0.115839 0.017592
0.983379 -0.113955 -0.228550
0.988023 -0.114493 0.052127
0.994584 -0.115429 -0.194625
1.017260 -0.118061 0.089596
0.994818 -0.115632 -0.158625
1.015486 -0.118035 0.125525
1.003655 -0.116659 -0.124063
1.020306 -0.118775 0.162692
0.979617 -0.114039 -0.086284
0.998424 -0.116405 0.195388
1.011749 -0.117958 -0.053383
1.010976 -0.118047 -0.017767
0.984272 -0.115625 -0.265548
1.004936 -0.118053 0.017662
0.985114 -0.115899 -0.229000
0.981871 -0.115517 0.051813
0.982682 -0.115786 -0.192335
1.017053 -0.119836 0.089596
0.996577 -0.117600 -0.158937
1.013307 -0.119574 0.125282
0.997535 -0.117713 -0.123332
1.014212 -0.119860 0.161753
0.979417 -0.115748 -0.086284
1.009917 -0.119532 0.197678
0.997658 -0.118081 -0.052650
1.006797 -0.119340 -0.017697
0.985987 -0.117572 -0.266066
1.012671 -0.120754 0.017801
0.990716 -0.118311 -0.230350
0.979685 -0.116994 0.051708
0.978580 -0.117035 -0.191572
1.014863 -0.121374 0.089422
1.004215 -0.120279 -0.160189
1.020981 -0.122287 0.126257
1.001270 -0.119926 -0.123819
1.000272 -0.119984 0.159563
0.977235 -0.117220 -0.086110
1.003859 -0.120591 0.196533
1.023229 -0.122918 -0.054011
1.004602 -0.120859 -0.017662
0.981944 -0.118828 -0.265031
1.008488 -0.122040 0.017732
0.998246 -0.120978 -0.232149
1.003272 -0.121587 0.052964
0.986170 -0.119689 -0.193099
1.008717 -0.122425 0.088899
0.990277 -0.120363 -0.157999
1.024707 -0.124548 0.126744
1.001060 -0.121673 -0.123819
1.013787 -0.123400 0.161753
0.980985 -0.119407 -0.086458
1.005596 -0.122581 0.196915
0.993274 -0.121079 -0.052441
1.010345 -0.123339 -0.017767
0.977901 -0.120071 -0.263995
1.000334 -0.122826 0.017592
0.994165 -0.122244 -0.231250
0.989182 -0.121632 0.052231
0.991805 -0.122130 -0.194244
1.008501 -0.124186 0.088899
0.990066 -0.122091 -0.157999
1.020548 -0.125850 0.126257
1.010697 -0.124635 -0.125038
1.009649 -0.124685 0.161128
0.978797 -0.120875 -0.086284
0.997587 -0.123372 0.195388
1.014865 -0.125509 -0.053592
1.010128 -0.125102 -0.017767
0.991109 -0.123449 -0.267619
1.002103 -0.124818 0.017627
0.986215 -0.123014 -0.229450
0.981041 -0.122369 0.051813
0.991591 -0.123861 -0.194244
1.018168 -0.127181 0.089770
0.993771 -0.124309 -0.158625
1.012447 -0.126645 0.125282
0.990780 -0.123935 -0.122601
1.015310 -0.127183 0.162066
0.980562 -0.122831 -0.086458
1.003214 -0.125846 0.196533
0.988882 -0.124048 -0.052231
1.044137 -0.130979 0.242947
1.013876 -0.127363 -0.017836
0.988975 -0.124937 -0.267101
1.007835 -0.127319 0.017732
0.982132 -0.124246 -0.228550
0.974881 -0.123329 0.051499
0.989425 -0.125344 -0.193862
1.025851 -0.129959 0.090468
1.003351 -0.127287 -0.160189
1.012225 -0.128412 0.125282
0.990562 -0.125664 -0.122601
1.007248 -0.127960 0.160815
0.988252 -0.125546 -0.087156
1.010783 -0.128588 0.198060
1.012440 -0.128799 -0.053487
1.030374 -0.131080 0.239798
1.011669 -0.128880 -0.017801
0.983007 -0.125926 -0.265548
1.011578 -0.129586 0.017801
0.989645 -0.126952 -0.230350
0.974665 -0.125030 0.051499
0.981416 -0.126071 -0.192335
1.019694 -0.130988 0.089945
1.007046 -0.129542 -0.160815
1.019875 -0.131192 0.126257
1.000186 -0.128659 -0.123819
1.001146 -0.128960 0.159876
0.972223 -0.125235 -0.085761
1.002768 -0.129347 0.196533
0.992405 -0.128010 -0.052441
1.018548 -0.131382 0.237098
0.999543 -0.129108 -0.017592
0.977039 -0.126895 -0.263995
1.005401 -0.130579 0.017697
0.997152 -0.129684 -0.232149
0.982367 -0.127762 0.051917
0.985088 -0.128290 -0.193099
1.007610 -0.131223 0.088899
0.997025 -0.130022 -0.159250
1.027518 -0.133998 0.127232
1.007833 -0.131431 -0.124794
1.006796 -0.131475 0.160815
0.979905 -0.127963 -0.086458
1.006434 -0.131606 0.197297
1.017925 -0.133109 -0.053801
0.997062 -0.130381 0.232149
1.009230 -0.132151 -0.017767
0.982561 -0.129357 -0.265548
0.999224 -0.131550 0.017592
0.989196 -0.130406 -0.230350
0.984123 -0.129737 0.052022
0.988755 -0.130523 -0.193862
1.013305 -0.133764 0.089422
0.990921 -0.130985 -0.158312
1.019410 -0.134751 0.126257
1.001699 -0.132410 -0.124063
1.012439 -0.134009 0.161753
0.971780 -0.128628 -0.085761
1.000364 -0.132589 0.196152
0.991952 -0.131474 -0.052441
1.004560 -0.133145 0.233949
1.008998 -0.133912 -0.017767
0.984249 -0.131327 -0.266066
0.997011 -0.133030 0.017557
0.981241 -0.131100 -0.228550
0.979936 -0.130925 0.051813
0.990472 -0.132509 -0.194244
1.017020 -0.136061 0.089770
0.992649 -0.132977 -0.158625
1.015239 -0.136003 0.125769
1.007369 -0.134949 -0.124794
1.016120 -0.136301 0.162379
0.991301 -0.132972 -0.087504
1.007915 -0.135380 0.197678
1.007557 -0.135332 -0.053278
0.992738 -0.133341 0.231250
1.012726 -0.136206 -0.017836
0.993591 -0.134339 -0.268654
1.002722 -0.135573 0.017662
0.988735 -0.133858 -0.230350
0.991581 -0.134243 0.052441
0.986348 -0.133710 -0.193480
1.022704 -0.138638 0.090293
0.998287 -0.135506 -0.159563
1.022868 -0.138843 0.126744
0.997296 -0.135372 -0.123576
1.010008 -0.137277 0.161440
0.985145 -0.133897 -0.086981
1.003786 -0.136609 0.196915
0.991487 -0.134935 -0.052441
0.996365 -0.135599 0.232149
1.010505 -0.137703 -0.017801
0.979957 -0.134237 -0.265031
1.014371 -0.138952 0.017871
0.996223 -0.136643 -0.232149
0.983430 -0.134888 0.052022
0.978334 -0.134363 -0.191954
1.016539 -0.139610 0.089770
1.000030 -0.137343 -0.159876
1.016724 -0.139816 0.126013
1.002958 -0.137923 -0.124307
1.003896 -0.138231 0.160502
0.977014 -0.134529 -0.086284
1.005515 -0.138454 0.197297
1.011035 -0.139394 -0.053487
1.001918 -0.138137 0.233499
1.004321 -0.138646 -0.017697
0.983548 -0.136479 -0.266066
1.000262 -0.138798 0.017627
0.990216 -0.137404 -0.230800
0.995063 -0.138253 0.052650
0.982010 -0.136440 -0.192717
1.006451 -0.139836 0.088899
0.993919 -0.138271 -0.158937
1.026334 -0.142781 0.127232
1.008614 -0.140495 -0.125038
1.015417 -0.141443 0.162379
0.972855 -0.135514 -0.085936
1.011105 -0.141022 0.198441
1.020706 -0.142361 -0.054011
1.009396 -0.140963 0.235299
1.006082 -0.140500 -0.017732
0.975680 -0.136949 -0.263995
0.998063 -0.140091 0.017592
0.986115 -0.138589 -0.229900
0.982977 -0.138148 0.052022
0.987603 -0.138974 -0.193862
1.010151 -0.142147 0.089247
0.991745 -0.139557 -0.158625
1.014289 -0.142910 0.125769
1.008392 -0.142079 -0.125038
1.013212 -0.142939 0.162066
0.978536 -0.138047 -0.086458
0.991443 -0.139868 0.194625
0.986836 -0.139393 -0.052231
1.013032 -0.143094 0.236199
1.007815 -0.142536 -0.017767
0.983090 -0.139739 -0.266066
0.997817 -0.141833 0.017592
0.987826 -0.140413 -0.230350
0.980758 -0.139582 0.051917
0.993215 -0.141355 -0.195007
1.015844 -0.144576 0.089770
0.997367 -0.142124 -0.159563
1.014064 -0.144503 0.125769
1.002247 -0.142998 -0.124307
1.020809 -0.145646 0.163318
0.990152 -0.141272 -0.087504
1.006745 -0.143819 0.197678
1.006388 -0.143768 -0.053278
1.010852 -0.144586 0.235749
1.015508 -0.145252 -0.017906
0.982845 -0.141455 -0.266066
1.009444 -0.145283 0.017801
0.981768 -0.141475 -0.229000
0.968651 -0.139585 0.051289
0.983226 -0.141860 -0.193099
1.017537 -0.146811 0.089945
0.991227 -0.143191 -0.158625
1.017714 -0.147017 0.126257
0.994137 -0.143612 -0.123332
1.008797 -0.145909 0.161440
0.981992 -0.142032 -0.086807
0.992866 -0.143782 0.195007
1.012040 -0.146558 -0.053592
0.999026 -0.144674 0.233049
1.007312 -0.146053 -0.017767
0.988331 -0.144006 -0.267619
1.017103 -0.148198 0.017941
0.981519 -0.143188 -0.229000
0.978288 -0.142717 0.051813
0.981034 -0.143292 -0.192717
1.013336 -0.148010 0.089596
1.000748 -0.146350 -0.160189
1.017456 -0.148793 0.126257
1.003706 -0.146783 -0.124550
1.008541 -0.147670 0.161440
0.985685 -0.144323 -0.087156
1.015924 -0.148932 0.199586
0.992021 -0.145428 -0.052545
1.000700 -0.146700 0.233499
1.007055 -0.147811 -0.017767
0.982345 -0.144885 -0.266066
1.008930 -0.148806 0.017801
0.998618 -0.147463 -0.233049
0.999772 -0.147633 0.052964
0.982724 -0.145291 -0.193099
1.009134 -0.149196 0.089247
0.992675 -0.146940 -0.158937
1.021122 -0.151150 0.126744
0.997557 -0.147662 -0.123819
1.010236 -0.149719 0.161753
0.971636 -0.143999 -0.085936
1.005952 -0.149264 0.197678
1.025352 -0.152142 -0.054325
1.010081 -0.149876 0.235749
0.998884 -0.148393 -0.017627
0.978269 -0.146029 -0.265031
1.004713 -0.149976 0.017732
0.988723 -0.147766 -0.230800
0.985685 -0.147312 0.052231
0.988294 -0.147878 -0.194244
1.002961 -0.150072 0.088725
0.990464 -0.148379 -0.158625
1.020856 -0.152932 0.126744
1.014967 -0.152050 -0.126013
1.009973 -0.151482 0.161753
0.973353 -0.145990 -0.086110
0.992100 -0.148978 0.195007
1.011259 -0.151855 -0.053592
1.007891 -0.151350 0.235299
1.006533 -0.151325 -0.017767
1.039248 -0.156244 0.281595
0.985654 -0.148890 -0.267101
1.000496 -0.151132 0.017662
0.982683 -0.148617 -0.229450
0.993326 -0.150226 0.052650
0.986094 -0.149309 -0.193862
1.012547 -0.153314 0.089596
0.996062 -0.150996 -0.159563
1.012737 -0.153524 0.125769
1.002924 -0.152036 -0.124550
1.011660 -0.153541 0.162066
0.988855 -0.150080 -0.087504
1.001543 -0.152184 0.196915
0.989272 -0.150320 -0.052441
1.005699 -0.152816 0.234849
1.014175 -0.154285 -0.017906
1.031334 -0.156895 0.279525
0.985392 -0.150610 -0.267101
1.008137 -0.154087 0.017801
0.982422 -0.150332 -0.229450
0.969371 -0.148335 0.051394
0.995534 -0.152516 -0.195770
1.008339 -0.154478 0.089247
0.999702 -0.153333 -0.160189
1.024241 -0.157097 0.127232
0.990884 -0.151981 -0.123088
1.007486 -0.154707 0.161440
0.986623 -0.151503 -0.087330
1.010978 -0.155424 0.198823
1.014670 -0.155991 -0.053801
0.999652 -0.153683 0.233499
1.005999 -0.154838 -0.017767
1.042515 -0.160458 0.282630
0.987037 -0.152625 -0.267619
1.007867 -0.155846 0.017801
0.987936 -0.152941 -0.230800
0.977005 -0.151248 0.051813
0.981686 -0.152149 -0.193099
1.006099 -0.155932 0.089073
0.997508 -0.154601 -0.159876
1.022003 -0.158580 0.126988
0.996502 -0.154623 -0.123819
1.005262 -0.156162 0.161128
0.982419 -0.152613 -0.086981
0.997153 -0.154902 0.196152
0.990714 -0.154079 -0.052545
1.005159 -0.156325 0.234849
0.991896 -0.154440 -0.017522
1.034598 -0.161089 0.280560
0.979134 -0.153153 -0.265548
1.003642 -0.156987 0.017732
0.989619 -0.154793 -0.231250
0.980686 -0.153571 0.052022
0.991144 -0.155209 -0.195007
1.001916 -0.156896 0.088725
0.993334 -0.155730 -0.159250
1.025675 -0.160800 0.127475
1.002114 -0.157285 -0.124550
1.008918 -0.158353 0.161753
0.970369 -0.152303 -0.085936
1.010457 -0.158775 0.198823
1.020067 -0.160285 -0.054115
1.012585 -0.159291 0.236649
1.009431 -0.158795 -0.017836
1.034344 -0.162714 0.280560
0.986525 -0.155897 -0.267619
1.003394 -0.158563 0.017732
0.989348 -0.156520 -0.231250
0.988335 -0.156360 0.052441
0.996689 -0.157860 -0.196152
1.005576 -0.159268 0.089073
0.985256 -0.156226 -0.157999
1.021472 -0.161968 0.126988
1.005787 -0.159481 -0.125038
1.014493 -0.161043 0.162692
0.977972 -0.155246 -0.086633
0.998545 -0.158690 0.196533
0.988225 -0.157050 -0.052441
1.016183 -0.161493 0.237548
1.005202 -0.159928 -0.017767
1.032150 -0.164215 0.280042
0.976714 -0.156094 -0.265031
1.003116 -0.160314 0.017732
0.979452 -0.156707 -0.229000
0.976227 -0.156192 0.051813
0.992535 -0.158978 -0.195388
1.003330 -0.160707 0.088899
0.992784 -0.159196 -0.159250
1.009427 -0.161865 0.125525
1.007467 -0.161550 -0.125282
1.016161 -0.163126 0.163005
0.981634 -0.157584 -0.086981
1.000205 -0.160744 0.196915
1.007669 -0.161944 -0.053487
1.004355 -0.161411 0.234849
1.016767 -0.163588 -0.017976
1.014696 -0.163255 0.275383
0.985975 -0.159340 -0.267619
1.010731 -0.163341 0.017871
0.988795 -0.159973 -0.231250
0.972010 -0.157257 0.051603
0.990318 -0.160397 -0.195007
1.008948 -0.163414 0.089422
0.994455 -0.161245 -0.159563
1.016981 -0.164897 0.126500
0.997386 -0.161720 -0.124063
1.011975 -0.164267 0.162379
0.985291 -0.159935 -0.087330
1.009612 -0.164064 0.198823
