# This PCD file was generated using the MATLAB® pcwrite function
# from Computer Vision System Toolbox®.
# .PCD v.7 - Point Cloud Data file format
VERSION .7
FIELDS x y z
SIZE 4 4 4
TYPE F F F
COUNT 1 1 1
WIDTH 1732
HEIGHT 1
VIEWPOINT 0 0 0 1 0 0 0
POINTS 1732
DATA ascii
1.079589 0.595473 -0.239656
1.105388 0.609452 -0.199923
1.066523 0.586327 -0.326112
1.063995 0.584695 -0.280289
1.068581 0.586972 -0.236985
1.085671 0.596114 -0.196169
1.067545 0.584464 -0.326112
1.061595 0.580966 -0.279389
1.085106 0.593586 -0.240419
1.097110 0.599904 -0.198046
1.068564 0.582600 -0.326112
1.059186 0.577247 -0.278489
1.074072 0.585117 -0.237748
1.089481 0.593265 -0.196482
1.126220 0.613271 -0.157455
1.067881 0.579812 -0.325594
1.073893 0.582834 -0.282089
1.064737 0.577625 -0.235458
1.092251 0.592304 -0.196795
1.108093 0.600894 -0.154774
1.056996 0.571516 -0.321971
1.076623 0.581886 -0.282539
1.067471 0.576698 -0.235840
1.077640 0.581949 -0.193979
1.112634 0.600846 -0.155262
1.063094 0.572418 -0.323524
1.067341 0.574464 -0.279839
1.065018 0.572974 -0.235077
1.080394 0.581003 -0.194292
1.111932 0.597963 -0.155018
1.128409 0.606570 -0.112082
1.067497 0.572387 -0.324559
1.052884 0.564315 -0.275790
1.074670 0.575750 -0.236985
1.081406 0.579116 -0.194292
1.088475 0.582902 -0.151605
1.110144 0.594257 -0.110165
1.070199 0.571433 -0.325077
1.067621 0.569817 -0.279389
1.063547 0.567405 -0.234313
1.082415 0.577228 -0.194292
1.096497 0.584738 -0.152580
1.105905 0.589506 -0.109642
1.067783 0.567750 -0.324041
1.068614 0.567953 -0.279389
1.062802 0.564627 -0.233932
1.086809 0.577381 -0.194917
1.078231 0.572581 -0.149899
1.084054 0.575432 -0.107376
1.056821 0.559558 -0.320418
1.071227 0.567185 -0.279839
1.056747 0.559283 -0.232405
1.072101 0.567169 -0.192102
1.103796 0.583690 -0.153312
1.079673 0.570934 -0.106853
1.087709 0.574940 -0.064478
1.061116 0.559700 -0.321453
1.067044 0.562588 -0.278489
1.066406 0.562014 -0.234313
1.078332 0.568059 -0.193040
1.099442 0.579180 -0.152580
1.068327 0.562551 -0.105633
1.092245 0.574902 -0.064687
1.063802 0.558746 -0.321971
1.047319 0.549855 -0.273091
1.065647 0.559240 -0.233932
1.075824 0.564341 -0.192414
1.103968 0.579104 -0.153068
1.088717 0.570863 -0.107550
1.109168 0.581339 -0.065629
1.119480 0.586494 -0.022060
1.064775 0.556888 -0.321971
1.062093 0.555249 -0.276690
1.063141 0.555560 -0.233169
1.090814 0.569779 -0.194917
1.080343 0.564310 -0.149656
1.086180 0.567117 -0.107202
1.111952 0.580326 -0.065734
1.120501 0.584540 -0.022060
1.064032 0.554136 -0.321453
1.063061 0.553394 -0.276690
1.062367 0.552798 -0.232787
1.077787 0.560582 -0.192414
1.095416 0.569751 -0.151605
1.074794 0.558787 -0.105981
1.123596 0.583911 -0.066362
1.107323 0.575208 -0.021781
1.058138 0.548721 -0.319383
1.079322 0.559706 0.021222
1.064025 0.551538 -0.276690
1.056358 0.547330 -0.231261
1.073501 0.555975 -0.191476
1.082307 0.560535 -0.149656
1.073998 0.555995 -0.105807
1.110423 0.574606 -0.065525
1.104773 0.571438 -0.021711
1.057378 0.545987 -0.318865
1.137154 0.587181 0.022339
1.066717 0.550574 -0.277140
1.062546 0.548186 -0.232405
1.076226 0.555006 -0.191789
1.097398 0.565924 -0.151605
1.076738 0.555032 -0.105981
1.111424 0.572667 -0.065525
1.105769 0.569509 -0.021711
1.065201 0.547674 -0.320936
1.139956 0.586110 0.022374
1.062477 0.546039 -0.275790
1.065248 0.547228 -0.232787
1.068407 0.548615 -0.190224
1.084257 0.556754 -0.149656
1.074159 0.551333 -0.105633
1.083990 0.556138 -0.063850
1.113879 0.571228 -0.021850
1.066155 0.545815 -0.320936
1.146317 0.586853 0.022479
1.070368 0.547735 -0.277590
1.120131 0.573200 0.065943
1.064453 0.544474 -0.232405
1.085192 0.554843 -0.193040
1.088761 0.556668 -0.150143
1.085765 0.554897 -0.106679
1.106302 0.565149 -0.065106
1.098845 0.561099 -0.021536
1.067106 0.543952 -0.320936
1.120616 0.571229 0.021955
1.062640 0.541442 -0.275340
1.063652 0.541725 -0.232024
1.073740 0.546862 -0.190850
1.077348 0.548463 -0.148437
1.074302 0.546676 -0.105458
1.085924 0.552352 -0.063850
1.092693 0.555554 -0.021397
1.057718 0.536843 -0.317830
1.103779 0.560222 0.021606
1.066965 0.541536 -0.276240
1.150623 0.583745 0.067618
1.068004 0.541829 -0.232787
1.069408 0.542307 -0.189911
1.092469 0.553762 -0.150387
1.068051 0.541385 -0.104761
1.104607 0.559672 -0.064897
1.102484 0.558355 -0.021571
1.053388 0.532566 -0.316277
1.093951 0.553074 0.021397
1.066169 0.538794 -0.275790
1.137278 0.574729 0.066781
1.068947 0.539965 -0.232787
1.077406 0.544001 -0.191163
1.088021 0.549361 -0.149656
1.072551 0.541315 -0.105110
1.080617 0.545149 -0.063431
1.107028 0.558231 -0.021641
1.064669 0.535938 -0.319383
1.107417 0.557457 0.021641
1.051441 0.529050 -0.271741
1.095460 0.551199 0.064269
1.071642 0.538980 -0.233169
1.155183 0.580997 0.113128
1.055410 0.530585 -0.187096
1.097846 0.551919 -0.150874
1.073495 0.539442 -0.105110
1.097629 0.551331 -0.064373
1.113362 0.558989 -0.021746
1.062149 0.532348 -0.318347
1.113752 0.558212 0.021746
1.054105 0.528087 -0.272191
1.110706 0.556443 0.065106
1.048005 0.524802 -0.227826
1.099188 0.550432 0.107550
1.082831 0.542005 -0.191789
1.079281 0.540228 -0.148193
1.081561 0.541134 -0.105807
1.086086 0.543160 -0.063641
1.103604 0.551680 -0.021536
1.059619 0.528769 -0.317312
1.112935 0.555375 0.021711
1.063744 0.530595 -0.274440
1.100952 0.549155 0.064478
1.070003 0.533484 -0.232405
1.100147 0.548513 0.107550
1.069631 0.533066 -0.189286
1.085552 0.541001 -0.148924
1.073588 0.534803 -0.104936
1.099547 0.547496 -0.064373
1.093823 0.544408 -0.021327
1.053620 0.523480 -0.315242
1.104949 0.548982 0.021536
1.059433 0.526138 -0.273091
1.087598 0.540125 0.063641
1.053348 0.522886 -0.228589
1.077903 0.535075 0.105284
1.067021 0.529442 -0.188660
1.093608 0.542634 -0.149899
1.072734 0.532044 -0.104761
1.111238 0.550898 -0.065001
1.101939 0.546049 -0.021466
1.056264 0.522497 -0.315759
1.098735 0.543506 0.021397
1.058602 0.523424 -0.272641
1.093911 0.540882 0.063955
1.075379 0.531486 -0.233169
1.103841 0.545552 0.107725
1.078570 0.532829 -0.190537
1.108792 0.547759 0.151849
1.078536 0.532812 -0.147706
1.071875 0.529288 -0.104587
1.097870 0.541886 -0.064164
1.110064 0.547664 -0.021606
1.058907 0.521506 -0.316277
1.106858 0.545122 0.021536
1.052521 0.518133 -0.270841
1.096645 0.539854 0.064059
1.049881 0.516606 -0.227444
1.110154 0.546264 0.108247
1.063454 0.523285 -0.187721
1.109746 0.545822 0.151849
1.095496 0.538813 -0.149899
1.069221 0.525658 -0.104238
1.082681 0.532042 -0.063222
1.103839 0.542199 -0.021466
1.056347 0.517956 -0.315242
1.111399 0.544950 0.021606
1.060332 0.519910 -0.272641
1.085031 0.531787 0.063327
1.071846 0.525325 -0.232024
1.112800 0.545397 0.108422
1.076783 0.527511 -0.189911
1.112385 0.544952 0.152093
1.069692 0.523805 -0.146243
1.165580 0.570760 0.205555
1.068256 0.523102 -0.104064
1.097867 0.537365 -0.064059
1.099300 0.537828 -0.021362
1.058895 0.517144 -0.315759
1.106863 0.540571 0.021501
1.057735 0.516350 -0.271741
1.091250 0.532710 0.063641
1.046296 0.510539 -0.226299
1.111960 0.542579 0.108247
1.068825 0.521301 -0.188347
1.122255 0.547360 0.153312
1.075958 0.524547 -0.146974
1.131062 0.551412 0.199298
1.063795 0.518618 -0.103541
1.084440 0.528448 -0.063222
1.098439 0.535033 -0.021327
1.052935 0.511733 -0.313689
1.097107 0.533200 0.021292
1.060388 0.515354 -0.272191
1.083288 0.526250 0.063117
1.047185 0.508712 -0.226299
1.114792 0.541313 0.108422
1.071510 0.520297 -0.188660
1.116160 0.541738 0.152337
1.075086 0.521802 -0.146731
1.121360 0.544262 0.197420
1.055826 0.512226 -0.102669
1.119597 0.542923 -0.065211
1.099464 0.532923 -0.021327
1.057305 0.511577 -0.314724
1.096236 0.530414 0.021257
1.059621 0.512469 -0.271741
1.091397 0.527837 0.063536
1.042857 0.504137 -0.225155
1.110353 0.536766 0.107899
1.061746 0.513268 -0.186783
1.099230 0.531152 0.149899
1.092081 0.527698 -0.148924
1.133076 0.547262 0.199298
1.060306 0.512115 -0.103018
1.165015 0.562689 0.251486
1.079175 0.520997 -0.062803
1.103995 0.532742 -0.021397
1.061677 0.511407 -0.315759
1.091756 0.525896 0.021152
1.049891 0.505730 -0.269041
1.086918 0.523332 0.063222
1.075488 0.517829 -0.232024
1.123761 0.541072 0.109119
1.073320 0.516554 -0.188660
1.103641 0.531147 0.150387
1.071534 0.515464 -0.145999
1.121473 0.539487 0.197107
1.066496 0.513040 -0.103541
1.109377 0.533430 0.239275
1.083592 0.521032 -0.063013
1.104830 0.531007 -0.021397
1.062479 0.509739 -0.315759
1.097989 0.526775 0.021257
1.057800 0.507267 -0.270841
1.078734 0.517306 0.062698
1.049835 0.503222 -0.226299
1.112127 0.533081 0.107899
1.065313 0.510412 -0.187096
1.118888 0.536081 0.152337
1.066972 0.511207 -0.145268
1.113505 0.533263 0.195543
1.067389 0.511178 -0.103541
1.120931 0.536579 0.241564
1.088103 0.520865 -0.063222
1.098540 0.525625 -0.021257
1.052908 0.502888 -0.312653
1.100711 0.525720 0.021292
1.060443 0.506260 -0.271291
1.086845 0.518864 0.063117
1.040080 0.496316 -0.224010
1.113056 0.531139 0.107899
1.062636 0.506851 -0.186470
1.114447 0.531564 0.151605
1.089363 0.519600 -0.148193
1.119783 0.533870 0.196482
1.055691 0.503313 -0.102321
1.113004 0.530399 0.239656
1.090813 0.519824 -0.063327
1.092234 0.520267 -0.021117
1.045061 0.496902 -0.310065
1.094404 0.520363 0.021152
1.063085 0.505245 -0.271741
1.087749 0.516967 0.063117
1.046265 0.497027 -0.225155
1.101384 0.523211 0.106679
1.074226 0.510080 -0.188347
1.115373 0.529618 0.151605
1.068750 0.507479 -0.145268
1.113575 0.528526 0.195230
1.052968 0.499761 -0.101972
1.101512 0.522565 0.236985
1.088109 0.516207 -0.063117
1.151470 0.546266 0.294236
1.085913 0.514933 -0.020978
1.054657 0.499210 -0.312653
1.088080 0.515031 0.021013
1.058680 0.500888 -0.270391
1.095871 0.518484 0.063536
1.045356 0.494361 -0.224773
1.109500 0.524695 0.107376
1.060827 0.501451 -0.185844
1.114501 0.526823 0.151362
1.096554 0.518339 -0.148924
1.121640 0.529958 0.196482
1.059242 0.500476 -0.102495
1.116624 0.527349 0.240038
1.092621 0.516013 -0.063327
1.148898 0.542591 0.293336
1.095852 0.517306 -0.021152
1.057274 0.498192 -0.313171
1.087168 0.512278 0.020978
1.054264 0.496549 -0.269041
1.084126 0.510613 0.062803
1.063979 0.500898 -0.228589
1.108611 0.521910 0.107202
1.072425 0.504645 -0.187721
1.104642 0.519805 0.149899
1.070514 0.503746 -0.145268
1.122563 0.527999 0.196482
1.060115 0.498626 -0.102495
1.119319 0.526235 0.240419
1.077253 0.506457 -0.062384
1.128680 0.530635 0.287937
1.098563 0.516242 -0.021187
1.056393 0.495525 -0.312653
1.091682 0.512078 0.021048
1.053365 0.493881 -0.268592
1.074166 0.503633 0.062175
1.043519 0.489043 -0.224010
1.114933 0.522510 0.107725
1.058993 0.496069 -0.185218
1.116333 0.522929 0.151362
1.074987 0.503561 -0.145756
1.110960 0.520176 0.194292
1.064592 0.498465 -0.102844
1.107789 0.518455 0.237748
1.090798 0.510503 -0.063117
1.111954 0.520404 0.283438
1.090406 0.510088 -0.021013
1.055506 0.492864 -0.312136
1.090762 0.509326 0.021013
1.052459 0.491217 -0.268142
1.076853 0.502603 0.062280
1.037255 0.483900 -0.222483
1.108621 0.517194 0.107027
1.075970 0.501733 -0.188034
1.113646 0.519302 0.150874
1.065070 0.496650 -0.144293
1.110076 0.517401 0.193979
1.060043 0.494081 -0.102321
1.119370 0.521495 0.240038
1.075393 0.501007 -0.062175
1.112861 0.518463 0.283438
1.082231 0.503963 -0.020838
1.152342 0.536612 0.340606
1.049357 0.487763 -0.310065
1.084396 0.504050 0.020873
1.062151 0.493485 -0.270391
1.084974 0.504089 0.062698
1.045220 0.485397 -0.224010
1.095065 0.508545 0.105633
1.062510 0.493201 -0.185531
1.127155 0.523208 0.152580
1.089343 0.505656 -0.147462
1.112769 0.516295 0.194292
1.051867 0.488038 -0.101449
1.091782 0.506325 0.233932
1.098009 0.509213 -0.063431
1.104925 0.512420 0.281189
1.090366 0.505437 -0.020978
1.125234 0.521600 0.332324
1.046700 0.484309 -0.309030
1.081644 0.500478 0.020803
1.050630 0.485904 -0.267242
1.085852 0.502194 0.062698
1.065669 0.492634 -0.228208
1.103185 0.509977 0.106330
1.065162 0.492175 -0.185844
1.113649 0.514579 0.150631
1.074005 0.496260 -0.145268
1.119049 0.516836 0.195230
1.056335 0.487871 -0.101798
1.105141 0.510179 0.236603
1.088016 0.502273 -0.062803
1.111125 0.512941 0.282539
1.094877 0.505210 -0.021048
1.147191 0.529349 0.338535
1.056318 0.486522 -0.311618
1.086149 0.500262 0.020873
1.051476 0.484070 -0.267242
1.068584 0.491946 0.061652
1.054042 0.485029 -0.225536
1.105883 0.508884 0.106504
1.060636 0.487838 -0.184906
1.109136 0.510145 0.149899
1.087494 0.500191 -0.146974
1.119949 0.514882 0.195230
1.055374 0.485195 -0.101624
1.100678 0.505790 0.235458
1.076187 0.494536 -0.062070
1.110248 0.510188 0.282089
1.095758 0.503297 -0.021048
1.120025 0.514444 0.330253
1.057165 0.484678 -0.311618
1.090655 0.500032 0.020943
1.048776 0.480610 -0.266342
1.071257 0.490912 0.061756
1.042393 0.477465 -0.222865
1.110393 0.508612 0.106853
1.059605 0.485349 -0.184593
1.102805 0.504904 0.148924
1.070316 0.490029 -0.144537
1.117253 0.511283 0.194605
1.068901 0.489156 -0.102844
1.108612 0.507328 0.236985
1.087946 0.497641 -0.062698
1.107592 0.506628 0.281189
1.087541 0.497227 -0.020873
1.129706 0.516505 0.332841
1.045707 0.477217 -0.307995
1.095165 0.499788 0.021013
1.056622 0.482198 -0.268142
1.081198 0.493186 0.062280
1.059217 0.483160 -0.226299
1.096689 0.500253 0.105458
1.071234 0.488416 -0.186470
1.118046 0.509759 0.150874
1.083814 0.493922 -0.146243
1.101878 0.502154 0.191789
1.062417 0.484171 -0.102147
1.109496 0.505393 0.236985
1.086909 0.495104 -0.062594
1.110249 0.505502 0.281639
1.084681 0.493861 -0.020803
1.125241 0.512328 0.331288
1.039420 0.472377 -0.305924
1.088667 0.494758 0.020873
1.059236 0.481159 -0.268592
1.078334 0.489835 0.062070
1.040395 0.472382 -0.222102
1.079419 0.490101 0.103715
1.061293 0.481647 -0.184593
1.115319 0.506166 0.150387
1.073743 0.487297 -0.144781
1.109948 0.503495 0.193040
1.052373 0.477378 -0.101101
1.112164 0.504266 0.237366
1.089590 0.494031 -0.062698
1.111041 0.503757 0.281639
1.087363 0.492792 -0.020838
1.120855 0.507971 0.329735
1.045524 0.472951 -0.307477
1.074953 0.486264 0.020594
1.054747 0.476902 -0.267242
1.091927 0.493713 0.062803
1.046585 0.472991 -0.223247
1.100244 0.497242 0.105633
1.067532 0.482234 -0.185531
1.112582 0.502584 0.149899
1.094492 0.494412 -0.147462
1.110825 0.501557 0.193040
1.056836 0.477180 -0.101449
1.089780 0.491825 0.232405
1.090451 0.492128 -0.062698
1.115471 0.503420 0.282539
1.079107 0.486782 -0.020664
1.121740 0.506014 0.329735
1.051632 0.473505 -0.309030
1.075800 0.484387 0.020594
1.043138 0.469462 -0.264093
1.074574 0.483609 0.061756
1.043828 0.469553 -0.222483
1.097476 0.493686 0.105284
1.059364 0.476320 -0.183967
1.106215 0.497386 0.148924
1.070006 0.481105 -0.144050
1.113500 0.500427 0.193353
1.054033 0.473701 -0.101101
1.104963 0.496359 0.235458
1.084020 0.486951 -0.062280
1.112793 0.499876 0.281639
1.094549 0.491450 -0.020943
1.126146 0.505637 0.330771
1.057745 0.474039 -0.310583
1.080293 0.484144 0.020664
1.040399 0.466047 -0.263193
1.073593 0.480916 0.061652
1.041063 0.466126 -0.221720
1.101973 0.493398 0.105633
1.067406 0.477698 -0.185218
1.107082 0.495454 0.148924
1.078092 0.482480 -0.145025
1.105356 0.494450 0.191789
1.058496 0.473488 -0.101449
1.112997 0.497634 0.236985
1.083045 0.484242 -0.062175
1.104769 0.493955 0.279389
1.082625 0.483829 -0.020699
1.118208 0.499731 0.328183
1.040928 0.464323 -0.305406
1.088441 0.485517 0.020803
1.057230 0.471372 -0.267242
1.068959 0.476602 0.061338
1.038288 0.462710 -0.220957
1.099193 0.489852 0.105284
1.062825 0.473423 -0.184280
1.107945 0.493521 0.148924
1.064425 0.474136 -0.143075
1.106218 0.492520 0.191789
1.055680 0.470019 -0.101101
1.110276 0.494095 0.236222
1.078415 0.479916 -0.061861
1.112751 0.495196 0.281189
1.076160 0.478688 -0.020559
1.119079 0.497778 0.328183
1.038206 0.460937 -0.304371
1.078322 0.478747 0.020594
1.052707 0.467155 -0.265892
1.078917 0.478786 0.061861
1.042683 0.462490 -0.221720
1.081833 0.479855 0.103541
1.058232 0.469165 -0.183341
1.105176 0.489977 0.148437
1.068881 0.473886 -0.143562
1.103464 0.488988 0.191163
1.047391 0.464140 -0.100229
1.103957 0.488976 0.234695
1.086555 0.481269 -0.062280
1.115395 0.494043 0.281639
1.078822 0.477618 -0.020594
1.109347 0.491132 0.325077
1.040776 0.459905 -0.304889
1.071839 0.473631 0.020454
1.049955 0.463743 -0.264992
1.083404 0.478517 0.062070
1.043489 0.460669 -0.221720
1.097251 0.484403 0.104936
1.050013 0.463330 -0.181777
1.100581 0.485643 0.147706
1.073338 0.473622 -0.144050
1.107930 0.488656 0.191789
1.050022 0.463116 -0.100403
1.097623 0.483881 0.233169
1.080083 0.476148 -0.061861
1.116256 0.492095 0.281639
1.086974 0.478960 -0.020733
1.117274 0.492311 0.327147
1.046882 0.460422 -0.306442
1.076325 0.473371 0.020524
1.040059 0.457204 -0.262293
1.065954 0.468587 0.061024
1.044291 0.458847 -0.221720
1.092622 0.480083 0.104413
1.061671 0.466263 -0.183654
1.086886 0.477337 0.145756
1.079616 0.474144 -0.144781
1.110590 0.487515 0.192102
1.056302 0.463685 -0.100926
1.105657 0.485120 0.234695
1.075426 0.471855 -0.061547
1.109975 0.487014 0.279839
1.089640 0.477864 -0.020768
1.112824 0.488032 0.325594
1.049454 0.459368 -0.306959
1.080813 0.473095 0.020594
1.047997 0.458512 -0.264093
1.075919 0.470729 0.061547
1.045091 0.457023 -0.221720
1.102586 0.482166 0.105284
1.062484 0.464409 -0.183654
1.094993 0.478619 0.146731
1.062253 0.464308 -0.142343
1.096958 0.479249 0.189599
1.062587 0.464233 -0.101449
1.099305 0.480046 0.233169
1.078078 0.470776 -0.061652
1.103680 0.481956 0.278040
1.079475 0.471163 -0.020559
1.127838 0.492272 0.329735
1.044941 0.455221 -0.305406
1.081637 0.471208 0.020594
1.045222 0.455126 -0.263193
1.073077 0.467255 0.061338
1.038686 0.452065 -0.220194
1.086984 0.473086 0.103715
1.066916 0.464130 -0.184280
1.103108 0.479874 0.147706
1.068522 0.464829 -0.143075
1.094170 0.475758 0.188973
1.052433 0.457611 -0.100403
1.112745 0.483605 0.235840
1.086225 0.472079 -0.062070
1.100944 0.478476 0.277140
1.074794 0.466888 -0.020454
1.114520 0.484145 0.325594
1.040416 0.451091 -0.303854
1.078789 0.467728 0.020524
1.047803 0.454076 -0.263643
1.062895 0.460617 0.060710
1.035870 0.448691 -0.219430
1.089636 0.471980 0.103890
1.055035 0.456773 -0.182090
1.100301 0.476371 0.147218
1.067510 0.462174 -0.142831
1.098624 0.475417 0.189599
1.053230 0.455773 -0.100403
1.091964 0.472310 0.231261
1.083381 0.468597 -0.061861
1.108932 0.479649 0.278939
1.073771 0.464218 -0.020419
1.113591 0.481432 0.325077
1.039428 0.448509 -0.303336
1.064915 0.459507 0.020245
1.052173 0.453791 -0.264542
1.085705 0.468253 0.061966
1.036652 0.446882 -0.219430
1.084969 0.467711 0.103367
1.055830 0.454931 -0.182090
1.095661 0.472093 0.146487
1.077431 0.464238 -0.144050
1.099452 0.473499 0.189599
1.054024 0.453935 -0.100403
1.092787 0.470403 0.231261
1.076859 0.463546 -0.061442
1.113348 0.479253 0.279839
1.074580 0.462343 -0.020419
1.107331 0.476434 0.323006
1.040209 0.446694 -0.303336
1.073065 0.460804 0.020384
1.042219 0.447342 -0.261843
1.073673 0.460843 0.061233
1.048256 0.449716 -0.221720
1.104094 0.473672 0.105110
1.058438 0.453866 -0.182403
1.094659 0.469398 0.146243
1.065468 0.456881 -0.142343
1.107539 0.474692 0.190850
1.056646 0.452879 -0.100578
1.099020 0.470814 0.232405
1.073995 0.460093 -0.061233
1.103435 0.472705 0.277140
1.079062 0.462040 -0.020489
1.115265 0.477542 0.325077
1.051646 0.449433 -0.306442
1.081223 0.462073 0.020524
1.042998 0.445522 -0.261843
1.072639 0.458184 0.061128
1.041817 0.444802 -0.220194
1.097590 0.468614 0.104413
1.059228 0.452018 -0.182403
1.088174 0.464370 0.145268
1.066264 0.455020 -0.142343
1.101098 0.469659 0.189599
1.061100 0.452598 -0.100926
1.094423 0.466585 0.231261
1.074796 0.458218 -0.061233
1.100673 0.469249 0.276240
1.074348 0.457805 -0.020384
1.123205 0.478625 0.327147
1.047095 0.445329 -0.304889
1.078347 0.458621 0.020454
1.045567 0.444463 -0.262293
1.073438 0.456311 0.061128
1.035363 0.439913 -0.218667
1.091071 0.463582 0.103715
1.058198 0.449397 -0.182090
1.092637 0.464022 0.145756
1.074365 0.456263 -0.143318
1.096461 0.465420 0.188660
1.049050 0.445295 -0.099706
1.098850 0.466208 0.232024
1.079271 0.457902 -0.061442
1.105078 0.468851 0.277140
1.067781 0.452806 -0.020245
1.113368 0.472138 0.324041
1.038976 0.439736 -0.302301
1.071780 0.453620 0.020315
1.055315 0.446434 -0.264542
1.077911 0.455993 0.061338
1.041555 0.440398 -0.219812
1.077198 0.455469 0.102321
1.058980 0.447549 -0.182090
1.097102 0.463660 0.146243
1.071503 0.452841 -0.142831
1.095452 0.462737 0.188347
1.049826 0.443464 -0.099706
1.094236 0.461998 0.230879
1.078229 0.455240 -0.061338
1.098713 0.463889 0.275340
1.064885 0.449387 -0.020175
1.117749 0.471696 0.325077
1.039742 0.437922 -0.302301
1.068884 0.450196 0.020245
1.036336 0.436274 -0.259594
1.071342 0.451011 0.060919
1.040512 0.437819 -0.219430
1.092682 0.459770 0.103715
1.052399 0.442820 -0.180838
1.090590 0.458666 0.145268
1.072292 0.450970 -0.142831
1.096258 0.460825 0.188347
1.045088 0.439315 -0.099183
1.085911 0.456475 0.228971
1.082705 0.454905 -0.061547
1.104911 0.464235 0.276690
1.080418 0.453722 -0.020454
1.111446 0.466753 0.323006
1.042286 0.436853 -0.302818
1.073357 0.449876 0.020315
1.040614 0.436153 -0.260493
1.075812 0.450684 0.061128
1.044820 0.437701 -0.220194
1.086052 0.454974 0.103018
1.056815 0.442509 -0.181464
1.080323 0.452352 0.143806
1.069415 0.447565 -0.142343
1.107914 0.463678 0.190224
1.053129 0.440750 -0.099880
1.086706 0.454579 0.228971
1.070520 0.447809 -0.060814
1.096730 0.458548 0.274440
1.081129 0.452025 -0.020454
1.113960 0.465752 0.323524
1.051886 0.438935 -0.305406
1.070372 0.446649 0.020245
1.039575 0.433586 -0.260043
1.065458 0.444381 0.060500
1.034710 0.431344 -0.217904
1.092362 0.455377 0.103541
1.059332 0.441608 -0.181777
1.086608 0.452756 0.144537
1.064619 0.443594 -0.141612
1.095957 0.456428 0.188034
1.063092 0.442741 -0.100752
1.092856 0.455136 0.230116
1.071300 0.445939 -0.060814
1.084856 0.451582 0.271291
1.067146 0.443991 -0.020175
1.116555 0.464548 0.324041
1.043729 0.433395 -0.302818
1.082230 0.449382 0.020454
1.038455 0.431205 -0.259594
1.071766 0.444817 0.060814
1.035386 0.429718 -0.217904
1.083875 0.449842 0.102669
1.060101 0.439759 -0.181777
1.090985 0.452570 0.145025
1.067225 0.442496 -0.141856
1.093023 0.453193 0.187409
1.052744 0.436492 -0.099706
1.099090 0.455483 0.231261
1.075689 0.445785 -0.061024
1.092844 0.452671 0.273091
1.064147 0.440784 -0.020105
1.115499 0.462055 0.323524
1.033771 0.427146 -0.299712
1.071924 0.442910 0.020245
1.048287 0.432929 -0.261843
1.070695 0.442183 0.060710
1.032580 0.426231 -0.217141
1.084737 0.447761 0.102669
1.060943 0.437723 -0.181777
1.099192 0.453503 0.145999
1.064326 0.439118 -0.141368
1.097543 0.452599 0.188034
1.048054 0.432191 -0.099183
1.090887 0.449631 0.229352
1.078390 0.444480 -0.061128
1.097235 0.452248 0.273990
1.076085 0.443311 -0.020315
1.098522 0.452554 0.318347
1.036302 0.426075 -0.300230
1.068996 0.439518 0.020175
1.040029 0.427396 -0.259594
1.075160 0.441833 0.060919
1.060562 0.435617 -0.222865
1.079988 0.443596 0.102147
1.050741 0.431369 -0.179900
1.087127 0.446307 0.144293
1.076109 0.441784 -0.142831
1.098332 0.450683 0.188034
1.045121 0.428849 -0.098835
1.088037 0.446237 0.228589
1.077316 0.441840 -0.061024
1.096220 0.449593 0.273540
1.075007 0.440674 -0.020280
1.104672 0.452834 0.319900
1.044196 0.427192 -0.302301
1.066060 0.436137 0.020105
1.031754 0.421892 -0.257344
1.061140 0.433908 0.060082
1.046782 0.427824 -0.219812
1.088137 0.444726 0.102844
1.055150 0.431028 -0.180525
1.087905 0.444408 0.144293
1.062177 0.433899 -0.140881
1.099116 0.448765 0.188034
1.047712 0.427777 -0.099009
1.092449 0.445821 0.229352
1.066990 0.435431 -0.060396
1.087982 0.443997 0.271291
1.072071 0.437286 -0.020210
1.105461 0.450905 0.319900
1.048519 0.426825 -0.303336
1.070524 0.435783 0.020175
1.037904 0.422294 -0.258694
1.063746 0.432808 0.060186
1.036616 0.421558 -0.217522
1.087066 0.442075 0.102669
1.057731 0.429930 -0.180838
1.083162 0.440267 0.143562
1.066611 0.433539 -0.141368
1.096238 0.445359 0.187409
1.050303 0.426698 -0.099183
1.089588 0.442436 0.228589
1.069599 0.434319 -0.060500
1.083338 0.439898 0.269941
1.069127 0.433910 -0.020140
1.109827 0.450428 0.320936
1.034937 0.419193 -0.299195
1.074990 0.435416 0.020245
1.042253 0.421944 -0.259594
1.068202 0.432449 0.060396
1.039170 0.420485 -0.217904
1.087836 0.440177 0.102669
1.063973 0.430306 -0.181777
1.089449 0.440609 0.144293
1.063685 0.430189 -0.140881
1.089688 0.440484 0.186157
1.049199 0.424117 -0.099009
1.097640 0.443475 0.230116
1.079615 0.436193 -0.061024
1.093139 0.441657 0.272191
1.056903 0.426803 -0.019896
1.099863 0.444151 0.317830
1.032084 0.415942 -0.298160
1.072039 0.432044 0.020175
1.052025 0.423765 -0.261843
1.076366 0.433569 0.060814
1.036260 0.417204 -0.217141
1.073817 0.432325 0.101275
1.061057 0.426973 -0.181151
1.093900 0.440189 0.144781
1.060751 0.426850 -0.140393
1.095953 0.440793 0.187096
1.046240 0.420798 -0.098660
1.089304 0.437897 0.228208
1.076668 0.432817 -0.060814
1.092100 0.439021 0.271741
1.065068 0.427939 -0.020035
1.097052 0.440790 0.316795
1.032808 0.414140 -0.298160
1.065367 0.427195 0.020035
1.036484 0.415403 -0.257794
1.067851 0.427975 0.060291
1.040631 0.416855 -0.217904
1.091215 0.437118 0.102844
1.050798 0.420715 -0.179274
1.081766 0.433114 0.143075
1.076238 0.430900 -0.142343
1.100389 0.440347 0.187721
1.043274 0.417491 -0.098312
1.093712 0.437454 0.228971
1.073713 0.429455 -0.060605
1.098292 0.439286 0.273091
1.067671 0.426822 -0.020070
1.097819 0.438874 0.316795
1.037118 0.413768 -0.299195
1.069826 0.426817 0.020105
1.037207 0.413594 -0.257794
1.068596 0.426111 0.060291
1.043181 0.415765 -0.218286
1.071618 0.427099 0.100926
1.051531 0.418880 -0.179274
1.088053 0.433429 0.143806
1.060391 0.422409 -0.140150
1.097485 0.436965 0.187096
1.053256 0.419355 -0.099183
1.083529 0.431189 0.226681
1.068894 0.425365 -0.060291
1.086383 0.432325 0.269941
1.072130 0.426436 -0.020140
1.102174 0.438385 0.317830
1.041430 0.413383 -0.300230
1.074286 0.426425 0.020175
1.037927 0.411783 -0.257794
1.056343 0.419090 0.059558
1.047555 0.415391 -0.219049
1.094587 0.434041 0.103018
1.059606 0.419955 -0.180525
1.085117 0.430066 0.143318
1.062972 0.421289 -0.140393
1.098246 0.435049 0.187096
1.048429 0.415315 -0.098660
1.091582 0.432188 0.228208
1.073349 0.424969 -0.060500
1.081700 0.428275 0.268592
1.057998 0.418677 -0.019861
1.110122 0.439304 0.319900
1.038556 0.410146 -0.299195
1.071309 0.423081 0.020105
1.044083 0.412117 -0.259144
1.062646 0.419445 0.059872
1.033669 0.407798 -0.215996
1.076809 0.424818 0.101275
1.060337 0.418106 -0.180525
1.078479 0.425260 0.142343
1.063705 0.419434 -0.140393
1.086139 0.428061 0.184906
1.049153 0.413484 -0.098660
1.097814 0.432441 0.229352
1.077805 0.424559 -0.060710
1.082446 0.426387 0.268592
1.062448 0.418296 -0.019931
1.107292 0.435951 0.318865
1.032078 0.405507 -0.297124
1.068323 0.419747 0.020035
1.041172 0.408870 -0.258244
1.068954 0.419780 0.060186
1.038034 0.407428 -0.216759
1.077549 0.422937 0.101275
1.053637 0.413552 -0.179274
1.092155 0.428451 0.144050
1.075524 0.421926 -0.141856
1.090563 0.427607 0.185531
1.044308 0.409470 -0.098137
1.083870 0.424983 0.226299
1.076685 0.421948 -0.060605
1.086817 0.425919 0.269491
1.063177 0.416441 -0.019931
1.093661 0.428381 0.314724
1.029186 0.402298 -0.296089
1.061604 0.414970 0.019896
1.039998 0.406525 -0.257794
1.073406 0.419367 0.060396
1.045987 0.408655 -0.218286
1.068933 0.417619 0.100403
1.054357 0.411713 -0.179274
1.087280 0.424569 0.143318
1.068861 0.417162 -0.140881
1.093073 0.426611 0.185844
1.044950 0.407830 -0.098137
1.080952 0.421663 0.225536
1.068043 0.416627 -0.060082
1.093006 0.426145 0.270841
1.069418 0.416949 -0.020035
1.090733 0.425259 0.313689
1.040619 0.404884 -0.299195
1.069709 0.416203 0.020035
1.027993 0.399764 -0.254645
1.064756 0.414061 0.059872
1.041209 0.404695 -0.217141
1.084516 0.421528 0.101798
1.062440 0.412734 -0.180525
1.084318 0.421233 0.142831
1.062114 0.412607 -0.139906
1.095658 0.425418 0.186157
1.045660 0.406005 -0.098137
1.087177 0.421907 0.226681
1.068768 0.414763 -0.060082
1.086407 0.421608 0.269041
1.070145 0.415082 -0.020035
1.095076 0.424752 0.314724
1.044927 0.404462 -0.300230
1.070434 0.414335 0.020035
1.034141 0.400079 -0.255994
1.058026 0.409319 0.059454
1.036420 0.400753 -0.215996
1.079675 0.417479 0.101275
1.053946 0.407318 -0.178961
1.085052 0.419340 0.142831
1.055426 0.407890 -0.138931
1.096398 0.423505 0.186157
1.048226 0.404897 -0.098312
1.084249 0.418595 0.225918
1.073217 0.414336 -0.060291
1.083505 0.418308 0.268142
1.059674 0.408894 -0.019826
1.106629 0.427013 0.317830
1.038420 0.399860 -0.298160
1.071156 0.412466 0.020035
1.033019 0.397574 -0.255544
1.060602 0.408190 0.059558
1.040783 0.400353 -0.216759
1.084122 0.417024 0.101624
1.065718 0.409731 -0.180838
1.093194 0.420295 0.143806
1.056136 0.406047 -0.138931
1.091604 0.419465 0.185218
1.045211 0.401638 -0.097963
1.090476 0.418813 0.227063
1.075803 0.413178 -0.060396
1.082414 0.415717 0.267692
1.056652 0.405611 -0.019756
1.092945 0.419542 0.313689
1.035508 0.396665 -0.297124
1.064405 0.407734 0.019896
1.040991 0.398557 -0.257344
1.061313 0.406338 0.059558
1.034146 0.395730 -0.215233
1.055075 0.403738 0.098835
1.053516 0.402931 -0.178648
1.090217 0.416967 0.143318
1.067968 0.408458 -0.140393
1.092334 0.417559 0.185218
1.040327 0.397679 -0.097440
1.085703 0.414807 0.225918
1.072791 0.409874 -0.060186
1.088599 0.415914 0.269041
1.057359 0.403766 -0.019756
1.088261 0.415566 0.312136
1.028978 0.392106 -0.295054
1.065114 0.405876 0.019896
1.036222 0.394659 -0.255994
1.065754 0.405907 0.059768
1.038504 0.395321 -0.215996
1.083709 0.412528 0.101449
1.044986 0.397580 -0.177084
1.072390 0.408006 0.140881
1.068679 0.406594 -0.140393
1.089369 0.414248 0.184593
1.041020 0.395863 -0.097440
1.077250 0.409424 0.224010
1.066037 0.405162 -0.059768
1.096610 0.416782 0.270841
1.058061 0.401920 -0.019756
1.096208 0.416411 0.314206
1.040500 0.394418 -0.298160
1.069561 0.405434 0.019966
1.020508 0.386636 -0.251945
1.066461 0.404046 0.059768
1.039193 0.393508 -0.215996
1.075110 0.407109 0.100578
1.040136 0.393658 -0.176145
1.073100 0.406134 0.140881
1.061961 0.401918 -0.139419
1.097481 0.415141 0.185844
1.045437 0.395455 -0.097789
1.081636 0.408932 0.224773
1.059270 0.400476 -0.059349
1.084576 0.410044 0.267692
1.062503 0.401487 -0.019826
1.102355 0.416546 0.315759
1.037571 0.391238 -0.297124
1.066525 0.402156 0.019896
1.032122 0.388978 -0.254645
1.059689 0.399367 0.059349
1.039878 0.391693 -0.215996
1.090736 0.410850 0.101972
1.055611 0.397409 -0.178648
1.077523 0.405658 0.141368
1.055230 0.397265 -0.138444
1.088959 0.409747 0.184280
1.053584 0.396436 -0.098486
1.084185 0.407735 0.225155
1.067445 0.401439 -0.059768
1.072522 0.403348 0.264542
1.051971 0.395410 -0.019617
1.092230 0.410542 0.312653
1.034635 0.388070 -0.296089
1.070970 0.401698 0.019966
1.023676 0.383756 -0.252395
1.060384 0.397517 0.059349
1.036883 0.388500 -0.215233
1.067196 0.399858 0.099706
1.056303 0.395566 -0.178648
1.072652 0.401689 0.140637
1.059639 0.396816 -0.138931
1.087823 0.407153 0.183967
1.043078 0.390406 -0.097440
1.090412 0.407905 0.226299
1.075627 0.402374 -0.060186
1.080525 0.404207 0.266342
1.052659 0.393573 -0.019617
1.092945 0.408636 0.312653
1.028071 0.383562 -0.294018
1.064175 0.397032 0.019826
1.037126 0.386734 -0.255544
1.064819 0.397061 0.059558
1.037560 0.386690 -0.215233
1.077227 0.401474 0.100578
1.049587 0.390964 -0.177397
1.086374 0.404666 0.142343
1.062191 0.395658 -0.139175
1.092234 0.406633 0.184593
1.036289 0.385805 -0.096743
1.078242 0.401209 0.223628
1.072583 0.399104 -0.059977
1.079403 0.401641 0.265892
1.057093 0.393129 -0.019686
1.086414 0.404033 0.310583
1.032361 0.383112 -0.295054
1.057367 0.392392 0.019686
1.023182 0.379502 -0.251945
1.069256 0.396591 0.059768
1.036392 0.384196 -0.214851
1.070454 0.396823 0.099880
1.042859 0.386387 -0.176145
1.068464 0.395873 0.139906
1.068464 0.395873 -0.139906
1.092942 0.404725 0.184593
1.040698 0.385379 -0.097091
1.086305 0.402052 0.225155
1.065786 0.394458 -0.059558
1.089240 0.403138 0.268142
1.057778 0.391284 -0.019686
1.094365 0.404818 0.312653
1.033028 0.381309 -0.295054
1.065554 0.393315 0.019826
1.027500 0.379065 -0.252845
1.064325 0.392650 0.059454
1.040745 0.383745 -0.215614
1.089838 0.401847 0.101624
1.043532 0.384565 -0.176145
1.071016 0.394694 0.140150
1.063565 0.391948 -0.139175
1.097354 0.404183 0.185218
1.048848 0.386317 -0.097789
1.074109 0.395408 0.222483
1.070221 0.393977 -0.059768
1.084455 0.399217 0.266792
1.069719 0.393580 -0.019896
1.095070 0.402907 0.312653
1.040946 0.382169 -0.297124
1.069994 0.392833 0.019896
1.029989 0.377942 -0.253295
1.059383 0.388728 0.059140
1.034041 0.379224 -0.214088
1.068092 0.391712 0.099532
1.049765 0.384783 -0.177084
1.071703 0.392824 0.140150
1.051201 0.385309 -0.137469
1.090639 0.399549 0.183967
1.045779 0.383115 -0.097440
1.082171 0.396233 0.224010
1.067156 0.390735 -0.059558
1.070511 0.391964 0.263193
1.055381 0.386215 -0.019617
1.101214 0.402987 0.314206
1.028843 0.375893 -0.293501
1.066853 0.389780 0.019826
1.030581 0.376324 -0.253295
1.059993 0.387064 0.059140
1.032791 0.376926 -0.213706
1.079935 0.394132 0.100578
1.055936 0.385164 -0.178022
1.081643 0.394542 0.141368
1.057400 0.385698 -0.138200
1.091265 0.397835 0.183967
1.046379 0.381472 -0.097440
1.080948 0.393860 0.223628
1.067769 0.389058 -0.059558
1.074788 0.391616 0.264093
1.052228 0.383188 -0.019547
1.089139 0.396630 0.310583
1.022235 0.371457 -0.291430
1.069411 0.388600 0.019861
1.034900 0.375855 -0.254195
1.060667 0.385213 0.059140
1.037138 0.376463 -0.214469
1.058147 0.384089 0.098486
1.045465 0.379279 -0.176145
1.082330 0.392653 0.141368
1.059937 0.384529 -0.138444
1.095672 0.397277 0.184593
1.033932 0.374890 -0.096220
1.089017 0.394649 0.225155
1.079713 0.391277 -0.060186
1.077302 0.390403 0.264542
1.052896 0.381351 -0.019547
1.086197 0.393412 0.309548
1.024698 0.370329 -0.291948
1.064446 0.384694 0.019756
1.030056 0.372062 -0.252845
1.061337 0.383361 0.059140
1.034100 0.373319 -0.213706
1.079431 0.389683 0.100403
1.046125 0.377453 -0.176145
1.069943 0.386047 0.139662
1.068076 0.385373 -0.139419
1.088930 0.392684 0.183341
1.043956 0.376465 -0.097091
1.071235 0.386091 0.221338
1.065363 0.383974 -0.059349
1.085315 0.391165 0.266342
1.053560 0.379513 -0.019547
1.086882 0.391516 0.309548
1.027161 0.369194 -0.292466
1.061352 0.381483 0.019686
1.025202 0.368287 -0.251495
1.058246 0.380157 0.058930
1.038446 0.372840 -0.214469
1.066983 0.383086 0.099183
1.052360 0.377629 -0.177084
1.068747 0.383509 0.139419
1.059404 0.380157 -0.138200
1.089614 0.390782 0.183341
1.040860 0.373297 -0.096743
1.079299 0.386870 0.222865
1.058511 0.379419 -0.058930
1.074989 0.385325 0.263643
1.052338 0.376999 -0.019512
1.087563 0.389619 0.309548
1.035080 0.370001 -0.294536
1.069548 0.382322 0.019826
1.025843 0.366497 -0.251495
1.058907 0.378310 0.058930
1.033548 0.369047 -0.213324
1.084537 0.387253 0.100752
1.053018 0.375791 -0.177084
1.078762 0.384979 0.140637
1.056327 0.376972 -0.137712
1.090295 0.388880 0.183341
1.049017 0.374157 -0.097440
1.087370 0.387622 0.224391
1.070459 0.381594 -0.059558
1.066482 0.380176 0.261393
1.051111 0.374491 -0.019477
1.099160 0.391610 0.312653
1.032084 0.366900 -0.293501
1.073982 0.381795 0.019896
1.033826 0.367316 -0.253295
1.059566 0.376461 0.058930
1.024940 0.363957 -0.211416
1.057048 0.375359 0.098137
1.055534 0.374614 -0.177397
1.066337 0.378448 0.138931
1.056983 0.375128 -0.137712
1.083525 0.384335 0.182090
1.044035 0.370327 -0.096917
1.088045 0.385725 0.224391
1.074888 0.381061 -0.059768
1.072654 0.380268 0.262743
1.047993 0.371320 -0.019407
1.085275 0.384529 0.308512
1.021795 0.361234 -0.290395
1.063335 0.375920 0.019686
1.034466 0.365511 -0.253295
1.065871 0.376608 0.059244
1.032979 0.364783 -0.212943
1.067095 0.376831 0.099009
1.046872 0.369483 -0.175832
1.083844 0.382532 0.141125
1.059509 0.373943 -0.137956
1.087920 0.383757 0.182715
1.033406 0.364528 -0.095871
1.075755 0.379256 0.221720
1.071784 0.377856 -0.059558
1.073316 0.378396 0.262743
1.046753 0.368825 -0.019372
1.073190 0.378140 0.304889
1.022424 0.359451 -0.290395
1.060216 0.372737 0.019617
1.029586 0.361767 -0.251945
1.064642 0.374085 0.059140
1.035466 0.363630 -0.213324
1.058352 0.371667 0.098137
1.036332 0.363731 -0.173955
1.071398 0.376038 0.139419
1.063906 0.373409 -0.138444
1.096044 0.384474 0.183967
1.037801 0.364043 -0.096220
1.074563 0.376728 0.221338
1.061134 0.372020 -0.058930
1.085009 0.380390 0.265442
1.051170 0.368320 -0.019442
1.088434 0.381377 0.309030
1.026697 0.358941 -0.291430
1.064640 0.372207 0.019686
1.022858 0.357398 -0.250146
1.059637 0.370249 0.058826
1.037953 0.362469 -0.213706
1.083452 0.378358 0.100403
1.046290 0.365177 -0.175519
1.064556 0.371552 0.138444
1.053310 0.367627 -0.136981
1.089253 0.379958 0.182715
1.040316 0.362887 -0.096394
1.078926 0.376144 0.222102
1.054238 0.367537 -0.058512
1.070950 0.373364 0.261843
1.057476 0.368460 -0.019547
1.083625 0.377571 0.307477
1.034620 0.359686 -0.293501
1.061511 0.369034 0.019617
1.025321 0.356252 -0.250595
1.056509 0.367089 0.058616
1.038584 0.360657 -0.213706
1.059643 0.367970 0.098137
1.046926 0.363350 -0.175519
1.074579 0.372947 0.139662
1.048324 0.363835 -0.136250
1.084315 0.376114 0.181777
1.044712 0.362377 -0.096743
1.072162 0.371688 0.220575
1.058652 0.367005 -0.058721
1.062394 0.368302 0.259594
1.050560 0.363994 -0.019407
1.091584 0.378208 0.309548
1.029769 0.355986 -0.291948
1.071603 0.370448 0.019791
1.027783 0.355098 -0.251045
1.062811 0.367200 0.058930
1.029933 0.355640 -0.211798
1.079116 0.372624 0.099880
1.055028 0.364100 -0.176771
1.069599 0.369128 0.138931
1.054587 0.363948 -0.136981
1.086838 0.374865 0.182090
1.035926 0.357304 -0.095871
1.078377 0.371736 0.221720
1.057402 0.364506 -0.058616
1.063035 0.366448 0.259594
1.047412 0.360858 -0.019337
1.090415 0.375673 0.309030
1.017601 0.349792 -0.288324
1.070357 0.367927 0.019756
1.030244 0.353938 -0.251495
1.061561 0.364697 0.058826
1.037979 0.356393 -0.213324
1.053383 0.361681 0.097440
1.046320 0.359051 -0.175207
1.077752 0.369838 0.139906
1.049588 0.360173 -0.136250
1.083753 0.371686 0.181464
1.036548 0.355496 -0.095871
1.080881 0.370490 0.222102
1.075041 0.368489 -0.059558
1.069203 0.366488 0.260943
1.046149 0.358381 -0.019302
1.081932 0.370639 0.306442
1.014553 0.346766 -0.287289
1.053967 0.360237 0.019442
1.019795 0.348359 -0.248796
1.064086 0.363489 0.058930
1.036742 0.353946 -0.212943
1.076639 0.367567 0.099532
1.033858 0.352760 -0.173017
1.061488 0.362187 0.137712
1.057730 0.360905 -0.137225
1.084400 0.369794 0.181464
1.037166 0.353687 -0.095871
1.070376 0.364803 0.219812
1.060559 0.361457 -0.058721
1.067997 0.363992 0.260493
1.054344 0.359133 -0.019442
1.088063 0.370619 0.307995
1.022473 0.347482 -0.289360
1.056488 0.359041 0.019477
1.018557 0.345952 -0.248346
1.060937 0.360346 0.058721
1.033640 0.350874 -0.212180
1.058413 0.359283 0.097789
1.038213 0.352224 -0.173642
1.069638 0.362885 0.138687
1.047079 0.355232 -0.135762
1.090656 0.369803 0.182403
1.035895 0.351236 -0.095697
1.076590 0.364825 0.220957
1.057405 0.358323 -0.058512
1.068631 0.362127 0.260493
1.054969 0.357293 -0.019442
1.083219 0.366860 0.306442
1.034059 0.349407 -0.292466
1.062796 0.359117 0.019582
1.022852 0.345421 -0.249246
1.061564 0.358494 0.058721
1.028671 0.347185 -0.211035
1.077916 0.363806 0.099532
1.042570 0.351674 -0.174268
1.075912 0.362921 0.139419
1.051459 0.354673 -0.136250
1.087556 0.366637 0.181777
1.038395 0.350064 -0.095871
1.073504 0.361691 0.220194
1.058029 0.356477 -0.058512
1.060027 0.357150 0.258244
1.046116 0.352260 -0.019267
1.085688 0.365586 0.306959
1.027343 0.345141 -0.290395
1.065317 0.357898 0.019617
1.019758 0.342394 -0.248346
1.054615 0.354097 0.058302
1.025552 0.344141 -0.210272
1.057771 0.354952 0.097614
1.046928 0.351110 -0.174894
1.067134 0.357887 0.138200
1.046431 0.350944 -0.135519
1.078830 0.361599 0.180213
1.031448 0.345718 -0.095174
1.087164 0.364183 0.222865
1.070012 0.358437 -0.059140
1.069888 0.358395 0.260493
1.041040 0.348530 -0.019163
1.080829 0.361851 0.305406
1.016949 0.339674 -0.287289
1.064044 0.355404 0.019582
1.033293 0.344934 -0.251495
1.055231 0.352257 0.058302
1.028014 0.342972 -0.210653
1.073509 0.358150 0.099009
1.040043 0.346783 -0.173642
1.079056 0.359791 0.139662
1.062107 0.354140 -0.137469
1.081333 0.360341 0.180525
1.032050 0.343918 -0.095174
1.063584 0.354220 0.217904
1.074426 0.357831 -0.059349
1.064965 0.354680 0.259144
1.051134 0.349869 -0.019337
1.077793 0.358743 0.304371
1.013874 0.336681 -0.286254
1.058969 0.351656 0.019477
1.028345 0.341288 -0.250146
1.067218 0.354189 0.058930
1.030474 0.341795 -0.211035
1.053331 0.349376 0.097091
1.036897 0.343724 -0.173017
1.068376 0.354159 0.138200
1.060839 0.351661 -0.137225
1.085711 0.359695 0.181151
1.034540 0.342742 -0.095348
1.066064 0.352980 0.218286
1.061777 0.351560 -0.058616
1.065583 0.352821 0.259144
1.053641 0.348663 -0.019372
1.069247 0.353827 0.301783
1.023632 0.337940 -0.288842
1.061480 0.350435 0.019512
1.019686 0.336440 -0.247896
1.054557 0.347945 0.058198
1.045985 0.344914 -0.214088
1.070969 0.353153 0.098660
1.033683 0.340858 -0.172391
1.065222 0.351052 0.137712
1.055795 0.347945 -0.136494
1.086337 0.357800 0.181151
1.038921 0.342183 -0.095697
1.059158 0.348848 0.216759
1.051006 0.345960 -0.057988
1.060644 0.349132 0.257794
1.048549 0.344949 -0.019267
1.079039 0.354979 0.304371
1.029727 0.337960 -0.290395
1.063990 0.349205 0.019547
1.022065 0.335445 -0.248346
1.057061 0.346727 0.058302
1.031602 0.338376 -0.211035
1.056377 0.346502 0.097266
1.039908 0.340899 -0.173329
1.067659 0.349996 0.137956
1.041310 0.341158 -0.134544
1.083143 0.354863 0.180525
1.045137 0.342412 -0.096220
1.070960 0.350665 0.219049
1.047752 0.343066 -0.057779
1.066808 0.349099 0.259144
1.041488 0.340813 -0.019128
1.088775 0.356287 0.306959
1.026584 0.335143 -0.289360
1.070240 0.349395 0.019651
1.026354 0.334870 -0.249246
1.055705 0.344446 0.058198
1.024725 0.334140 -0.209508
1.062663 0.346511 0.097789
1.051770 0.342756 -0.175207
1.070155 0.348748 0.138200
1.053168 0.343212 -0.136006
1.080004 0.351748 0.179900
1.034367 0.336885 -0.095174
1.075305 0.350010 0.219812
1.055946 0.343709 -0.058198
1.056237 0.343804 0.256444
1.047786 0.340851 -0.019233
1.063676 0.346020 0.299712
1.016142 0.329772 -0.286254
1.061338 0.344440 0.019477
1.025084 0.332477 -0.248796
1.063904 0.345068 0.058616
1.025306 0.332352 -0.209508
1.049999 0.340355 0.096569
1.042971 0.337876 -0.173642
1.076428 0.348714 0.138931
1.053766 0.341373 -0.136006
1.076858 0.348646 0.179274
1.027371 0.332624 -0.094477
1.064706 0.344507 0.217522
1.060344 0.343095 -0.058407
1.062397 0.343759 0.257794
1.046476 0.338406 -0.019198
1.067955 0.345352 0.300748
1.022232 0.329778 -0.287807
1.060034 0.341973 0.019442
1.020098 0.328893 -0.247446
1.064505 0.343210 0.058616
1.035228 0.333572 -0.211416
1.067658 0.344021 0.098137
1.030397 0.331817 -0.171452
1.071366 0.345010 0.138200
1.056250 0.340142 -0.136250
1.079345 0.347371 0.179587
1.029847 0.331441 -0.094651
1.061568 0.341446 0.216759
1.059040 0.340633 -0.058302
1.068561 0.343695 0.259144
1.043258 0.335355 -0.019128
1.079591 0.347035 0.303854
1.022806 0.327993 -0.287807
1.062533 0.340733 0.019477
1.013247 0.324733 -0.245647
1.061298 0.340133 0.058407
1.033939 0.331166 -0.211035
1.056873 0.338511 0.097091
1.032856 0.330620 -0.171765
1.064404 0.340719 0.137225
1.051170 0.336482 -0.135519
1.091238 0.349099 0.181464
1.041809 0.333286 -0.095697
1.060292 0.338995 0.216377
1.052024 0.336351 -0.057884
1.061734 0.339456 0.257344
1.043842 0.333534 -0.019128
1.069154 0.341622 0.300748
1.027058 0.327381 -0.288842
1.059316 0.337663 0.019407
1.019383 0.324739 -0.246996
1.044763 0.332824 0.057465
1.027032 0.326978 -0.209508
1.076447 0.342710 0.098835
1.039079 0.330613 -0.172704
1.064997 0.338860 0.137225
1.040406 0.331036 -0.134056
1.074904 0.341806 0.178648
1.048086 0.333278 -0.096220
1.062753 0.337738 0.216759
1.050706 0.333909 -0.057779
1.049325 0.333470 0.254195
1.046328 0.332317 -0.019163
1.080796 0.343264 0.303854
1.022103 0.323838 -0.287289
1.065623 0.337627 0.019512
1.021806 0.323547 -0.247446
1.056767 0.334617 0.058093
1.027602 0.325185 -0.209508
1.048550 0.331814 0.096220
1.045304 0.330587 -0.173642
1.067480 0.337600 0.137469
1.050445 0.332213 -0.135275
1.075499 0.339929 0.178648
1.031568 0.326044 -0.094651
1.072702 0.338839 0.218667
1.057000 0.333879 -0.058093
1.059197 0.334573 0.256444
1.037372 0.327481 -0.018988
1.074024 0.339051 0.301783
1.015296 0.319732 -0.285219
1.060488 0.333964 0.019407
1.022369 0.321763 -0.247446
1.057349 0.332772 0.058093
1.028167 0.323392 -0.209508
1.062432 0.334169 0.097440
1.034573 0.325207 -0.171765
1.075642 0.338117 0.138444
1.051024 0.330378 -0.135275
1.081744 0.339828 0.179587
1.028334 0.323049 -0.094303
1.065799 0.334614 0.217141
1.061393 0.333231 -0.058302
1.057920 0.332140 0.255994
1.039850 0.326268 -0.019023
1.065398 0.334284 0.299195
1.023227 0.320268 -0.287289
1.057253 0.330918 0.019337
1.017350 0.318233 -0.246096
1.063647 0.332715 0.058407
1.026857 0.321010 -0.209127
1.051603 0.328747 0.096394
1.031368 0.322223 -0.171139
1.068652 0.333871 0.137469
1.053493 0.329136 -0.135519
1.080450 0.337350 0.179274
1.025092 0.320066 -0.093954
1.055136 0.329245 0.214851
1.058159 0.330188 -0.058093
1.067799 0.333196 0.258244
1.044236 0.325643 -0.019093
1.077045 0.335875 0.302301
1.016406 0.316186 -0.285219
1.054010 0.327884 0.019267
1.014182 0.315300 -0.245197
1.048968 0.326115 0.057570
1.033040 0.320965 -0.210272
1.078813 0.335187 0.098835
1.035646 0.321775 -0.171765
1.059754 0.329062 0.136250
1.044587 0.324353 -0.134300
1.090470 0.338392 0.180838
1.037067 0.321820 -0.095000
1.059402 0.328751 0.215614
1.047288 0.324791 -0.057465
1.051627 0.326137 0.254195
1.054353 0.326780 -0.019267
1.073939 0.332850 0.301265
1.028030 0.317835 -0.288324
1.062223 0.328406 0.019407
1.018399 0.314858 -0.246096
1.043811 0.322515 0.057256
1.027915 0.317604 -0.209127
1.058399 0.327022 0.096917
1.034318 0.319384 -0.171452
1.064063 0.328568 0.136737
1.041358 0.321359 -0.133813
1.085338 0.334930 0.179900
1.039475 0.320777 -0.095174
1.067479 0.329216 0.217141
1.040163 0.320791 -0.057046
1.059644 0.326596 0.255994
1.041488 0.321000 -0.019023
1.076307 0.331732 0.301783
1.028528 0.316220 -0.288324
1.070383 0.329088 0.019547
1.015222 0.311936 -0.245197
1.053862 0.323808 0.057779
1.019084 0.312927 -0.207219
1.070396 0.328683 0.097963
1.044316 0.320476 -0.173017
1.068430 0.327876 0.137225
1.051350 0.322634 -0.135031
1.068923 0.327824 0.177084
1.026699 0.314874 -0.093954
1.077437 0.330228 0.219049
1.055998 0.323657 -0.057884
1.050840 0.322076 0.253745
1.042047 0.319182 -0.019023
1.071343 0.328156 0.300230
1.014298 0.309909 -0.284183
1.059481 0.323714 0.019337
1.026947 0.313577 -0.247896
1.048695 0.320218 0.057465
1.023384 0.312294 -0.207982
1.044289 0.318673 0.095523
1.029758 0.314043 -0.170514
1.072798 0.327169 0.137712
1.048114 0.319641 -0.134544
1.080832 0.329412 0.178961
1.025342 0.312500 -0.093780
1.057353 0.322055 0.214851
1.056561 0.321814 -0.057884
1.062586 0.323649 0.256444
1.042602 0.317363 -0.019023
1.060825 0.322910 0.297124
1.018534 0.309260 -0.285219
1.052390 0.319540 0.019198
1.020034 0.309521 -0.246096
1.066454 0.323607 0.058407
1.022049 0.309938 -0.207600
1.065817 0.323210 0.097440
1.024634 0.310526 -0.169575
1.061969 0.321841 0.136250
1.046771 0.317235 -0.134300
1.079514 0.326953 0.178648
1.023978 0.310133 -0.093605
1.046639 0.316796 0.212561
1.039917 0.314761 -0.056942
1.061284 0.321229 0.255994
1.043154 0.315543 -0.019023
1.057689 0.319940 0.296089
1.024621 0.309157 -0.286772
1.052947 0.317703 0.019198
1.011244 0.304927 -0.243847
1.051719 0.317132 0.057570
1.035747 0.312119 -0.210272
1.053025 0.317326 0.096220
1.028957 0.309877 -0.170201
1.054926 0.317698 0.135275
1.047323 0.315408 -0.134300
1.081975 0.325637 0.178961
1.034058 0.311216 -0.094477
1.052831 0.316666 0.213706
1.040464 0.312947 -0.056942
1.048780 0.315448 0.252845
1.051364 0.316025 -0.019163
1.061946 0.319206 0.297124
1.021458 0.306258 -0.285736
1.061161 0.318162 0.019337
1.017375 0.304840 -0.245197
1.054184 0.315869 0.057674
1.021244 0.305806 -0.207219
1.072664 0.321203 0.097963
1.027604 0.307514 -0.169888
1.063086 0.318132 0.136250
1.030756 0.308457 -0.132106
1.073079 0.320919 0.177397
1.034599 0.309411 -0.094477
1.060906 0.317077 0.215233
