# This PCD file was generated using the MATLAB® pcwrite function
# from Computer Vision System Toolbox®.
# .PCD v.7 - Point Cloud Data file format
VERSION .7
FIELDS x y z
SIZE 4 4 4
TYPE F F F
COUNT 1 1 1
WIDTH 1655
HEIGHT 1
VIEWPOINT 0 0 0 1 0 0 0
POINTS 1655
DATA ascii
1.791866 -0.079801 -0.284085
1.804645 -0.080370 -0.221802
1.795342 -0.080270 -0.157229
1.829644 -0.082124 -0.095984
1.783165 -0.081597 -0.478298
1.790952 -0.082266 -0.413910
1.782704 -0.082199 -0.346891
1.795671 -0.083111 -0.284711
1.826315 -0.084530 -0.224483
1.785248 -0.082941 -0.156357
1.827503 -0.085224 -0.095879
1.784950 -0.084801 -0.478815
1.783020 -0.085021 -0.412110
1.788441 -0.085592 -0.348036
1.791592 -0.085743 -0.284085
1.800388 -0.086479 -0.221315
1.801021 -0.086824 -0.157752
1.827352 -0.088413 -0.095879
1.788658 -0.088106 -0.479851
1.792616 -0.088301 -0.414360
1.794187 -0.088692 -0.349180
1.799331 -0.089261 -0.285336
1.814113 -0.090312 -0.223021
1.806852 -0.089950 -0.158275
1.819232 -0.090885 -0.095461
1.788517 -0.090915 -0.479851
1.792459 -0.091429 -0.414360
1.788148 -0.091522 -0.348036
1.803134 -0.092289 -0.285962
1.802074 -0.092550 -0.221558
1.800723 -0.092796 -0.157752
1.827048 -0.094473 -0.095879
1.784497 -0.093834 -0.478815
1.792314 -0.094245 -0.414360
1.791922 -0.094538 -0.348799
1.799025 -0.095227 -0.285336
1.825697 -0.096959 -0.224483
1.800575 -0.095625 -0.157752
1.832881 -0.097661 -0.096193
1.788189 -0.097158 -0.479851
1.792130 -0.097686 -0.414360
1.795658 -0.098192 -0.349562
1.794894 -0.098465 -0.284711
1.813633 -0.099493 -0.223021
1.802377 -0.099191 -0.157926
1.828702 -0.100960 -0.095984
1.795732 -0.100711 -0.481921
1.791956 -0.100813 -0.414360
1.809205 -0.102101 -0.352233
1.802608 -0.102044 -0.285962
1.803547 -0.102097 -0.221802
1.802202 -0.102336 -0.157926
1.818553 -0.103583 -0.095461
1.799411 -0.104068 -0.482956
1.795668 -0.104166 -0.415260
1.797264 -0.104574 -0.349944
1.802428 -0.105190 -0.285962
1.827146 -0.106632 -0.224727
1.819921 -0.106530 -0.159495
1.842295 -0.108162 -0.096717
1.797298 -0.107094 -0.482439
1.793539 -0.107184 -0.414810
1.795120 -0.107593 -0.349562
1.806185 -0.108573 -0.286588
1.807142 -0.108630 -0.222290
1.809789 -0.109106 -0.158623
1.816186 -0.109810 -0.095356
1.787467 -0.109639 -0.479851
1.808909 -0.111271 -0.418409
1.798848 -0.110968 -0.350325
1.802049 -0.111481 -0.285962
1.826763 -0.113010 -0.224727
1.801641 -0.111771 -0.157926
1.843900 -0.114716 -0.096822
1.794985 -0.113245 -0.481921
1.798988 -0.113813 -0.416159
1.808448 -0.114729 -0.352233
1.801852 -0.114626 -0.285962
1.824582 -0.116072 -0.224483
1.801443 -0.114916 -0.157926
1.835724 -0.117424 -0.096403
1.794785 -0.116378 -0.481921
1.789063 -0.116321 -0.413910
1.818041 -0.118523 -0.354142
1.809534 -0.118286 -0.287214
1.834281 -0.119904 -0.225702
1.815157 -0.118972 -0.159146
1.835516 -0.120628 -0.096403
1.806144 -0.120281 -0.485027
1.806358 -0.120611 -0.417959
1.800201 -0.120516 -0.350707
1.811296 -0.121576 -0.287527
1.806340 -0.121244 -0.222290
1.822898 -0.122675 -0.159844
1.835303 -0.123831 -0.096403
1.798222 -0.122906 -0.482956
1.802256 -0.123498 -0.417059
1.805864 -0.124061 -0.351852
1.824898 -0.125369 -0.289717
1.835832 -0.126442 -0.225946
1.810755 -0.125033 -0.158798
1.839069 -0.127310 -0.096612
1.798005 -0.126044 -0.482956
1.809836 -0.126873 -0.418859
1.809584 -0.127173 -0.352615
1.808912 -0.127443 -0.287214
1.829667 -0.129226 -0.225215
1.804594 -0.127456 -0.158275
1.846836 -0.130763 -0.097031
1.801659 -0.129145 -0.483992
1.803780 -0.129613 -0.417509
1.823066 -0.131319 -0.355286
1.806717 -0.130458 -0.286901
1.845302 -0.133244 -0.227164
1.812318 -0.131180 -0.158972
1.848597 -0.134131 -0.097136
1.803357 -0.132430 -0.484509
1.807438 -0.133047 -0.418409
1.824792 -0.134645 -0.355668
1.812396 -0.134048 -0.287839
1.819330 -0.134561 -0.223996
1.818047 -0.134785 -0.159495
1.832426 -0.136173 -0.096298
1.814682 -0.136447 -0.487615
1.801374 -0.135762 -0.417059
1.816724 -0.137238 -0.354142
1.812159 -0.137211 -0.287839
1.834928 -0.138935 -0.225946
1.829729 -0.138863 -0.160541
1.842143 -0.140128 -0.096822
1.800958 -0.138576 -0.483992
1.812792 -0.139805 -0.419759
1.806695 -0.139652 -0.352233
1.825704 -0.141442 -0.290030
1.832704 -0.141984 -0.225702
1.823525 -0.141593 -0.160018
1.837913 -0.143033 -0.096612
1.796861 -0.141416 -0.482956
1.810602 -0.142815 -0.419309
1.820148 -0.143888 -0.354905
1.823485 -0.144472 -0.289717
1.826517 -0.144712 -0.224971
1.811358 -0.143829 -0.158972
1.853588 -0.147508 -0.097450
1.806240 -0.145327 -0.485545
1.810350 -0.145975 -0.419309
1.825765 -0.147539 -0.356050
1.817323 -0.147176 -0.288778
1.851983 -0.149983 -0.228139
1.819048 -0.147635 -0.159669
1.849347 -0.150419 -0.097240
1.805984 -0.148479 -0.485545
1.808151 -0.148975 -0.418859
1.827461 -0.150887 -0.356431
1.821001 -0.150673 -0.289404
1.826000 -0.151087 -0.224971
1.820773 -0.150975 -0.159844
1.841120 -0.152985 -0.096822
1.811497 -0.152116 -0.487097
1.811772 -0.152457 -0.419759
1.823282 -0.153746 -0.355668
1.826640 -0.154350 -0.290342
1.837602 -0.155277 -0.226433
1.836389 -0.155497 -0.161238
1.852790 -0.157212 -0.097450
1.811229 -0.155277 -0.487097
1.813444 -0.155786 -0.420209
1.811275 -0.155918 -0.353378
1.830304 -0.157878 -0.290968
1.831395 -0.157972 -0.225702
1.820235 -0.157329 -0.159844
1.836595 -0.159066 -0.096612
1.803257 -0.157765 -0.485027
1.824817 -0.159972 -0.422908
1.826646 -0.160453 -0.356431
1.822155 -0.160379 -0.289717
1.848914 -0.162735 -0.227896
1.821942 -0.160681 -0.160018
1.862178 -0.164557 -0.097973
1.806827 -0.161255 -0.486062
1.824535 -0.163156 -0.422908
1.828319 -0.163816 -0.356813
1.819905 -0.163383 -0.289404
1.850604 -0.166139 -0.228139
1.825627 -0.164218 -0.160367
1.855920 -0.167269 -0.097659
1.816163 -0.165284 -0.488650
1.818426 -0.165810 -0.421558
1.839761 -0.168079 -0.359103
1.825518 -0.167099 -0.290342
1.852288 -0.169549 -0.228383
1.829306 -0.167768 -0.160715
1.847670 -0.169777 -0.097240
1.819718 -0.168810 -0.489686
1.816193 -0.168803 -0.421108
1.839464 -0.171290 -0.359103
1.833091 -0.171019 -0.291594
1.830248 -0.170754 -0.225702
1.840913 -0.172073 -0.161761
1.855325 -0.173746 -0.097659
1.813651 -0.171441 -0.488133
1.829476 -0.173259 -0.424258
1.825481 -0.173202 -0.356431
1.840656 -0.174966 -0.292845
1.855637 -0.176390 -0.228871
1.834660 -0.174719 -0.161238
1.857007 -0.177174 -0.097764
1.809503 -0.174235 -0.487097
1.836930 -0.177200 -0.426057
1.825176 -0.176388 -0.356431
1.836415 -0.177797 -0.292220
1.841496 -0.178289 -0.227164
1.824436 -0.176959 -0.160367
1.862659 -0.180994 -0.098078
1.826500 -0.179090 -0.491756
1.828860 -0.179644 -0.424258
1.844404 -0.181495 -0.360247
1.828239 -0.180227 -0.290968
1.864888 -0.183840 -0.230089
1.838004 -0.181513 -0.161587
1.854390 -0.183458 -0.097659
1.828107 -0.182469 -0.492274
1.822727 -0.182254 -0.422908
1.849945 -0.185301 -0.361392
1.827953 -0.183098 -0.290968
1.848763 -0.185509 -0.228139
1.837685 -0.184721 -0.161587
1.854067 -0.186695 -0.097659
1.827786 -0.185660 -0.492274
1.830193 -0.185904 -0.424708
1.837932 -0.187014 -0.359103
1.845318 -0.188091 -0.293784
1.848436 -0.188735 -0.228139
1.841356 -0.188012 -0.161935
1.861719 -0.190420 -0.098078
1.819805 -0.187738 -0.490203
1.835681 -0.189699 -0.426057
1.829792 -0.189413 -0.357576
1.843022 -0.191108 -0.293471
1.844188 -0.191229 -0.227652
1.841025 -0.191226 -0.161935
1.863370 -0.193875 -0.098182
1.825239 -0.191518 -0.491756
1.846976 -0.194125 -0.428757
1.831411 -0.192812 -0.357958
1.846614 -0.194739 -0.294097
1.869516 -0.197154 -0.230821
1.832763 -0.193601 -0.161238
1.863029 -0.197127 -0.098182
1.826823 -0.194909 -0.492274
1.835008 -0.196106 -0.426057
1.842784 -0.197262 -0.360247
1.842343 -0.197540 -0.293471
1.867195 -0.200205 -0.230577
1.848271 -0.198502 -0.162633
1.868640 -0.201020 -0.098496
1.830321 -0.198513 -0.493309
1.828851 -0.198677 -0.424708
1.846341 -0.200903 -0.361011
1.832177 -0.199685 -0.291907
1.872763 -0.204109 -0.231308
1.845941 -0.201511 -0.162458
1.858359 -0.203195 -0.097973
1.835732 -0.202342 -0.494862
1.836249 -0.202724 -0.426507
1.849890 -0.204557 -0.361774
1.847533 -0.204622 -0.294410
1.840835 -0.203881 -0.227408
1.859448 -0.206270 -0.163678
1.863956 -0.207100 -0.098287
1.837296 -0.205761 -0.495380
1.843639 -0.206797 -0.428307
1.837824 -0.206470 -0.359484
1.860914 -0.209393 -0.296600
1.860203 -0.209313 -0.229846
1.845226 -0.207954 -0.162458
1.867561 -0.210801 -0.098496
1.831176 -0.208312 -0.493827
1.843275 -0.210015 -0.428307
1.845263 -0.210567 -0.361011
1.848770 -0.211294 -0.294723
1.865752 -0.213235 -0.230577
1.842881 -0.210947 -0.162284
1.873144 -0.214743 -0.098810
1.838486 -0.212395 -0.495897
1.842906 -0.213231 -0.428307
1.846843 -0.214014 -0.361392
1.840549 -0.213610 -0.293471
1.881152 -0.218322 -0.232527
1.846468 -0.214623 -0.162633
1.870782 -0.217781 -0.098706
1.838112 -0.215603 -0.495897
1.842531 -0.216448 -0.428307
1.862065 -0.219072 -0.364445
1.851945 -0.218209 -0.295348
1.857110 -0.218818 -0.229602
1.857962 -0.219247 -0.163678
1.860482 -0.219873 -0.098182
1.843488 -0.219496 -0.497450
1.842150 -0.219663 -0.428307
1.851933 -0.221157 -0.362537
1.855484 -0.221910 -0.295974
1.866581 -0.223237 -0.230821
1.865490 -0.223437 -0.164376
1.875960 -0.225023 -0.099020
1.833513 -0.221555 -0.494862
1.841764 -0.222878 -0.428307
1.843748 -0.223445 -0.361011
1.859016 -0.225624 -0.296600
1.866188 -0.226495 -0.230821
1.859164 -0.225971 -0.163853
1.875564 -0.228297 -0.099020
1.831206 -0.224519 -0.494344
1.858780 -0.228230 -0.432356
1.849201 -0.227381 -0.362155
1.852737 -0.228144 -0.295661
1.871701 -0.230479 -0.231552
1.850857 -0.228240 -0.163156
1.883091 -0.232549 -0.099438
1.844231 -0.229384 -0.497968
1.854511 -0.230992 -0.431456
1.854646 -0.231337 -0.363300
1.850376 -0.231132 -0.295348
1.881144 -0.234976 -0.232770
1.862318 -0.232954 -0.164201
1.874756 -0.234842 -0.099020
1.841911 -0.232361 -0.497450
1.838639 -0.232274 -0.427857
1.858135 -0.235067 -0.364064
1.857809 -0.235355 -0.296600
1.868915 -0.236762 -0.231308
1.863885 -0.236455 -0.164376
1.872362 -0.237862 -0.098915
1.853000 -0.237046 -0.500556
1.855627 -0.237711 -0.431906
1.855775 -0.238059 -0.363682
1.865232 -0.239604 -0.297851
1.866530 -0.239770 -0.231064
1.869397 -0.240470 -0.164899
1.873924 -0.241385 -0.099020
1.848752 -0.239783 -0.499521
1.855209 -0.240950 -0.431906
1.853409 -0.241045 -0.363300
1.872646 -0.243879 -0.299103
1.879888 -0.244822 -0.232770
1.863048 -0.242960 -0.164376
1.889344 -0.246724 -0.099857
1.842584 -0.242254 -0.497968
1.862514 -0.245205 -0.433706
1.856879 -0.244792 -0.364064
1.868301 -0.246630 -0.298477
1.871586 -0.247064 -0.231796
1.858671 -0.245689 -0.164027
1.892870 -0.250546 -0.100066
1.849818 -0.246490 -0.500038
1.852425 -0.247166 -0.431456
1.866179 -0.249333 -0.365972
1.867868 -0.249890 -0.298477
1.880990 -0.251646 -0.233014
1.866138 -0.249991 -0.164724
1.886492 -0.253052 -0.099752
1.857043 -0.250752 -0.502109
1.851991 -0.250399 -0.431456
1.867686 -0.252853 -0.366353
1.871344 -0.253681 -0.299103
1.890383 -0.256262 -0.234233
1.869648 -0.253783 -0.165073
1.882089 -0.255806 -0.099543
1.866173 -0.255302 -0.504697
1.855412 -0.254160 -0.432356
1.863352 -0.255579 -0.365590
1.878726 -0.258022 -0.300354
1.868300 -0.256590 -0.231552
1.873149 -0.257589 -0.165422
1.891532 -0.260453 -0.100066
1.856202 -0.256909 -0.502109
1.860802 -0.257877 -0.433706
1.866837 -0.259045 -0.366353
1.886145 -0.262060 -0.301606
1.885591 -0.261983 -0.233745
1.862875 -0.259158 -0.164550
1.885187 -0.262597 -0.099752
1.850011 -0.259344 -0.500556
1.866138 -0.261936 -0.435055
1.862494 -0.261756 -0.365590
1.875904 -0.263975 -0.300041
1.898891 -0.267210 -0.235452
1.872285 -0.263799 -0.165422
1.900547 -0.268119 -0.100590
1.861032 -0.264201 -0.503662
1.857961 -0.264096 -0.433256
1.865922 -0.265560 -0.366353
1.873485 -0.266970 -0.299728
1.898421 -0.270523 -0.235452
1.867877 -0.266503 -0.165073
1.894144 -0.270589 -0.100276
1.864392 -0.267999 -0.504697
1.859426 -0.267616 -0.433706
1.875171 -0.270216 -0.368261
1.876927 -0.270804 -0.300354
1.890087 -0.272703 -0.234477
1.879240 -0.271472 -0.166119
1.889716 -0.273322 -0.100066
1.873480 -0.272643 -0.507285
1.860885 -0.271142 -0.434156
1.868869 -0.272638 -0.367117
1.880360 -0.274650 -0.300980
1.895501 -0.276862 -0.235208
1.878764 -0.274752 -0.166119
1.889236 -0.276620 -0.100066
1.867268 -0.275068 -0.505732
1.860408 -0.274389 -0.434156
1.864506 -0.275326 -0.366353
1.887695 -0.279087 -0.302231
1.898943 -0.280750 -0.235695
1.874339 -0.277447 -0.165770
1.900604 -0.281674 -0.100694
1.859142 -0.277187 -0.503662
1.865709 -0.278499 -0.435505
1.871789 -0.279741 -0.367880
1.879390 -0.281212 -0.300980
1.894523 -0.283476 -0.235208
1.865971 -0.279537 -0.165073
1.909986 -0.286472 -0.101218
1.862476 -0.281008 -0.504697
1.867147 -0.282046 -0.435955
1.871298 -0.283007 -0.367880
1.882803 -0.285083 -0.301606
1.899914 -0.287674 -0.235939
1.877299 -0.284585 -0.166119
1.897635 -0.288007 -0.100590
1.865802 -0.284841 -0.505732
1.855094 -0.283538 -0.433256
1.882445 -0.288055 -0.370169
1.886207 -0.288967 -0.302231
1.903333 -0.291591 -0.236427
1.876800 -0.287861 -0.166119
1.901078 -0.291925 -0.100799
1.872939 -0.289277 -0.507803
1.864225 -0.288264 -0.435505
1.878059 -0.290739 -0.369406
1.889604 -0.292864 -0.302857
1.889090 -0.292784 -0.234720
1.884170 -0.292358 -0.166816
1.902539 -0.295549 -0.100904
1.870522 -0.292247 -0.507285
1.861794 -0.291216 -0.435055
1.871730 -0.293105 -0.368261
1.892993 -0.296773 -0.303483
1.900343 -0.297926 -0.236183
1.883657 -0.295646 -0.166816
1.902020 -0.298869 -0.100904
1.860469 -0.294004 -0.504697
1.872831 -0.296292 -0.437755
1.873155 -0.296679 -0.368643
1.884668 -0.298839 -0.302231
1.901780 -0.301553 -0.236427
1.879202 -0.298309 -0.166467
1.915303 -0.304382 -0.101636
1.871398 -0.299080 -0.507803
1.870387 -0.299253 -0.437305
1.890081 -0.302742 -0.372078
1.891946 -0.303379 -0.303483
1.914972 -0.307072 -0.238133
1.886548 -0.302851 -0.167165
1.908853 -0.306774 -0.101322
1.878502 -0.303578 -0.509874
1.860244 -0.300961 -0.435055
1.883736 -0.305099 -0.370933
1.885564 -0.305732 -0.302544
1.902676 -0.308507 -0.236670
1.884049 -0.305824 -0.166990
1.908315 -0.310105 -0.101322
1.885595 -0.308102 -0.511944
1.875101 -0.306724 -0.438655
1.889013 -0.309338 -0.372078
1.894774 -0.310621 -0.304109
1.904093 -0.312148 -0.236914
1.891377 -0.310403 -0.167688
1.913683 -0.314407 -0.101636
1.877431 -0.310133 -0.509874
1.872640 -0.309678 -0.438205
1.871038 -0.309748 -0.368643
1.905922 -0.315865 -0.305986
1.903546 -0.315471 -0.236914
1.888867 -0.313377 -0.167513
1.913131 -0.317746 -0.101636
1.873076 -0.312773 -0.508838
1.883629 -0.314873 -0.440904
1.874367 -0.313661 -0.369406
1.901471 -0.318538 -0.305360
1.910823 -0.320105 -0.237889
1.882422 -0.315685 -0.166990
1.920453 -0.322407 -0.102055
1.880147 -0.317328 -0.510909
1.871548 -0.316213 -0.438205
1.877688 -0.317587 -0.370169
1.897017 -0.321197 -0.304734
1.914176 -0.324102 -0.238376
1.883833 -0.319303 -0.167165
1.921856 -0.326093 -0.102160
1.887207 -0.321908 -0.512979
1.874835 -0.320135 -0.439104
1.902288 -0.325164 -0.375131
1.896453 -0.324507 -0.304734
1.913608 -0.327443 -0.238376
1.893092 -0.324272 -0.168036
1.915379 -0.328434 -0.101846
1.886643 -0.325202 -0.512979
1.868512 -0.322412 -0.437755
1.880437 -0.324808 -0.370933
1.895884 -0.327817 -0.304734
1.913033 -0.330782 -0.238376
1.894486 -0.327916 -0.168211
1.918738 -0.332458 -0.102055
1.889879 -0.329157 -0.514015
1.879465 -0.327681 -0.440454
1.876000 -0.327414 -0.370169
1.910877 -0.333845 -0.307237
1.914408 -0.334462 -0.238620
1.891948 -0.330878 -0.168036
1.916188 -0.335462 -0.101950
1.881691 -0.331116 -0.511944
1.886567 -0.332313 -0.442254
1.894760 -0.334097 -0.373986
1.906400 -0.336493 -0.306612
1.917732 -0.338493 -0.239108
1.885482 -0.333140 -0.167513
1.925433 -0.340545 -0.102474
1.881110 -0.334399 -0.511944
1.884066 -0.335264 -0.441804
1.882577 -0.335338 -0.371696
1.898031 -0.338433 -0.305360
1.917138 -0.341840 -0.239108
1.890782 -0.337481 -0.168036
1.915005 -0.342149 -0.101950
1.888129 -0.339048 -0.514015
1.873888 -0.336828 -0.439554
1.887785 -0.339666 -0.372841
1.905214 -0.343145 -0.306612
1.918492 -0.345537 -0.239351
1.892150 -0.341133 -0.168211
1.922267 -0.346910 -0.102369
1.895138 -0.343722 -0.516085
1.880967 -0.341490 -0.441354
1.883326 -0.342258 -0.372078
1.912447 -0.347551 -0.307863
1.917886 -0.348885 -0.239351
1.903313 -0.346577 -0.169256
1.921659 -0.350264 -0.102369
1.890735 -0.346333 -0.515050
1.880428 -0.344445 -0.441354
1.898235 -0.348049 -0.375131
1.911837 -0.350888 -0.307863
1.919227 -0.352590 -0.239595
1.902766 -0.349566 -0.169256
1.921106 -0.353282 -0.102369
1.886389 -0.348600 -0.514015
1.891321 -0.349853 -0.444053
1.889903 -0.349932 -0.373604
1.911222 -0.354224 -0.307863
1.926478 -0.357052 -0.240570
1.882564 -0.349252 -0.167513
1.928341 -0.358093 -0.102788
1.893374 -0.353309 -0.516085
1.892623 -0.353511 -0.444503
1.885430 -0.352508 -0.372841
1.898951 -0.355379 -0.305986
1.923900 -0.360048 -0.240326
1.897618 -0.355472 -0.168908
1.923787 -0.360722 -0.102578
1.892754 -0.356613 -0.516085
1.886258 -0.355730 -0.443154
1.896386 -0.357983 -0.375131
1.902210 -0.359426 -0.306612
1.921319 -0.363037 -0.240083
1.902868 -0.359895 -0.169431
1.929042 -0.365194 -0.102893
1.899720 -0.361360 -0.518156
1.885635 -0.359022 -0.443154
1.895759 -0.361292 -0.375131
1.913222 -0.364967 -0.308489
1.918732 -0.366018 -0.239839
1.912022 -0.365084 -0.170302
1.924478 -0.367810 -0.102683
1.895293 -0.363947 -0.517120
1.890746 -0.363416 -0.444503
1.885486 -0.362746 -0.373222
1.916462 -0.369052 -0.309115
1.925887 -0.370867 -0.240814
1.907469 -0.367666 -0.169954
1.941483 -0.374574 -0.103625
1.890861 -0.366519 -0.516085
1.888196 -0.366344 -0.444053
1.907977 -0.370528 -0.377802
1.909997 -0.371266 -0.308176
1.929134 -0.374986 -0.241301
1.906824 -0.370995 -0.169954
1.936906 -0.377198 -0.103416
1.897802 -0.371302 -0.518156
1.889466 -0.370014 -0.444503
1.891914 -0.370836 -0.374749
1.907408 -0.374219 -0.307863
1.930425 -0.378734 -0.241545
1.913994 -0.375858 -0.170651
1.928405 -0.379037 -0.102997
1.900942 -0.375362 -0.519191
1.888818 -0.373311 -0.444503
1.920153 -0.379852 -0.380473
1.914503 -0.379082 -0.309115
1.925866 -0.381332 -0.241058
1.913335 -0.379198 -0.170651
1.927741 -0.382402 -0.102997
1.907862 -0.380190 -0.521262
1.886252 -0.376226 -0.444053
1.890608 -0.377438 -0.374749
1.913839 -0.382423 -0.309115
1.927145 -0.385081 -0.241301
1.912671 -0.382536 -0.170651
1.934904 -0.387334 -0.103416
1.903408 -0.382757 -0.520226
1.893234 -0.381055 -0.445853
1.905344 -0.383839 -0.377802
1.917041 -0.386543 -0.309740
1.928415 -0.388837 -0.241545
1.912000 -0.385874 -0.170651
1.934225 -0.390711 -0.103416
1.898950 -0.385310 -0.519191
1.904025 -0.386686 -0.448552
1.893127 -0.384817 -0.375512
1.912492 -0.389101 -0.309115
1.929679 -0.392598 -0.241789
1.907419 -0.388415 -0.170302
1.937454 -0.394884 -0.103625
1.902060 -0.389399 -0.520226
1.897620 -0.388835 -0.447203
1.921301 -0.394037 -0.381236
1.915680 -0.393233 -0.309740
1.946492 -0.399557 -0.243982
1.910641 -0.392546 -0.170651
1.936762 -0.398265 -0.103625
1.901378 -0.392718 -0.520226
1.889305 -0.390568 -0.445403
1.909075 -0.395003 -0.378947
1.922728 -0.398178 -0.310992
1.924409 -0.398526 -0.241301
1.913855 -0.396689 -0.171000
1.932153 -0.400833 -0.103416
1.912037 -0.398401 -0.523332
1.900066 -0.396252 -0.448103
1.898774 -0.396329 -0.377039
1.922030 -0.401533 -0.310992
1.933426 -0.403914 -0.242520
1.920961 -0.401660 -0.171697
1.931450 -0.404205 -0.103416
1.907557 -0.400942 -0.522297
1.905093 -0.400772 -0.449452
1.915369 -0.403282 -0.380473
1.929058 -0.406516 -0.312243
1.934661 -0.407697 -0.242764
1.912459 -0.403367 -0.171000
1.938559 -0.409225 -0.103835
1.906855 -0.404271 -0.522297
1.908203 -0.404905 -0.450352
1.901220 -0.403770 -0.377802
1.920617 -0.408240 -0.310992
1.935888 -0.411486 -0.243007
1.911752 -0.406704 -0.171000
1.943702 -0.413856 -0.104149
1.906146 -0.407599 -0.522297
1.909399 -0.408643 -0.450802
1.923548 -0.412022 -0.382381
1.919973 -0.411256 -0.310992
1.952636 -0.418609 -0.245201
1.918832 -0.411712 -0.171697
1.939071 -0.416409 -0.103939
1.909209 -0.411739 -0.523332
1.901135 -0.409998 -0.449002
1.905627 -0.411315 -0.378947
1.919252 -0.414606 -0.310992
1.928619 -0.416982 -0.242276
1.918182 -0.414726 -0.171697
1.932558 -0.418187 -0.103625
1.916111 -0.416379 -0.525403
1.900417 -0.413316 -0.449002
1.926008 -0.419234 -0.383144
1.935897 -0.421740 -0.313808
1.933781 -0.421279 -0.243007
1.925242 -0.419771 -0.172394
1.943534 -0.424114 -0.104253
1.921042 -0.420963 -0.526956
1.909210 -0.418719 -0.451252
1.902262 -0.417543 -0.378565
1.933229 -0.424694 -0.313495
1.942737 -0.426783 -0.244226
1.916723 -0.421419 -0.171697
1.936939 -0.426218 -0.103939
1.903328 -0.420564 -0.522297
1.917990 -0.424155 -0.453501
1.928367 -0.426802 -0.383908
1.924770 -0.426359 -0.312243
1.945865 -0.431032 -0.244714
1.912094 -0.423901 -0.171348
1.945941 -0.431761 -0.104463
1.913905 -0.426406 -0.525403
1.913443 -0.426653 -0.452602
1.914206 -0.427174 -0.381236
1.924023 -0.429717 -0.312243
1.956734 -0.437023 -0.246176
1.915240 -0.428107 -0.171697
1.945184 -0.435157 -0.104463
1.922582 -0.431862 -0.527991
1.903189 -0.427855 -0.450352
1.911542 -0.430084 -0.380855
1.927124 -0.433943 -0.312869
1.942412 -0.437385 -0.244470
1.922265 -0.433201 -0.172394
1.938577 -0.437233 -0.104149
1.923709 -0.435644 -0.528508
1.906240 -0.432038 -0.451252
1.935679 -0.439065 -0.385816
1.930217 -0.438180 -0.313495
1.947453 -0.442093 -0.245201
1.927334 -0.437880 -0.172917
1.941706 -0.441501 -0.104358
1.926713 -0.439861 -0.529544
1.918782 -0.438402 -0.454401
1.906202 -0.435878 -0.380092
1.937151 -0.443311 -0.314746
1.956354 -0.447706 -0.246420
1.916857 -0.439019 -0.172045
1.952613 -0.447567 -0.104986
1.914646 -0.440623 -0.526438
1.923711 -0.443063 -0.455751
1.907351 -0.439645 -0.380473
1.928675 -0.444915 -0.313495
1.953635 -0.450673 -0.246176
1.919970 -0.443260 -0.172394
1.953775 -0.451424 -0.105091
1.913875 -0.443964 -0.526438
1.924833 -0.446860 -0.456201
1.939090 -0.450527 -0.386961
1.927896 -0.448281 -0.313495
1.962514 -0.456330 -0.247395
1.921134 -0.447062 -0.172568
1.949094 -0.453927 -0.104881
1.926264 -0.450383 -0.530061
1.910768 -0.447111 -0.453051
1.924920 -0.450777 -0.384289
1.930957 -0.452546 -0.314120
1.952050 -0.457490 -0.246176
1.922291 -0.450869 -0.172743
1.944410 -0.456415 -0.104672
1.927356 -0.454187 -0.530579
1.909984 -0.450445 -0.453051
1.914577 -0.451881 -0.382381
1.930164 -0.455916 -0.314120
1.945453 -0.459527 -0.245445
1.935073 -0.457432 -0.173963
1.949441 -0.461188 -0.104986
1.919042 -0.455765 -0.528508
1.916779 -0.455581 -0.454851
1.917605 -0.456131 -0.383144
1.937052 -0.461114 -0.315372
1.952373 -0.464761 -0.246420
1.926520 -0.458962 -0.173266
1.950576 -0.465053 -0.105091
1.918243 -0.459113 -0.528508
1.927352 -0.461649 -0.457550
1.920624 -0.460392 -0.383908
1.932403 -0.463572 -0.314746
1.957349 -0.469557 -0.247151
1.929590 -0.463254 -0.173614
1.953645 -0.469389 -0.105300
1.924951 -0.464272 -0.530579
1.922754 -0.464098 -0.456651
1.927451 -0.465587 -0.385434
1.927751 -0.466016 -0.314120
1.968104 -0.475771 -0.248613
1.924906 -0.465684 -0.173266
1.960588 -0.474678 -0.105719
1.927892 -0.468544 -0.531614
1.914367 -0.465611 -0.454851
1.936174 -0.471272 -0.387342
1.938450 -0.472185 -0.315998
1.947984 -0.474507 -0.246176
1.935704 -0.471874 -0.174311
1.955876 -0.477153 -0.105509
1.945836 -0.476503 -0.536791
1.921123 -0.470807 -0.456651
1.920094 -0.470910 -0.384289
1.941460 -0.476509 -0.316623
1.954864 -0.479799 -0.247151
1.946487 -0.478103 -0.175357
1.955040 -0.480566 -0.105509
1.929996 -0.476196 -0.532650
1.920298 -0.474159 -0.456651
1.942141 -0.479912 -0.388869
1.956050 -0.483349 -0.319126
1.957878 -0.484163 -0.247639
1.937914 -0.479585 -0.174660
1.960014 -0.485417 -0.105823
1.921663 -0.477700 -0.530579
1.932789 -0.480465 -0.459800
1.935669 -0.481540 -0.387724
1.939869 -0.482944 -0.316623
1.970513 -0.490939 -0.249345
1.931358 -0.481184 -0.174137
1.967001 -0.490428 -0.106242
1.932155 -0.483532 -0.533685
1.926276 -0.482418 -0.458450
1.929112 -0.483486 -0.386579
1.950519 -0.489213 -0.318501
1.952411 -0.489687 -0.247151
1.938245 -0.486494 -0.174834
1.964205 -0.493374 -0.106137
1.931308 -0.486903 -0.533685
1.925431 -0.485779 -0.458450
1.947301 -0.491658 -0.390395
1.942002 -0.490681 -0.317249
1.968874 -0.497471 -0.249345
1.939324 -0.490364 -0.175009
1.959468 -0.495822 -0.105928
1.941689 -0.493126 -0.536791
1.924581 -0.489139 -0.458450
1.944537 -0.494572 -0.390014
1.944971 -0.495044 -0.317875
1.950689 -0.496499 -0.247151
1.942327 -0.494732 -0.175357
1.966341 -0.501214 -0.106347
1.940826 -0.496514 -0.536791
1.935051 -0.495397 -0.461150
1.934162 -0.495529 -0.388106
1.955585 -0.501381 -0.319752
1.967126 -0.504340 -0.249345
1.939531 -0.497626 -0.175183
1.957726 -0.502659 -0.105928
1.938086 -0.499419 -0.536273
1.941732 -0.500720 -0.462949
1.950402 -0.503319 -0.391540
1.947056 -0.502818 -0.318501
1.972009 -0.509262 -0.250076
1.936730 -0.500512 -0.175009
1.966514 -0.508575 -0.106451
1.931601 -0.501345 -0.534720
1.937082 -0.503128 -0.462049
1.949521 -0.506722 -0.391540
1.946176 -0.506215 -0.318501
1.974959 -0.513702 -0.250563
1.939710 -0.504895 -0.175357
1.969489 -0.513013 -0.106661
1.938200 -0.506670 -0.536791
1.936201 -0.506508 -0.462049
1.958130 -0.512610 -0.393448
1.952933 -0.511614 -0.319752
1.975980 -0.517651 -0.250807
1.946535 -0.510301 -0.176055
1.960863 -0.514423 -0.106242
1.948522 -0.513003 -0.539897
1.935314 -0.509887 -0.462049
1.949639 -0.514025 -0.391922
1.952037 -0.515022 -0.319752
1.976993 -0.521606 -0.251051
1.949494 -0.514715 -0.176403
1.969617 -0.520395 -0.106765
1.943889 -0.515413 -0.538861
1.945723 -0.516263 -0.464749
1.950636 -0.517931 -0.392303
1.962590 -0.521471 -0.321629
1.964568 -0.521997 -0.249588
1.952444 -0.519140 -0.176752
1.972566 -0.524859 -0.106975
1.939253 -0.517808 -0.537826
1.946702 -0.520161 -0.465199
1.957316 -0.523363 -0.393830
1.957860 -0.523875 -0.321004
1.978996 -0.529530 -0.251538
1.939987 -0.519455 -0.175706
1.983222 -0.531403 -0.107603
1.942169 -0.521856 -0.538861
1.947764 -0.523724 -0.465649
1.962179 -0.527967 -0.394975
1.970387 -0.530545 -0.323194
1.981995 -0.533670 -0.252026
1.954559 -0.526649 -0.177100
1.970815 -0.531398 -0.106975
1.948714 -0.527263 -0.540932
1.946847 -0.527123 -0.465649
1.974519 -0.534985 -0.397646
1.963738 -0.532432 -0.322255
1.977229 -0.536090 -0.251538
1.953637 -0.530059 -0.177100
1.971811 -0.535360 -0.107079
1.955246 -0.532695 -0.543002
1.949684 -0.531545 -0.466549
1.969794 -0.537397 -0.396883
1.979957 -0.540541 -0.325071
1.983950 -0.541631 -0.252513
1.960397 -0.535568 -0.177798
1.980507 -0.541434 -0.107603
1.946862 -0.534062 -0.540932
1.956271 -0.537010 -0.468348
1.957494 -0.537714 -0.394593
1.977106 -0.543472 -0.324758
1.975345 -0.542988 -0.251538
1.959459 -0.538989 -0.177798
1.977633 -0.544360 -0.107498
1.953375 -0.539517 -0.543002
1.959087 -0.541462 -0.469248
1.956553 -0.541129 -0.394593
1.976250 -0.546577 -0.324758
1.985874 -0.549612 -0.253001
1.958515 -0.542408 -0.177798
1.990153 -0.551544 -0.108231
1.956153 -0.543960 -0.544038
1.961989 -0.545583 -0.470148
1.972723 -0.548939 -0.398028
1.973390 -0.549495 -0.324445
1.988736 -0.554143 -0.253488
1.961500 -0.546554 -0.178146
1.977741 -0.551451 -0.107603
1.955296 -0.547032 -0.544038
1.964787 -0.550057 -0.471048
1.988776 -0.557148 -0.401462
1.974330 -0.553472 -0.324758
1.993597 -0.558873 -0.254219
1.956706 -0.548900 -0.177798
1.978698 -0.555442 -0.107707
1.969214 -0.554634 -0.548179
1.960073 -0.552428 -0.470148
1.978353 -0.557953 -0.399554
1.977163 -0.557990 -0.325384
1.971604 -0.556421 -0.251538
1.967249 -0.555563 -0.178844
1.991180 -0.562696 -0.108440
1.968243 -0.558070 -0.548179
1.966604 -0.557976 -0.471947
1.969822 -0.559260 -0.398028
1.987587 -0.564679 -0.327261
1.993544 -0.566371 -0.254463
1.962444 -0.557906 -0.178495
1.988274 -0.565624 -0.108335
1.967266 -0.561504 -0.548179
1.973123 -0.563548 -0.473747
1.974506 -0.564316 -0.399172
1.979002 -0.565975 -0.326009
1.996369 -0.570942 -0.254951
1.961467 -0.561330 -0.178495
2.000724 -0.572943 -0.109068
1.964427 -0.564404 -0.547661
1.972136 -0.566991 -0.473747
1.981065 -0.569933 -0.400699
1.974214 -0.568335 -0.325384
2.008723 -0.578269 -0.256657
1.968142 -0.566959 -0.179192
1.992045 -0.574221 -0.108649
1.976429 -0.571588 -0.551285
1.963656 -0.568266 -0.471947
1.991382 -0.576666 -0.402989
1.982706 -0.574529 -0.326948
2.000084 -0.579564 -0.255682
1.974804 -0.572613 -0.179889
1.991040 -0.577697 -0.108649
1.969864 -0.573417 -0.549732
1.970145 -0.573872 -0.473747
1.982833 -0.577943 -0.401462
1.991182 -0.580754 -0.328512
2.004786 -0.584722 -0.256413
1.985277 -0.579408 -0.180935
1.997697 -0.583411 -0.109068
1.968860 -0.576854 -0.549732
1.978491 -0.580051 -0.475996
1.981821 -0.581403 -0.401462
1.990165 -0.584228 -0.328512
2.003763 -0.588220 -0.256413
1.976617 -0.580625 -0.180238
2.004340 -0.589149 -0.109487
1.964144 -0.579197 -0.548696
1.984951 -0.585709 -0.477796
1.986452 -0.586529 -0.402607
1.992931 -0.588820 -0.329138
2.016059 -0.595653 -0.258119
1.971779 -0.582945 -0.179889
2.012885 -0.595479 -0.110010
1.966835 -0.583723 -0.549732
1.978322 -0.587508 -0.476446
1.989189 -0.591113 -0.403370
1.988114 -0.591172 -0.328512
2.015017 -0.599171 -0.258119
1.974578 -0.587522 -0.180238
2.006100 -0.597282 -0.109696
1.976919 -0.590472 -0.552837
1.975427 -0.590402 -0.475996
1.997559 -0.597397 -0.405278
1.998434 -0.598038 -0.330390
2.010164 -0.601549 -0.257632
1.985001 -0.594396 -0.181284
1.997402 -0.598489 -0.109277
1.986986 -0.597259 -0.555943
1.974393 -0.593849 -0.475996
1.992754 -0.599751 -0.404515
1.993604 -0.600386 -0.329764
2.003409 -0.603339 -0.256901
1.999222 -0.602459 -0.182678
2.009739 -0.606011 -0.110010
1.982242 -0.599607 -0.554908
1.984545 -0.600681 -0.478696
1.984188 -0.600951 -0.402989
2.007783 -0.608098 -0.332267
2.015651 -0.610865 -0.258607
1.982914 -0.601322 -0.181284
2.012501 -0.610677 -0.110220
1.977497 -0.601941 -0.553873
1.991056 -0.606068 -0.480495
1.988876 -0.605784 -0.404133
2.002939 -0.610449 -0.331641
2.022177 -0.616698 -0.259582
1.989590 -0.606760 -0.181981
2.011539 -0.613838 -0.110220
1.980243 -0.606177 -0.554908
1.986268 -0.608401 -0.479596
1.997201 -0.612130 -0.406042
1.992428 -0.611048 -0.330077
2.030695 -0.622784 -0.260800
1.992338 -0.611401 -0.182330
2.014284 -0.618520 -0.110429
1.982875 -0.610770 -0.555943
1.981479 -0.610718 -0.478696
2.001757 -0.617351 -0.407186
2.008347 -0.619767 -0.332893
2.023915 -0.624571 -0.260069
1.998882 -0.617229 -0.183027
2.017017 -0.623214 -0.110638
1.992877 -0.617661 -0.559049
1.984133 -0.615330 -0.479596
1.991302 -0.617935 -0.405278
2.011035 -0.624443 -0.333518
2.019030 -0.626925 -0.259582
2.003510 -0.622490 -0.183550
2.019741 -0.627919 -0.110848
1.999173 -0.623439 -0.561120
1.994217 -0.622275 -0.482295
1.993968 -0.622579 -0.406042
2.017484 -0.630308 -0.334770
2.023617 -0.632224 -0.260313
1.998617 -0.624797 -0.183201
2.018642 -0.631443 -0.110848
1.998082 -0.626927 -0.561120
2.006143 -0.629841 -0.485444
2.000371 -0.628412 -0.407568
2.018265 -0.634421 -0.335083
2.022511 -0.635755 -0.260313
1.991822 -0.626491 -0.182678
2.034683 -0.640362 -0.111790
2.002511 -0.632158 -0.562673
1.997608 -0.630993 -0.483645
2.012375 -0.636044 -0.410239
2.003971 -0.633773 -0.332893
2.030861 -0.642277 -0.261532
2.005922 -0.634775 -0.184073
2.024042 -0.640898 -0.111266
2.003246 -0.636237 -0.563190
1.996503 -0.634479 -0.483645
2.015003 -0.640745 -0.411003
2.012274 -0.640264 -0.334457
2.037304 -0.648228 -0.262507
2.012405 -0.640693 -0.184770
2.015308 -0.642004 -0.110848
2.013174 -0.643260 -0.566296
2.000961 -0.639743 -0.484994
2.017622 -0.645458 -0.411766
2.024323 -0.647991 -0.336647
2.032388 -0.650573 -0.262019
2.022668 -0.647850 -0.185816
2.031302 -0.651007 -0.111790
2.012048 -0.646773 -0.566296
2.003552 -0.644428 -0.485894
2.003410 -0.644768 -0.409095
2.021308 -0.650917 -0.336334
2.027471 -0.652902 -0.261532
2.013949 -0.648935 -0.185119
2.035866 -0.656390 -0.112104
2.003564 -0.647906 -0.564226
2.013549 -0.651523 -0.488594
2.015356 -0.652497 -0.411766
2.020169 -0.654444 -0.336334
2.037659 -0.660110 -0.262994
2.007127 -0.650606 -0.184596
2.040416 -0.661791 -0.112418
2.009778 -0.653792 -0.566296
2.008703 -0.653830 -0.487694
2.029148 -0.660877 -0.414819
2.015382 -0.656393 -0.335708
2.047828 -0.667356 -0.264456
2.021142 -0.659050 -0.185990
2.029765 -0.662253 -0.111894
2.012306 -0.658501 -0.567331
2.011377 -0.658197 -0.488594
2.028108 -0.664063 -0.414819
2.021742 -0.662370 -0.336960
2.031569 -0.665982 -0.262507
2.012532 -0.659741 -0.185293
2.024926 -0.664196 -0.111685
2.022280 -0.665283 -0.570437
1.999119 -0.658050 -0.485894
2.019487 -0.665145 -0.413292
2.033716 -0.670225 -0.339150
2.038062 -0.671658 -0.263482
2.026515 -0.668244 -0.186688
2.037041 -0.672109 -0.112418
2.013780 -0.666384 -0.568367
2.010917 -0.665826 -0.489044
2.012732 -0.666817 -0.412147
2.038168 -0.675638 -0.340089
2.040656 -0.676463 -0.263969
2.013999 -0.668017 -0.185642
2.039656 -0.676922 -0.112627
2.012613 -0.669898 -0.568367
2.009752 -0.669335 -0.489044
2.015290 -0.671570 -0.412911
2.029490 -0.676695 -0.338837
2.047004 -0.682535 -0.264944
2.009050 -0.670270 -0.185293
2.047944 -0.683643 -0.113150
2.016937 -0.675249 -0.569920
2.012277 -0.674079 -0.489943
2.006669 -0.672591 -0.411384
2.024560 -0.678980 -0.338211
2.049574 -0.687369 -0.265431
2.022988 -0.678846 -0.186688
2.039174 -0.684673 -0.112732
2.023078 -0.681234 -0.571990
2.005557 -0.675724 -0.488594
2.007353 -0.676719 -0.411766
2.023372 -0.682513 -0.338211
2.031443 -0.685235 -0.263238
2.021800 -0.682376 -0.186688
2.036084 -0.687592 -0.112627
2.054822 -0.695919 -0.581308
2.015448 -0.682976 -0.491293
2.032198 -0.689047 -0.417108
2.027790 -0.687947 -0.339150
2.051901 -0.696926 -0.113569
1.757722 0.123221 -0.279079
1.751019 0.122443 -0.153568
1.738391 0.120037 -0.466910
1.747777 0.120377 -0.404462
1.731436 0.118949 -0.337350
1.738206 0.119109 -0.275950
1.750716 0.119967 -0.215465
1.729344 0.118198 -0.151651
1.751525 0.119407 -0.092007
1.732815 0.116613 -0.465357
1.728541 0.116022 -0.399963
1.729682 0.115795 -0.336969
1.746295 0.116601 -0.277202
1.744981 0.116513 -0.214734
1.741476 0.115974 -0.152697
1.749738 0.116218 -0.091902
1.733016 0.113588 -0.465357
1.726796 0.112878 -0.399513
1.725963 0.112521 -0.336205
1.742554 0.113297 -0.276576
1.749143 0.113726 -0.215221
1.723782 0.111774 -0.151128
1.749938 0.113164 -0.091902
1.721644 0.109825 -0.462251
1.734769 0.110359 -0.401313
1.735954 0.110130 -0.338114
1.742749 0.110255 -0.276576
1.753301 0.110923 -0.215709
1.725963 0.108891 -0.151302
1.760100 0.110737 -0.092425
1.721833 0.106821 -0.462251
1.729125 0.106969 -0.399963
1.738103 0.107220 -0.338495
1.740967 0.107093 -0.276263
1.761418 0.108351 -0.216684
1.732116 0.106244 -0.151825
1.752316 0.107176 -0.092007
1.737444 0.104745 -0.466392
1.717637 0.103250 -0.397264
1.742207 0.104422 -0.339258
1.745095 0.104289 -0.276889
1.763586 0.105394 -0.216927
1.732299 0.103221 -0.151825
1.746519 0.103762 -0.091693
1.733767 0.101487 -0.465357
1.729487 0.100933 -0.399963
1.736506 0.101039 -0.338114
1.749218 0.101472 -0.277515
1.749895 0.101511 -0.215221
1.736454 0.100428 -0.152174
1.752680 0.101059 -0.092007
1.737799 0.098680 -0.466392
1.725770 0.097695 -0.399063
1.734720 0.097897 -0.337732
1.749393 0.098419 -0.277515
1.754033 0.098680 -0.215709
1.738616 0.097509 -0.152348
1.758836 0.098335 -0.092321
1.726395 0.095009 -0.463286
1.739558 0.095430 -0.402213
1.738809 0.095083 -0.338495
1.745617 0.095150 -0.276889
1.758167 0.095834 -0.216196
1.732815 0.094150 -0.151825
1.760999 0.095372 -0.092425
1.722700 0.091791 -0.462251
1.735830 0.092186 -0.401313
1.746814 0.092464 -0.340022
1.737890 0.091688 -0.275638
1.772208 0.093499 -0.217902
1.730988 0.091020 -0.151651
1.761163 0.092299 -0.092425
1.730575 0.089181 -0.464321
1.718473 0.088257 -0.397264
1.748933 0.089516 -0.340403
1.745939 0.089057 -0.276889
1.758491 0.089697 -0.216196
1.741093 0.088505 -0.152523
1.761321 0.089225 -0.092425
1.742304 0.086737 -0.467427
1.736141 0.086127 -0.401313
1.743205 0.086172 -0.339258
1.746091 0.086009 -0.276889
1.754679 0.086432 -0.215709
1.753185 0.086051 -0.153568
1.757485 0.085956 -0.092216
1.734735 0.083325 -0.465357
1.738235 0.083190 -0.401763
1.735508 0.082756 -0.337732
1.748212 0.083055 -0.277202
1.758793 0.083558 -0.216196
1.741391 0.082427 -0.152523
1.773592 0.083641 -0.093053
1.734878 0.080297 -0.465357
1.748111 0.080605 -0.404012
1.749378 0.080357 -0.340403
1.750328 0.080094 -0.277515
1.768851 0.080942 -0.217415
1.735561 0.079116 -0.152000
1.777726 0.080726 -0.093263
1.731155 0.077098 -0.464321
1.732675 0.076862 -0.400413
1.747555 0.077217 -0.340022
1.744544 0.076779 -0.276576
1.772956 0.078030 -0.217902
1.743659 0.076435 -0.152697
1.761901 0.076926 -0.092425
1.733217 0.074159 -0.464839
1.740594 0.074170 -0.402213
1.745725 0.074084 -0.339640
1.740728 0.073567 -0.275950
1.759207 0.074348 -0.216196
1.749761 0.073643 -0.153220
1.762033 0.073850 -0.092425
1.741065 0.071451 -0.466910
1.725144 0.070495 -0.398613
1.749775 0.071196 -0.340403
1.752684 0.071315 -0.277828
1.759334 0.071278 -0.216196
1.753869 0.070749 -0.153568
1.768146 0.071017 -0.092739
1.733465 0.068108 -0.464839
1.731094 0.068015 -0.399963
1.732229 0.067757 -0.336969
1.758728 0.068486 -0.278766
1.765406 0.068437 -0.216927
1.744023 0.067608 -0.152697
1.768255 0.068239 -0.092739
1.731640 0.065312 -0.464321
1.740947 0.065359 -0.402213
1.736268 0.064881 -0.337732
1.750949 0.065122 -0.277515
1.771463 0.065885 -0.217659
1.746130 0.064638 -0.152871
1.774359 0.065374 -0.093053
1.729820 0.062220 -0.463804
1.735216 0.062112 -0.400863
1.738341 0.061919 -0.338114
1.743163 0.061787 -0.276263
1.773559 0.062864 -0.217902
1.746240 0.061591 -0.152871
1.774471 0.062276 -0.093053
1.733788 0.059334 -0.464839
1.729479 0.058884 -0.399513
1.740409 0.058952 -0.338495
1.755114 0.059143 -0.278141
1.765730 0.059501 -0.216927
1.754310 0.058810 -0.153568
1.766592 0.058913 -0.092635
1.737750 0.056433 -0.465874
1.737370 0.056117 -0.401313
1.738547 0.055851 -0.338114
1.755214 0.056080 -0.278141
1.771783 0.056610 -0.217659
1.762375 0.056001 -0.154266
1.772681 0.056018 -0.092949
1.735915 0.053341 -0.465357
1.739413 0.053144 -0.401763
1.734717 0.052698 -0.337350
1.759258 0.053136 -0.278766
1.757990 0.053098 -0.215953
1.746538 0.052446 -0.152871
1.782758 0.053223 -0.093472
1.732144 0.050198 -0.464321
1.747295 0.050332 -0.403562
1.748543 0.050064 -0.340022
1.751450 0.049840 -0.277515
1.773955 0.050481 -0.217902
1.746627 0.049398 -0.152871
1.782848 0.050112 -0.093472
1.739953 0.047386 -0.466392
1.741536 0.047125 -0.402213
1.752553 0.047117 -0.340785
1.747585 0.046678 -0.276889
1.778009 0.047491 -0.218390
1.752686 0.046508 -0.153394
1.778940 0.046894 -0.093263
1.740033 0.044349 -0.466392
1.735772 0.043937 -0.400863
1.742819 0.043811 -0.338877
1.755563 0.043825 -0.278141
1.776104 0.044338 -0.218146
1.754756 0.043499 -0.153568
1.773029 0.043642 -0.092949
1.743971 0.041404 -0.467427
1.745587 0.041138 -0.403112
1.742893 0.040769 -0.338877
1.759586 0.040853 -0.278766
1.764272 0.040962 -0.216684
1.768772 0.040757 -0.154789
1.777096 0.040638 -0.093158
1.736315 0.038190 -0.465357
1.749552 0.038175 -0.404012
1.729222 0.037431 -0.336205
1.759655 0.037781 -0.278766
1.770294 0.038010 -0.217415
1.758881 0.037457 -0.153917
1.789145 0.037790 -0.093786
1.736379 0.035159 -0.465357
1.747668 0.035083 -0.403562
1.741062 0.034646 -0.338495
1.755762 0.034939 -0.278141
1.780282 0.035116 -0.218634
1.750976 0.034232 -0.153220
1.785215 0.034590 -0.093577
1.736438 0.032129 -0.465357
1.741876 0.032229 -0.402213
1.748966 0.032055 -0.340022
1.755821 0.031874 -0.278141
1.794234 0.032259 -0.220340
1.755012 0.031553 -0.153568
1.779276 0.031679 -0.093263
1.746144 0.029565 -0.467945
1.739981 0.029157 -0.401763
1.754908 0.029101 -0.341166
1.757849 0.028842 -0.278453
1.768479 0.029017 -0.217171
1.767017 0.028684 -0.154614
1.781325 0.028606 -0.093367
1.750056 0.026575 -0.468980
1.741978 0.026149 -0.402213
1.747104 0.025921 -0.339640
1.757896 0.025774 -0.278453
1.782421 0.026133 -0.218877
1.771048 0.025658 -0.154963
1.789361 0.025610 -0.093786
1.744305 0.023444 -0.467427
1.753712 0.023263 -0.404912
1.745184 0.022846 -0.339258
1.765840 0.022809 -0.279705
1.770555 0.022870 -0.217415
1.755153 0.022363 -0.153568
1.787406 0.022462 -0.093681
1.742411 0.020376 -0.466910
1.763493 0.020315 -0.407161
1.749147 0.019844 -0.340022
1.765877 0.019726 -0.279705
1.786472 0.019956 -0.219365
1.753197 0.019278 -0.153394
1.799425 0.019473 -0.094309
1.748239 0.017393 -0.468462
1.749885 0.017104 -0.404012
1.757032 0.016867 -0.341548
1.754057 0.016532 -0.277828
1.778564 0.016763 -0.218390
1.765182 0.016328 -0.154440
1.787473 0.016223 -0.093681
1.755994 0.014404 -0.470533
1.744066 0.014003 -0.402662
1.759022 0.013816 -0.341930
1.761984 0.013531 -0.279079
1.782560 0.013689 -0.218877
1.767200 0.013264 -0.154614
1.785502 0.013089 -0.093577
1.759880 0.011365 -0.471568
1.747985 0.010984 -0.403562
1.751190 0.010697 -0.340403
1.765956 0.010479 -0.279705
1.774641 0.010531 -0.217902
1.775190 0.010225 -0.155312
1.785522 0.009972 -0.093577
1.750238 0.008249 -0.468980
1.755797 0.007968 -0.405362
1.761022 0.007684 -0.342311
1.771897 0.007423 -0.280643
1.784582 0.007476 -0.219121
1.771220 0.007110 -0.154963
1.795523 0.006894 -0.094100
1.748318 0.005188 -0.468462
1.763603 0.004925 -0.407161
1.753180 0.004589 -0.340785
1.769932 0.004325 -0.280331
1.792533 0.004380 -0.220096
1.761268 0.003996 -0.154091
1.803521 0.003777 -0.094519
1.752188 0.002141 -0.469498
1.763609 0.001846 -0.407161
1.759075 0.001536 -0.341930
1.769937 0.001236 -0.280331
1.798493 0.001256 -0.220827
1.769242 0.000926 -0.154789
1.791541 0.000626 -0.093891
1.754121 -0.000918 -0.470015
1.755814 -0.001226 -0.405362
1.761039 -0.001537 -0.342311
1.762035 -0.001845 -0.279079
1.774672 -0.001858 -0.217902
1.773225 -0.002166 -0.155137
1.791540 -0.002501 -0.093891
1.763776 -0.004002 -0.472604
1.753861 -0.004285 -0.404912
1.759070 -0.004605 -0.341930
1.769931 -0.004943 -0.280331
1.782606 -0.004978 -0.218877
1.775211 -0.005267 -0.155312
1.803516 -0.005666 -0.094519
1.759903 -0.007065 -0.471568
1.757748 -0.007363 -0.405812
1.757096 -0.007667 -0.341548
1.773870 -0.008050 -0.280956
1.786565 -0.008107 -0.219365
1.773207 -0.008356 -0.155137
1.795514 -0.008775 -0.094100
1.752160 -0.010092 -0.469498
1.765528 -0.010477 -0.407611
1.764933 -0.010781 -0.343075
1.777804 -0.011170 -0.281582
1.794488 -0.011275 -0.220340
1.765220 -0.011399 -0.154440
1.811474 -0.012014 -0.094937
1.754072 -0.013164 -0.470015
1.757712 -0.013499 -0.405812
1.762948 -0.013846 -0.342693
1.765930 -0.014178 -0.279705
1.778585 -0.014280 -0.218390
1.775159 -0.014562 -0.155312
1.805459 -0.015126 -0.094623
1.761773 -0.016297 -0.472086
1.755737 -0.016548 -0.405362
1.760958 -0.016905 -0.342311
1.771828 -0.017318 -0.280643
1.796423 -0.017559 -0.220584
1.773139 -0.017640 -0.155137
1.781464 -0.018034 -0.093367
1.769469 -0.019457 -0.474157
1.767397 -0.019743 -0.408061
1.772705 -0.020112 -0.344601
1.773771 -0.020433 -0.280956
1.778525 -0.020488 -0.218390
1.781074 -0.020828 -0.155834
1.803398 -0.021404 -0.094519
1.755911 -0.022373 -0.470533
1.763463 -0.022777 -0.407161
1.753036 -0.022948 -0.340785
1.785583 -0.023686 -0.282834
1.798335 -0.023855 -0.220827
1.775059 -0.023857 -0.155312
1.811346 -0.024660 -0.094937
1.759732 -0.025494 -0.471568
1.773163 -0.025998 -0.409411
1.758882 -0.026095 -0.341930
1.773693 -0.026315 -0.280956
1.786382 -0.026815 -0.219365
1.775014 -0.026955 -0.155312
1.815294 -0.027883 -0.095147
1.765480 -0.028659 -0.473121
1.769223 -0.028720 -0.408511
1.768654 -0.029019 -0.343838
1.777595 -0.029476 -0.281582
1.794272 -0.030066 -0.220340
1.776962 -0.029776 -0.155486
1.791285 -0.030329 -0.093891
1.765433 -0.031432 -0.473121
1.757480 -0.031597 -0.405812
1.768601 -0.032106 -0.343838
1.777541 -0.032579 -0.281582
1.798192 -0.032957 -0.220827
1.782883 -0.032988 -0.156009
1.799217 -0.033604 -0.094309
1.773101 -0.034664 -0.475192
1.773009 -0.034972 -0.409411
1.766579 -0.035154 -0.343456
1.785381 -0.035840 -0.282834
1.784239 -0.035817 -0.219121
1.792783 -0.036301 -0.156880
1.817127 -0.037112 -0.095251
1.765312 -0.037595 -0.473121
1.772945 -0.038067 -0.409411
1.768478 -0.038280 -0.343838
1.785316 -0.038956 -0.282834
1.806004 -0.039407 -0.221802
1.784749 -0.039255 -0.156183
1.797092 -0.039840 -0.094205
1.765244 -0.040675 -0.473121
1.782617 -0.041387 -0.411660
1.762520 -0.041228 -0.342693
1.781295 -0.041979 -0.282208
1.788072 -0.042138 -0.219609
1.774719 -0.042133 -0.155312
1.807003 -0.043215 -0.094728
1.765170 -0.043756 -0.473121
1.776698 -0.044352 -0.410311
1.764408 -0.044354 -0.343075
1.777270 -0.044987 -0.281582
1.813794 -0.045912 -0.222777
1.784601 -0.045485 -0.156183
1.808921 -0.046420 -0.094833
1.776678 -0.047145 -0.476227
1.772721 -0.047349 -0.409411
1.785916 -0.048014 -0.347272
1.785087 -0.048303 -0.282834
1.791883 -0.048487 -0.220096
1.794478 -0.048871 -0.157055
1.814827 -0.049742 -0.095147
1.784317 -0.050464 -0.478298
1.774584 -0.050499 -0.409861
1.768168 -0.050625 -0.343838
1.785000 -0.051419 -0.282834
1.803701 -0.051957 -0.221558
1.792398 -0.051945 -0.156880
1.816734 -0.052967 -0.095251
1.776503 -0.053346 -0.476227
1.780337 -0.053772 -0.411211
1.770039 -0.053770 -0.344219
1.788857 -0.054655 -0.283459
1.783766 -0.054499 -0.219121
1.790313 -0.055012 -0.156706
1.814642 -0.056076 -0.095147
1.764822 -0.056078 -0.473121
1.780240 -0.056879 -0.411211
1.779754 -0.057175 -0.346128
1.792707 -0.057904 -0.284085
1.813429 -0.058573 -0.222777
1.788223 -0.058072 -0.156532
1.820530 -0.059439 -0.095461
1.770514 -0.059353 -0.474674
1.789876 -0.060315 -0.413460
1.777689 -0.060214 -0.345746
1.780758 -0.060630 -0.282208
1.795468 -0.061130 -0.220584
1.794093 -0.061397 -0.157055
1.814435 -0.062410 -0.095147
1.778130 -0.062715 -0.476745
1.778083 -0.063024 -0.410761
1.789353 -0.063736 -0.348036
1.788557 -0.063708 -0.283459
1.807262 -0.064690 -0.222046
1.790001 -0.064385 -0.156706
1.814324 -0.065577 -0.095147
1.781879 -0.065961 -0.477780
1.770192 -0.065529 -0.408961
1.783365 -0.066328 -0.346891
1.792391 -0.066977 -0.284085
1.787309 -0.067100 -0.219609
1.801843 -0.067645 -0.157752
1.816214 -0.068502 -0.095251
1.779842 -0.068686 -0.477262
1.781759 -0.069071 -0.411660
1.771476 -0.068982 -0.344601
1.794245 -0.070182 -0.284398
1.816955 -0.071071 -0.223265
1.795750 -0.070555 -0.157229
1.818088 -0.071751 -0.095356
1.770069 -0.071403 -0.474674
1.795266 -0.072733 -0.414810
1.779200 -0.072393 -0.346128
1.796094 -0.073395 -0.284711
1.798977 -0.073512 -0.221071
1.791642 -0.073526 -0.156880
1.829933 -0.075417 -0.095984
1.777662 -0.074817 -0.476745
1.783454 -0.075373 -0.412110
1.788878 -0.075915 -0.348036
1.788069 -0.076193 -0.283459
1.826612 -0.077835 -0.224483
1.793502 -0.076738 -0.157055
1.821817 -0.078268 -0.095565
1.781389 -0.078089 -0.477780
1.777479 -0.078228 -0.410761
1.796588 -0.079383 -0.349562
1.791880 -0.079489 -0.284085
1.800693 -0.079880 -0.221315
1.801327 -0.080223 -0.157752
1.813697 -0.081091 -0.095147
1.792829 -0.081725 -0.480886
1.785127 -0.081687 -0.412560
1.792524 -0.082339 -0.348799
1.799632 -0.082980 -0.285336
1.818398 -0.083845 -0.223508
1.811136 -0.083827 -0.158623
1.823528 -0.084720 -0.095670
1.786894 -0.084580 -0.479333
1.790821 -0.085079 -0.413910
1.776690 -0.084719 -0.345746
1.799484 -0.086121 -0.285336
1.802386 -0.086260 -0.221558
1.787105 -0.085841 -0.156532
1.825372 -0.087998 -0.095775
1.779026 -0.087320 -0.477262
1.794563 -0.088397 -0.414810
1.796148 -0.088789 -0.349562
1.799331 -0.089261 -0.285336
1.822059 -0.090389 -0.223996
1.796903 -0.089455 -0.157403
1.829205 -0.091383 -0.095984
1.784659 -0.090719 -0.478815
1.790513 -0.091330 -0.413910
1.794029 -0.091823 -0.349180
1.799173 -0.092401 -0.285336
1.811986 -0.093060 -0.222777
1.800723 -0.092796 -0.157752
1.827048 -0.094473 -0.095879
1.788356 -0.094037 -0.479851
1.788405 -0.094352 -0.413460
1.809551 -0.095785 -0.352233
1.791118 -0.095122 -0.284085
1.825697 -0.096959 -0.224483
1.804538 -0.096151 -0.158101
1.826881 -0.097661 -0.095879
1.797834 -0.097682 -0.482439
1.794075 -0.097792 -0.414810
1.789777 -0.097871 -0.348417
1.800811 -0.098789 -0.285649
1.803722 -0.098949 -0.221802
1.814314 -0.099848 -0.158972
1.828702 -0.100960 -0.095984
1.793803 -0.100603 -0.481403
1.790010 -0.100704 -0.413910
1.791564 -0.101105 -0.348799
1.808525 -0.102379 -0.286901
1.829311 -0.103556 -0.224971
1.792256 -0.101772 -0.157055
