# This PCD file was generated using the MATLAB® pcwrite function
# from Computer Vision System Toolbox®.
# .PCD v.7 - Point Cloud Data file format
VERSION .7
FIELDS x y z
SIZE 4 4 4
TYPE F F F
COUNT 1 1 1
WIDTH 1651
HEIGHT 1
VIEWPOINT 0 0 0 1 0 0 0
POINTS 1651
DATA ascii
2.005261 -0.784239 -0.341027
2.016972 -0.788819 -0.265919
2.014971 -0.788442 -0.189302
2.053235 -0.803827 -0.115558
2.055599 -0.805167 -0.038535
1.949349 -0.765119 -0.561120
2.075512 -0.814638 0.038919
1.977139 -0.776425 -0.490393
1.984419 -0.779684 -0.414437
2.000212 -0.786292 -0.340401
2.019287 -0.793790 -0.266406
2.009884 -0.790499 -0.188954
2.062980 -0.811798 -0.116186
2.065354 -0.813148 -0.038744
1.955199 -0.771356 -0.563190
2.064786 -0.814590 0.038744
1.961280 -0.774151 -0.486794
1.981229 -0.782425 -0.414056
2.000674 -0.790508 -0.340714
2.021591 -0.798772 -0.266894
2.012207 -0.795471 -0.189302
2.035558 -0.805113 -0.114720
2.065792 -0.817488 -0.038779
1.964625 -0.779040 -0.566296
2.074515 -0.822615 0.038954
1.959926 -0.777573 -0.486794
1.988984 -0.789503 -0.415964
1.992086 -0.790734 -0.339463
2.014659 -0.800101 -0.266163
2.010815 -0.798981 -0.189302
2.045286 -0.813091 -0.115348
2.064362 -0.821092 -0.038779
1.959673 -0.781037 -0.565261
2.078649 -0.828456 0.039058
1.965943 -0.783536 -0.488594
1.982271 -0.790445 -0.414819
1.996207 -0.796406 -0.340401
2.011416 -0.802881 -0.265919
2.020660 -0.806571 -0.190348
2.047716 -0.817784 -0.115558
2.061212 -0.823592 -0.038744
1.956650 -0.783397 -0.564743
2.079201 -0.832463 0.039093
1.968191 -0.788416 -0.489493
1.977244 -0.792443 -0.414056
2.002147 -0.802829 -0.341653
2.019365 -0.809733 -0.267138
2.011853 -0.807129 -0.189651
2.055553 -0.825077 -0.116081
2.057916 -0.826443 -0.038709
1.958864 -0.788253 -0.565778
2.074035 -0.834598 0.039024
1.972235 -0.794033 -0.490843
1.975858 -0.795892 -0.414056
1.993415 -0.803369 -0.340401
2.012425 -0.811030 -0.266406
2.008593 -0.809894 -0.189477
2.050405 -0.827169 -0.115872
2.060179 -0.831530 -0.038779
1.953904 -0.790222 -0.564743
2.061452 -0.833718 0.038814
1.972652 -0.798205 -0.491293
1.985384 -0.803760 -0.416345
1.988348 -0.805364 -0.339776
2.023885 -0.819758 -0.268113
2.009023 -0.814146 -0.189651
2.043406 -0.828495 -0.115558
2.058725 -0.835125 -0.038779
1.963259 -0.797995 -0.567849
2.074814 -0.843338 0.039093
1.962230 -0.797976 -0.489044
1.987615 -0.808704 -0.417108
1.996087 -0.812557 -0.341340
2.009582 -0.818050 -0.266406
2.011290 -0.819155 -0.190000
2.043806 -0.832814 -0.115662
2.062819 -0.840981 -0.038884
1.965440 -0.802882 -0.568884
2.071488 -0.846202 0.039058
1.964442 -0.802874 -0.489943
1.982567 -0.810685 -0.416345
1.992838 -0.815291 -0.341027
2.026524 -0.829073 -0.268844
2.015389 -0.824928 -0.190522
2.051591 -0.840164 -0.116186
2.053947 -0.841547 -0.038744
1.958675 -0.804110 -0.567331
2.077407 -0.852854 0.039198
1.963038 -0.806302 -0.489943
1.972069 -0.810413 -0.414437
1.995065 -0.820271 -0.341653
2.010386 -0.826569 -0.266894
2.006576 -0.825412 -0.189825
2.027958 -0.834622 -0.114930
2.059871 -0.848177 -0.038884
1.955482 -0.806790 -0.566814
2.081461 -0.858766 0.039303
1.977840 -0.816418 -0.493993
1.976096 -0.816102 -0.415582
1.997282 -0.825260 -0.342279
2.036460 -0.841448 -0.270550
1.997767 -0.825869 -0.189128
2.052337 -0.848847 -0.116395
2.065779 -0.854829 -0.039024
1.954072 -0.810202 -0.566814
2.089195 -0.866227 0.039477
1.965611 -0.815389 -0.491293
1.981921 -0.822560 -0.417108
1.979420 -0.821927 -0.339463
2.020322 -0.838911 -0.268600
2.007362 -0.833940 -0.190174
2.039787 -0.847828 -0.115767
2.064284 -0.858433 -0.039024
1.956221 -0.815097 -0.567849
1.956991 -0.815819 -0.489493
1.978670 -0.825262 -0.416727
1.981628 -0.826902 -0.340089
2.009694 -0.838613 -0.267381
2.009581 -0.838978 -0.190522
2.043833 -0.853697 -0.116081
2.066472 -0.863577 -0.039093
1.961923 -0.821495 -0.569920
1.957361 -0.819986 -0.489943
1.968174 -0.824920 -0.414819
1.992934 -0.835706 -0.342279
2.021042 -0.847493 -0.269088
2.008113 -0.842484 -0.190522
2.038656 -0.855716 -0.115872
2.061275 -0.865633 -0.039024
1.958706 -0.824169 -0.569402
1.963111 -0.826426 -0.491743
1.968541 -0.829116 -0.415200
1.995113 -0.840718 -0.342904
2.010413 -0.847165 -0.267869
2.006640 -0.845987 -0.190522
2.042681 -0.861602 -0.116186
2.056076 -0.867675 -0.038954
1.957264 -0.827586 -0.569402
1.970640 -0.833647 -0.493993
1.972514 -0.834846 -0.416345
1.990004 -0.842658 -0.342279
2.007104 -0.849899 -0.267625
2.001491 -0.847934 -0.190174
2.050368 -0.869063 -0.116709
2.058240 -0.872823 -0.039024
1.950483 -0.828734 -0.567849
1.963801 -0.834798 -0.492643
1.978281 -0.841361 -0.417872
1.986861 -0.845010 -0.341966
2.011097 -0.855732 -0.268356
2.005508 -0.853767 -0.190697
2.037823 -0.867944 -0.116081
2.062233 -0.878766 -0.039128
1.957917 -0.835930 -0.570437
1.971449 -0.841708 -0.494892
1.978763 -0.845239 -0.418253
1.987199 -0.849252 -0.342279
2.002299 -0.856119 -0.267381
2.004164 -0.856916 -0.190697
2.038293 -0.871930 -0.116186
2.060850 -0.882004 -0.039128
1.963703 -0.842050 -0.572508
1.961022 -0.841306 -0.492643
1.973676 -0.847142 -0.417490
1.992974 -0.855837 -0.343530
2.000952 -0.859263 -0.267381
2.008157 -0.862772 -0.191220
2.042273 -0.877852 -0.116500
2.059307 -0.885600 -0.039128
1.956908 -0.843183 -0.570955
1.959551 -0.844727 -0.492643
1.963181 -0.846698 -0.415582
1.993291 -0.860097 -0.343843
1.999449 -0.862754 -0.267381
1.999331 -0.863117 -0.190522
2.035237 -0.879039 -0.116186
2.052252 -0.886813 -0.039024
1.951888 -0.845062 -0.569920
1.975956 -0.855891 -0.497142
1.972508 -0.854807 -0.417872
1.989975 -0.862789 -0.343530
2.008868 -0.870981 -0.268844
1.997822 -0.866605 -0.190522
2.052022 -0.890541 -0.117233
2.058038 -0.893579 -0.039163
1.950410 -0.848467 -0.569920
1.963738 -0.854673 -0.494442
1.972813 -0.859032 -0.418253
1.983033 -0.863894 -0.342592
2.012805 -0.876864 -0.269575
1.999959 -0.871683 -0.190871
2.037649 -0.888533 -0.116500
2.060141 -0.898769 -0.039233
1.959547 -0.856512 -0.573025
1.951530 -0.853414 -0.491743
1.976707 -0.864835 -0.419398
1.986951 -0.869730 -0.343530
2.000360 -0.875600 -0.268113
2.003910 -0.877570 -0.191394
2.037924 -0.892890 -0.116605
2.065895 -0.905575 -0.039373
1.965124 -0.863038 -0.575096
1.957174 -0.859954 -0.493543
1.971600 -0.866703 -0.418635
1.981814 -0.871606 -0.342904
2.018817 -0.887880 -0.270794
1.998728 -0.879462 -0.191045
2.040019 -0.898055 -0.116814
2.055161 -0.905149 -0.039198
1.953010 -0.861787 -0.571990
1.971715 -0.870452 -0.497592
1.970084 -0.870143 -0.418635
1.996551 -0.882249 -0.345720
2.006370 -0.886588 -0.269331
2.000835 -0.884560 -0.191394
2.045754 -0.904845 -0.117233
2.049921 -0.907116 -0.039128
1.944439 -0.862063 -0.569920
1.954160 -0.866781 -0.493543
1.966768 -0.872784 -0.418253
1.982370 -0.880122 -0.343530
2.001191 -0.888478 -0.268844
1.995646 -0.886433 -0.191045
2.029571 -0.901926 -0.116395
2.051989 -0.912317 -0.039198
1.949990 -0.868599 -0.571990
1.972225 -0.878916 -0.498492
1.972414 -0.879413 -0.419780
1.982635 -0.884385 -0.343843
2.028644 -0.904908 -0.272744
1.994096 -0.889915 -0.191045
2.042583 -0.911981 -0.117233
2.054045 -0.917528 -0.039268
1.951998 -0.873580 -0.573025
1.949344 -0.872801 -0.493093
1.990585 -0.891683 -0.423978
1.982891 -0.888652 -0.344156
1.998078 -0.895458 -0.268844
1.997994 -0.895839 -0.191568
2.011832 -0.902465 -0.115558
2.059738 -0.924387 -0.039408
1.957518 -0.880154 -0.575096
1.969145 -0.885795 -0.498492
1.985445 -0.893544 -0.423214
1.983138 -0.892922 -0.344469
2.023663 -0.911169 -0.272500
2.003693 -0.902598 -0.192266
2.039388 -0.919105 -0.117233
2.045361 -0.922227 -0.039163
1.952458 -0.881979 -0.574061
1.949838 -0.881205 -0.493993
1.978516 -0.894582 -0.422070
1.992375 -0.901267 -0.346346
1.998557 -0.904063 -0.269331
1.994855 -0.902808 -0.191568
2.046877 -0.926782 -0.117756
2.045569 -0.926620 -0.039198
1.943879 -0.882192 -0.571990
1.978461 -0.898303 -0.501641
1.976952 -0.898034 -0.422070
1.981807 -0.900656 -0.344782
2.004205 -0.910835 -0.270306
1.996903 -0.907937 -0.191917
2.023441 -0.920430 -0.116500
2.045769 -0.931017 -0.039233
1.952883 -0.890392 -0.575096
1.952069 -0.890432 -0.495342
1.980739 -0.903928 -0.423214
1.978435 -0.903293 -0.344469
2.002612 -0.914332 -0.270306
1.998940 -0.913077 -0.192266
2.038181 -0.931431 -0.117442
2.049597 -0.937081 -0.039338
1.951326 -0.893799 -0.575096
1.957598 -0.897085 -0.497142
1.984513 -0.909838 -0.424359
1.980447 -0.908392 -0.345094
1.993796 -0.914515 -0.269331
1.995532 -0.915733 -0.192091
2.018401 -0.926654 -0.116395
2.053410 -0.943161 -0.039442
1.953273 -0.898818 -0.576131
1.947178 -0.896426 -0.494892
1.981138 -0.912479 -0.423978
1.980653 -0.912674 -0.345407
1.994000 -0.918825 -0.269575
2.006597 -0.925054 -0.193311
2.036730 -0.939377 -0.117547
2.044498 -0.943392 -0.039303
1.951701 -0.902226 -0.576131
1.966836 -0.909639 -0.500291
1.974198 -0.913462 -0.422833
1.984595 -0.918273 -0.346346
1.994194 -0.923137 -0.269819
1.995940 -0.924368 -0.192440
2.018778 -0.935373 -0.116605
2.039220 -0.945277 -0.039233
1.943115 -0.902376 -0.574061
1.958335 -0.909444 -0.498492
1.969199 -0.914908 -0.422070
1.977615 -0.919237 -0.345407
1.994380 -0.927453 -0.270062
1.996292 -0.928342 -0.192614
2.040848 -0.949495 -0.117965
2.046797 -0.952698 -0.039408
1.948699 -0.908693 -0.576131
1.963809 -0.916156 -0.500291
1.985390 -0.926646 -0.425886
1.974218 -0.921852 -0.345094
2.001751 -0.935134 -0.271281
1.991058 -0.930139 -0.192266
2.037378 -0.952210 -0.117861
2.041508 -0.954575 -0.039338
1.950449 -0.914072 -0.577166
1.960442 -0.918755 -0.499841
1.981992 -0.929277 -0.425504
1.977971 -0.927813 -0.346033
1.996522 -0.936939 -0.270794
1.992876 -0.935653 -0.192614
2.024699 -0.951025 -0.117233
2.055960 -0.966147 -0.039652
1.955842 -0.920766 -0.579237
1.953385 -0.920026 -0.498492
1.978428 -0.932243 -0.425122
1.987070 -0.936315 -0.347910
1.994884 -0.940423 -0.270794
1.998448 -0.942529 -0.193311
2.028455 -0.957114 -0.117547
2.037996 -0.962051 -0.039338
1.947246 -0.920875 -0.577166
1.967793 -0.930592 -0.502541
1.973412 -0.933671 -0.424359
1.997931 -0.945698 -0.350100
1.989651 -0.942204 -0.270306
1.993363 -0.943962 -0.192963
2.021534 -0.957734 -0.117233
2.045517 -0.969534 -0.039512
1.942307 -0.922275 -0.576131
1.955604 -0.929008 -0.499841
1.971780 -0.937113 -0.424359
1.989142 -0.945791 -0.348849
2.000718 -0.951295 -0.272012
1.988114 -0.945728 -0.192614
2.025270 -0.963836 -0.117547
1.947669 -0.928991 -0.578202
1.968050 -0.939133 -0.503440
1.975456 -0.943091 -0.425504
1.980358 -0.945855 -0.347597
2.000846 -0.955641 -0.272256
1.986461 -0.949196 -0.192614
2.019981 -0.965646 -0.117337
1.949529 -0.934058 -0.579237
1.947078 -0.933301 -0.498492
1.977347 -0.948235 -0.426267
1.985828 -0.952728 -0.348849
2.013493 -0.966001 -0.274206
1.991986 -0.956110 -0.193311
2.007490 -0.963983 -0.116709
1.951378 -0.939135 -0.580272
1.954225 -0.940925 -0.500741
1.980996 -0.954241 -0.427412
1.987722 -0.957908 -0.349475
1.983192 -0.955725 -0.270306
2.001082 -0.964777 -0.194357
2.043582 -0.985707 -0.118907
1.949736 -0.942539 -0.580272
1.963106 -0.949425 -0.503440
1.963422 -0.950001 -0.423978
1.993159 -0.964818 -0.350726
1.995815 -0.966104 -0.272256
1.997602 -0.967400 -0.194183
2.029277 -0.983176 -0.118175
1.944612 -0.944253 -0.579237
1.964952 -0.954553 -0.504340
1.977653 -0.961150 -0.427412
1.984366 -0.964841 -0.349475
2.013763 -0.979134 -0.274937
1.981578 -0.963912 -0.192788
2.043720 -0.994582 -0.119117
1.942961 -0.947645 -0.579237
1.959780 -0.956272 -0.503440
1.974208 -0.963739 -0.427031
1.986229 -0.970036 -0.350100
1.995998 -0.974807 -0.272744
1.988843 -0.971743 -0.193660
2.016860 -0.985868 -0.117651
1.944774 -0.952735 -0.580272
1.954608 -0.957976 -0.502541
1.979574 -0.970640 -0.428557
1.980986 -0.971761 -0.349475
2.006769 -0.984409 -0.274450
1.994298 -0.978724 -0.194357
2.038444 -1.000830 -0.119012
1.950041 -0.959539 -0.582343
1.958178 -0.963968 -0.503890
1.970832 -0.970624 -0.427031
1.986374 -0.978710 -0.350726
1.985460 -0.978259 -0.271769
1.996161 -0.983965 -0.194706
2.016989 -0.994669 -0.117861
1.944900 -0.961229 -0.581308
1.959987 -0.969111 -0.504790
1.969135 -0.974062 -0.427031
1.995286 -0.987432 -0.352603
1.999762 -0.989647 -0.273962
1.990870 -0.985679 -0.194357
2.042096 -1.011485 -0.119431
1.932837 -0.959469 -0.578202
1.961783 -0.974264 -0.505690
1.974464 -0.980992 -0.428557
1.982946 -0.985637 -0.350726
2.005142 -0.996670 -0.274937
1.985578 -0.987378 -0.194009
2.029599 -1.009710 -0.118803
1.936346 -0.965427 -0.579755
1.953104 -0.974207 -0.503890
1.979776 -0.987943 -0.430084
1.977688 -0.987332 -0.350100
2.012280 -1.004601 -0.276156
1.987417 -0.992622 -0.194357
2.017114 -1.007895 -0.118175
1.954885 -0.979360 -0.504790
1.972783 -0.988758 -0.428939
1.979667 -0.992208 -0.350726
2.001651 -1.003663 -0.274937
1.991024 -0.998770 -0.194880
2.011781 -1.009622 -0.117965
1.953345 -0.982430 -0.504790
1.971228 -0.991855 -0.428939
1.984990 -0.999214 -0.351978
1.999896 -1.007155 -0.274937
2.007248 -1.010857 -0.196623
2.013760 -1.014578 -0.118175
1.955106 -0.987595 -0.505690
1.964237 -0.992638 -0.427794
1.993820 -1.008025 -0.353855
1.998312 -1.010295 -0.274937
1.989479 -1.006266 -0.195055
2.019114 -1.021698 -0.118593
1.960331 -0.994533 -0.507490
1.973006 -1.001396 -0.430084
1.985012 -1.007926 -0.352603
2.008935 -1.020073 -0.276643
1.989496 -1.010639 -0.195229
2.044036 -1.038794 -0.120163
1.951647 -0.994414 -0.505690
1.973004 -1.005729 -0.430465
1.981490 -1.010491 -0.352290
2.005383 -1.022676 -0.276400
1.994828 -1.017732 -0.195926
2.017315 -1.029648 -0.118698
1.956847 -1.001369 -0.507490
1.972993 -1.010066 -0.430847
1.984998 -1.016649 -0.353229
2.003595 -1.026174 -0.276400
1.987730 -1.018486 -0.195403
2.033288 -1.042278 -0.119745
1.958563 -1.006564 -0.508389
1.972973 -1.014406 -0.431228
1.986734 -1.021919 -0.353855
1.989445 -1.023314 -0.274694
1.993035 -1.025600 -0.196100
2.019036 -1.039426 -0.119012
1.953340 -1.008194 -0.507490
1.958989 -1.011542 -0.428557
1.991968 -1.029012 -0.355106
2.000001 -1.033162 -0.276400
1.984162 -1.025419 -0.195403
2.020767 -1.044783 -0.119221
1.958498 -1.015189 -0.509289
1.976392 -1.024902 -0.432755
1.979648 -1.027029 -0.353229
1.999957 -1.037565 -0.276643
1.985906 -1.030716 -0.195752
2.024258 -1.051069 -0.119535
1.948080 -1.014106 -0.507040
1.972858 -1.027443 -0.432373
1.981356 -1.032308 -0.353855
2.010466 -1.047475 -0.278350
1.991171 -1.037864 -0.196449
2.022421 -1.054601 -0.119535
1.939399 -1.013893 -0.505240
1.976281 -1.033614 -0.433518
1.983052 -1.037596 -0.354481
2.001600 -1.047301 -0.277375
2.001713 -1.047805 -0.197669
2.020577 -1.058129 -0.119535
1.946254 -1.021806 -0.507490
1.972736 -1.036149 -0.433136
1.981238 -1.041056 -0.354481
1.996254 -1.048946 -0.276887
2.010463 -1.056860 -0.198715
2.022262 -1.063513 -0.119745
1.958769 -1.033179 -0.430465
1.984659 -1.047278 -0.355419
2.003199 -1.057060 -0.278106
1.999806 -1.055716 -0.197844
2.031000 -1.072637 -0.120373
1.972577 -1.044867 -0.433900
1.982828 -1.050740 -0.355419
1.996089 -1.057767 -0.277375
1.999720 -1.060138 -0.198018
2.025595 -1.074309 -0.120163
1.969017 -1.047386 -0.433518
1.980991 -1.054199 -0.355419
2.004754 -1.066844 -0.278837
1.999626 -1.064563 -0.198192
2.016666 -1.074087 -0.119745
1.974113 -1.054521 -0.435045
1.975664 -1.055793 -0.354793
1.992384 -1.064728 -0.277375
1.999521 -1.068991 -0.198366
2.044729 -1.093619 -0.121524
1.970539 -1.057037 -0.434663
1.982707 -1.063564 -0.356358
1.990523 -1.068204 -0.277375
2.008185 -1.078134 -0.199412
1.958505 -1.054546 -0.432373
1.991282 -1.072643 -0.358235
1.999140 -1.077327 -0.278837
1.995965 -1.075616 -0.198366
1.967023 -1.063565 -0.434663
1.978982 -1.070478 -0.356358
2.007922 -1.086132 -0.280300
1.987076 -1.075305 -0.197669
1.961713 -1.065124 -0.433900
1.973639 -1.072045 -0.355732
2.006023 -1.089635 -0.280300
1.997451 -1.085430 -0.198889
1.968470 -1.073245 -0.435808
1.973499 -1.076434 -0.356045
2.007603 -1.095036 -0.280787
1.993804 -1.087960 -0.198715
1.957984 -1.071965 -0.433900
1.978548 -1.083672 -0.357296
1.993502 -1.091863 -0.279081
2.004133 -1.098140 -0.199935
1.990500 -1.094739 -0.359799
2.005508 -1.102993 -0.281031
1.996977 -1.098755 -0.199412
1.981670 -1.094392 -0.358548
2.001842 -1.105532 -0.280787
1.991568 -1.100312 -0.199064
1.978029 -1.096891 -0.358235
2.012062 -1.115763 -0.282493
1.994872 -1.106686 -0.199587
1.977837 -1.101302 -0.358548
2.003175 -1.115411 -0.281518
2.001640 -1.115014 -0.200458
1.989706 -1.112465 -0.361051
1.997759 -1.116967 -0.281031
2.004907 -1.121423 -0.200981
1.977426 -1.110134 -0.359174
1.995807 -1.120452 -0.281031
1.995998 -1.121018 -0.200284
1.966882 -1.108733 -0.357609
2.000765 -1.127833 -0.282006
1.994039 -1.124500 -0.200284
1.968382 -1.114110 -0.358235
2.003976 -1.134257 -0.282737
1.988606 -1.126015 -0.199935
1.975021 -1.122424 -0.359799
2.007171 -1.140695 -0.283468
1.990101 -1.131454 -0.200284
1.981638 -1.130765 -0.361364
1.994833 -1.138294 -0.282006
1.998505 -1.140852 -0.201330
1.989945 -1.140114 -0.363241
1.991120 -1.140787 -0.281762
1.989597 -1.140375 -0.200633
2.002892 -1.152179 -0.283712
1.992784 -1.146827 -0.201155
1.999159 -1.154680 -0.283468
1.992504 -1.151301 -0.201330
2.005727 -1.163147 -0.284687
1.995662 -1.157776 -0.201853
1.988254 -1.157656 -0.282493
2.003968 -1.167274 -0.202899
2.001654 -1.170141 -0.284687
1.988169 -1.162723 -0.201504
1.999609 -1.173633 -0.284687
1.984418 -1.165183 -0.201330
2.004399 -1.181152 -0.285662
1.989452 -1.172344 -0.202027
2.000832 -1.183289 -0.285418
1.992547 -1.178858 -0.202550
1.998764 -1.186779 -0.285418
2.011042 -1.194544 -0.204642
1.998395 -1.191282 -0.285662
2.001422 -1.197827 -0.286393
2.078750 -0.037373 -0.404133
2.078682 -0.041002 -0.404133
2.070756 -0.044461 -0.402607
2.084423 -0.048030 -0.405278
2.050971 -0.050841 -0.398791
2.056767 -0.054577 -0.399936
2.072368 -0.058610 -0.402989
2.070300 -0.062168 -0.402607
2.068226 -0.065719 -0.402225
2.062222 -0.069132 -0.401081
2.064394 -0.072451 -0.476896
2.067984 -0.072938 -0.402225
2.046737 -0.075408 -0.472847
2.067854 -0.076548 -0.402225
2.034919 -0.078529 -0.470148
2.071641 -0.080309 -0.402989
2.044515 -0.082474 -0.472397
2.069536 -0.083845 -0.402607
2.050209 -0.086288 -0.473747
2.065463 -0.087291 -0.401844
2.121621 -0.090035 -0.336334
2.053949 -0.090036 -0.474647
2.069231 -0.091068 -0.402607
2.089885 -0.092343 -0.331328
2.042108 -0.093089 -0.471947
2.069068 -0.094680 -0.402607
2.109453 -0.096897 -0.334457
2.039996 -0.096561 -0.471497
2.074783 -0.098570 -0.403752
2.085604 -0.099449 -0.330702
2.045663 -0.100408 -0.472847
2.060882 -0.101515 -0.401081
2.083472 -0.102628 -0.330390
2.043557 -0.103522 -0.472397
2.056798 -0.104553 -0.400317
2.079344 -0.106063 -0.329764
2.053103 -0.107599 -0.474647
2.068376 -0.108761 -0.402607
2.065347 -0.108963 -0.327574
2.047075 -0.110866 -0.473297
2.060341 -0.111945 -0.401081
2.063181 -0.112460 -0.327261
2.037150 -0.113894 -0.471048
2.066024 -0.115870 -0.402225
2.072843 -0.116616 -0.328825
2.038893 -0.117562 -0.471497
2.063858 -0.119363 -0.401844
2.074609 -0.120348 -0.329138
2.046466 -0.121583 -0.473297
2.059727 -0.122731 -0.401081
2.078339 -0.124204 -0.329764
2.054031 -0.125630 -0.475097
2.061469 -0.126446 -0.401462
2.068261 -0.127225 -0.328200
2.044085 -0.128603 -0.472847
2.063205 -0.130167 -0.401844
2.072001 -0.130722 -0.328825
2.032212 -0.131061 -0.470148
2.070835 -0.133915 -0.403370
2.075713 -0.134594 -0.329451
2.035869 -0.134865 -0.471048
2.060803 -0.136878 -0.401462
2.083359 -0.138742 -0.330702
1.998739 -0.135559 -0.536791
2.041463 -0.138815 -0.472397
2.052726 -0.139941 -0.399936
2.087055 -0.142647 -0.331328
2.008135 -0.139718 -0.539379
2.045106 -0.142649 -0.473297
2.050520 -0.143386 -0.399554
2.067097 -0.144908 -0.328200
2.044854 -0.146218 -0.473297
2.060058 -0.147667 -0.401462
2.060930 -0.148091 -0.327261
2.029047 -0.148648 -0.469698
2.055881 -0.150974 -0.400699
2.070519 -0.152413 -0.328825
2.036558 -0.152772 -0.471497
2.051699 -0.154268 -0.399936
2.072220 -0.156175 -0.329138
2.122001 -0.159927 -0.261288
2.036288 -0.156326 -0.471497
2.049469 -0.157698 -0.399554
2.079822 -0.160399 -0.330390
2.103906 -0.162256 -0.259094
2.043783 -0.160490 -0.473297
2.047234 -0.161121 -0.399172
2.075600 -0.163718 -0.329764
2.101640 -0.165772 -0.258851
2.033787 -0.163277 -0.471048
2.060648 -0.165796 -0.401844
2.069404 -0.166864 -0.328825
2.101348 -0.169440 -0.258851
2.027673 -0.166349 -0.469698
2.064269 -0.169714 -0.402607
2.071079 -0.170638 -0.329138
2.099071 -0.172944 -0.258607
2.048341 -0.171284 -0.550767
2.031263 -0.170213 -0.470598
2.044406 -0.171674 -0.398791
2.078651 -0.174915 -0.330390
2.088875 -0.175775 -0.257388
2.028791 -0.173215 -0.545591
2.030963 -0.173758 -0.470598
2.053883 -0.176080 -0.400699
2.078343 -0.178542 -0.330390
2.102410 -0.180610 -0.259094
2.013089 -0.175414 -0.541449
2.038422 -0.177980 -0.472397
2.045750 -0.178980 -0.399172
2.070157 -0.181479 -0.329138
2.098136 -0.183932 -0.258607
2.020477 -0.179612 -0.543520
2.032285 -0.181019 -0.471048
2.045434 -0.182550 -0.399172
2.063935 -0.184564 -0.328200
2.101767 -0.187947 -0.259094
2.029780 -0.184010 -0.546108
2.024203 -0.183861 -0.469248
2.056844 -0.187187 -0.401462
2.071478 -0.188884 -0.329451
2.097481 -0.191255 -0.258607
2.144841 -0.195951 -0.188431
2.025609 -0.187197 -0.545073
2.037462 -0.188651 -0.472397
2.042830 -0.189508 -0.398791
2.073112 -0.192682 -0.329764
2.085285 -0.193813 -0.257144
2.100852 -0.195630 -0.184596
2.021432 -0.190370 -0.544038
2.035190 -0.192024 -0.471947
2.042496 -0.193073 -0.398791
2.066907 -0.195380 -0.328825
2.094825 -0.198388 -0.258363
2.120342 -0.201178 -0.186339
2.011481 -0.192975 -0.541449
2.038765 -0.195593 -0.472847
2.038281 -0.195905 -0.398028
2.068529 -0.199177 -0.329138
2.098427 -0.202425 -0.258851
2.108124 -0.203361 -0.185293
2.016944 -0.196697 -0.543002
2.028723 -0.198203 -0.470598
2.043798 -0.200036 -0.399172
2.066248 -0.202233 -0.328825
2.104033 -0.206302 -0.259582
2.101818 -0.206455 -0.184770
2.024287 -0.200980 -0.545073
2.026470 -0.201197 -0.470148
2.049342 -0.203829 -0.400317
2.065892 -0.205839 -0.328825
2.093794 -0.208988 -0.258363
2.029699 -0.205096 -0.546626
2.022202 -0.204695 -0.469248
2.048947 -0.207763 -0.400317
2.069423 -0.210204 -0.329451
2.093426 -0.212642 -0.258363
2.075316 -0.211169 -0.182504
2.029338 -0.208638 -0.546626
2.023781 -0.208423 -0.469698
2.042723 -0.210735 -0.399172
2.076913 -0.214628 -0.330702
2.095026 -0.216500 -0.258607
2.076926 -0.214996 -0.182678
2.017443 -0.210974 -0.543520
2.040857 -0.213783 -0.473747
2.042352 -0.214299 -0.399172
2.060819 -0.216601 -0.328200
2.100568 -0.220779 -0.259338
2.084473 -0.219455 -0.183376
2.026677 -0.215516 -0.546108
2.026916 -0.215899 -0.470598
2.043927 -0.218072 -0.399554
2.056509 -0.219777 -0.327574
2.104127 -0.224866 -0.259825
2.076163 -0.222244 -0.182678
2.024377 -0.218845 -0.545591
2.022662 -0.219017 -0.469698
2.049399 -0.222274 -0.400699
2.063977 -0.224220 -0.328825
2.095837 -0.227681 -0.258851
2.083695 -0.226730 -0.183376
2.035514 -0.223644 -0.548696
2.022276 -0.222547 -0.469698
2.041202 -0.224990 -0.399172
2.055729 -0.226955 -0.327574
2.087544 -0.230467 -0.257876
2.091217 -0.231242 -0.184073
2.023601 -0.225910 -0.545591
2.031568 -0.227159 -0.471947
2.033002 -0.227678 -0.397646
2.067109 -0.231863 -0.329451
2.089112 -0.234331 -0.258119
2.086850 -0.234447 -0.183724
2.007847 -0.227700 -0.541449
2.029233 -0.230484 -0.471497
2.038454 -0.231892 -0.398791
2.054925 -0.234129 -0.327574
2.090672 -0.238202 -0.258363
2.082479 -0.237637 -0.183376
2.007447 -0.231204 -0.541449
2.028827 -0.234026 -0.471497
2.039996 -0.235675 -0.399172
2.054513 -0.237715 -0.327574
2.104056 -0.243448 -0.260069
2.095915 -0.242876 -0.184596
2.020471 -0.236278 -0.545073
2.012932 -0.235753 -0.467898
2.051281 -0.240607 -0.401462
2.059981 -0.241992 -0.328512
2.087856 -0.245267 -0.258119
2.091531 -0.246068 -0.184247
2.156105 -0.254047 -0.113778
2.025811 -0.240488 -0.546626
2.020257 -0.240186 -0.469698
2.048908 -0.243955 -0.401081
2.055632 -0.245119 -0.327887
2.089396 -0.249145 -0.258363
2.083184 -0.248773 -0.183550
2.123929 -0.254015 -0.112104
2.011962 -0.242405 -0.543002
2.027574 -0.244645 -0.471497
2.038734 -0.246353 -0.399172
2.066968 -0.250131 -0.329764
2.085016 -0.252315 -0.257876
2.074836 -0.251450 -0.182853
2.113569 -0.256519 -0.111580
2.003866 -0.244979 -0.540932
2.031013 -0.248657 -0.472397
2.044147 -0.250627 -0.400317
2.064567 -0.253497 -0.329451
2.090484 -0.256679 -0.258607
2.066484 -0.254098 -0.182156
2.119064 -0.260939 -0.111894
2.013021 -0.249665 -0.543520
2.020906 -0.251001 -0.470148
2.043706 -0.254195 -0.400317
2.048440 -0.255147 -0.326948
2.092003 -0.260573 -0.258851
2.077899 -0.259184 -0.183201
2.124552 -0.265380 -0.112208
2.006832 -0.252454 -0.541967
2.020465 -0.254528 -0.470148
2.047155 -0.258253 -0.401081
2.059750 -0.260207 -0.328825
2.089575 -0.263975 -0.258607
2.077444 -0.262811 -0.183201
2.094364 -0.265322 -0.110638
2.015970 -0.257179 -0.544555
2.018084 -0.257807 -0.469698
2.046701 -0.261825 -0.401081
2.063212 -0.264304 -0.329451
2.075328 -0.265856 -0.256901
2.080934 -0.266943 -0.183550
2.101821 -0.269995 -0.111057
2.007854 -0.259706 -0.542485
2.025362 -0.262330 -0.471497
2.030666 -0.263377 -0.398028
2.080767 -0.270244 -0.257632
2.080465 -0.270574 -0.183550
2.113230 -0.275211 -0.111685
2.001652 -0.262456 -0.540932
2.030697 -0.266625 -0.472847
2.036042 -0.267689 -0.399172
2.054443 -0.270472 -0.328200
2.076356 -0.273357 -0.257144
2.072088 -0.273164 -0.182853
2.116707 -0.279421 -0.111894
2.001191 -0.265949 -0.540932
2.024434 -0.269398 -0.471497
2.037518 -0.271501 -0.399554
2.055926 -0.274319 -0.328512
2.093584 -0.279344 -0.259338
2.075558 -0.277307 -0.183201
2.104338 -0.281526 -0.111266
2.010296 -0.270731 -0.543520
2.012373 -0.271368 -0.468798
2.042878 -0.275845 -0.400699
2.053486 -0.277642 -0.328200
2.079323 -0.281136 -0.257632
2.079020 -0.281464 -0.183550
2.099885 -0.284662 -0.111057
2.013649 -0.274762 -0.544555
2.019619 -0.275935 -0.470598
2.036558 -0.278612 -0.399554
2.064741 -0.282834 -0.330077
2.076863 -0.284495 -0.257388
2.078526 -0.285092 -0.183550
2.099385 -0.288327 -0.111057
2.007425 -0.277482 -0.543002
2.015274 -0.278925 -0.469698
2.034124 -0.281896 -0.399172
2.072070 -0.287524 -0.331328
2.080296 -0.288665 -0.257876
2.074078 -0.288171 -0.183201
2.102835 -0.292541 -0.111266
2.003112 -0.280450 -0.541967
2.032153 -0.284877 -0.473747
2.033629 -0.285446 -0.399172
2.055916 -0.288940 -0.328825
2.081754 -0.292571 -0.258119
2.073572 -0.291791 -0.183201
2.122099 -0.298997 -0.112313
2.000706 -0.283674 -0.541449
2.018147 -0.286506 -0.470598
2.037015 -0.289547 -0.399936
2.047586 -0.291415 -0.327574
2.083206 -0.296484 -0.258363
2.077004 -0.295971 -0.183550
2.109710 -0.301008 -0.111685
2.005945 -0.287989 -0.543002
2.013786 -0.289473 -0.469698
2.042336 -0.293941 -0.401081
2.056850 -0.296397 -0.329138
2.072861 -0.298704 -0.257144
2.072541 -0.299027 -0.183201
2.087437 -0.301548 -0.110534
2.005439 -0.291490 -0.543002
2.015206 -0.293268 -0.470148
2.032106 -0.296090 -0.399172
2.052421 -0.299416 -0.328512
2.070372 -0.302035 -0.256901
2.077930 -0.303508 -0.183724
2.104694 -0.307792 -0.111476
2.154694 -0.315488 -0.038011
2.001105 -0.294427 -0.541967
2.016619 -0.297069 -0.470598
2.029644 -0.299350 -0.398791
2.055803 -0.303575 -0.329138
2.071806 -0.305938 -0.257144
2.069513 -0.305968 -0.183027
2.108105 -0.312050 -0.111685
2.120513 -0.314265 -0.037418
1.996766 -0.297350 -0.540932
2.027662 -0.302313 -0.473297
2.031060 -0.303182 -0.399172
2.051363 -0.306578 -0.328512
2.075195 -0.310140 -0.257632
2.065035 -0.308990 -0.182678
2.111508 -0.316320 -0.111894
2.102163 -0.315296 -0.037104
2.003886 -0.301986 -0.543002
2.019424 -0.304688 -0.471497
2.038293 -0.307899 -0.400699
2.043066 -0.308620 -0.327261
2.078576 -0.314355 -0.258119
2.076312 -0.314383 -0.183724
2.099104 -0.318209 -0.111266
2.001446 -0.305192 -0.542485
2.003531 -0.305510 -0.467898
2.041688 -0.311693 -0.401462
2.042524 -0.312185 -0.327261
2.078024 -0.317982 -0.258119
2.073847 -0.317343 -0.183550
2.090705 -0.320296 -0.110848
2.116919 -0.324690 -0.037383
2.004782 -0.308924 -0.543520
2.014550 -0.310789 -0.470598
2.041141 -0.315256 -0.401462
2.053689 -0.317561 -0.329138
2.071637 -0.320336 -0.257388
2.089041 -0.323401 -0.184944
2.098037 -0.325168 -0.111266
2.104492 -0.326545 -0.037174
2.002331 -0.312125 -0.543002
2.019781 -0.315206 -0.471947
2.034769 -0.317909 -0.400317
2.049229 -0.320534 -0.328512
2.073036 -0.324258 -0.257632
2.070758 -0.324272 -0.183376
2.105359 -0.330067 -0.111685
2.092066 -0.328357 -0.036964
1.996059 -0.314716 -0.541449
2.011528 -0.317515 -0.470148
2.038089 -0.322072 -0.401081
2.042813 -0.323184 -0.327574
2.078349 -0.328806 -0.258363
2.058382 -0.326016 -0.182330
2.104780 -0.333741 -0.111685
2.095440 -0.332635 -0.037034
1.991691 -0.317591 -0.540414
2.014820 -0.321640 -0.471048
2.039463 -0.325939 -0.401462
2.044196 -0.327061 -0.327887
2.085613 -0.333688 -0.259338
2.065679 -0.330868 -0.183027
2.100250 -0.336782 -0.111476
2.100779 -0.337242 -0.037139
2.004484 -0.323220 -0.544038
2.016179 -0.325467 -0.471497
2.040829 -0.329811 -0.401844
2.045572 -0.330944 -0.328200
2.073270 -0.335425 -0.257876
2.070998 -0.335429 -0.183550
2.085859 -0.338209 -0.110743
2.106109 -0.341870 -0.037243
2.002010 -0.326407 -0.543520
2.005991 -0.327415 -0.469248
2.030563 -0.331790 -0.399936
2.048890 -0.335151 -0.328825
2.062886 -0.337441 -0.256657
2.072376 -0.339365 -0.183724
2.103004 -0.344757 -0.111685
2.099589 -0.344573 -0.037139
2.001437 -0.329900 -0.543520
2.007340 -0.331233 -0.469698
2.028043 -0.335013 -0.399554
2.052200 -0.339372 -0.329451
2.074044 -0.342984 -0.258119
2.063918 -0.341679 -0.183027
2.098458 -0.347774 -0.111476
2.100957 -0.348565 -0.037174
1.993236 -0.332123 -0.541449
2.020214 -0.336981 -0.472847
2.033265 -0.339522 -0.400699
2.049656 -0.342627 -0.329138
2.077359 -0.347258 -0.258607
2.063318 -0.345281 -0.183027
2.097848 -0.351436 -0.111476
2.100346 -0.352231 -0.037174
1.998369 -0.336564 -0.543002
2.017701 -0.340182 -0.472397
2.038477 -0.344051 -0.401844
2.045160 -0.345546 -0.328512
2.082622 -0.351875 -0.259338
2.060748 -0.348549 -0.182853
2.097231 -0.355097 -0.111476
2.095785 -0.355228 -0.037104
2.001587 -0.340699 -0.544038
2.005578 -0.341739 -0.469698
2.045614 -0.348928 -0.403370
2.044554 -0.349115 -0.328512
2.072220 -0.353839 -0.258119
2.069956 -0.353824 -0.183724
2.086765 -0.357072 -0.110952
2.106987 -0.360911 -0.037313
2.004797 -0.344847 -0.545073
2.161916 -0.371874 0.038291
2.008819 -0.345900 -0.470598
2.035328 -0.350831 -0.401462
2.043941 -0.352683 -0.328512
2.059863 -0.355430 -0.256657
2.079152 -0.359132 -0.184596
2.090075 -0.361394 -0.111162
2.102413 -0.363906 -0.037243
2.002289 -0.348015 -0.544555
2.137622 -0.371537 0.037872
2.015892 -0.350742 -0.472397
2.025043 -0.352698 -0.399554
2.049161 -0.357267 -0.329451
2.072928 -0.361411 -0.258363
2.060858 -0.359677 -0.183027
2.097311 -0.366417 -0.111580
2.093896 -0.366197 -0.037104
1.990262 -0.349504 -0.541449
2.119244 -0.372155 0.037558
2.011439 -0.353585 -0.471497
2.034091 -0.357933 -0.401462
2.048534 -0.360843 -0.329451
2.076204 -0.365717 -0.258851
2.062189 -0.363620 -0.183201
2.102569 -0.371118 -0.111894
2.093254 -0.369851 -0.037104
1.999160 -0.354665 -0.544038
2.114653 -0.375154 0.037488
2.012737 -0.357436 -0.471947
2.035397 -0.361826 -0.401844
2.036232 -0.362341 -0.327574
2.077517 -0.369688 -0.259094
2.055667 -0.366170 -0.182678
2.099952 -0.374437 -0.111790
2.104416 -0.375612 -0.037313
1.992833 -0.357131 -0.542485
2.110059 -0.378139 0.037418
2.006356 -0.359916 -0.470598
2.032830 -0.365031 -0.401462
2.041429 -0.366943 -0.328512
2.069053 -0.371909 -0.258119
2.064829 -0.371521 -0.183550
2.093398 -0.377039 -0.111476
2.105726 -0.379639 -0.037348
2.001712 -0.362329 -0.545073
2.119234 -0.383602 0.037592
2.005724 -0.363417 -0.470598
2.032189 -0.368579 -0.401462
2.044673 -0.371211 -0.329138
2.056683 -0.373392 -0.256657
2.072018 -0.376550 -0.184247
2.092737 -0.380692 -0.111476
2.101125 -0.382597 -0.037278
1.995375 -0.364780 -0.543520
2.122495 -0.388019 0.037662
2.014672 -0.368671 -0.472847
2.025749 -0.371064 -0.400317
2.051794 -0.376204 -0.330390
2.073600 -0.380203 -0.258851
2.055681 -0.377288 -0.182853
2.090105 -0.383983 -0.111371
2.090621 -0.384455 -0.037104
1.983337 -0.366158 -0.540414
2.108050 -0.389182 0.037418
2.017858 -0.372895 -0.473747
2.032821 -0.376027 -0.401844
2.047249 -0.379066 -0.329764
2.067078 -0.382737 -0.258119
2.053060 -0.380512 -0.182678
2.091395 -0.387995 -0.111476
2.097811 -0.389564 -0.037243
1.994090 -0.371743 -0.543520
2.115231 -0.394326 0.037558
2.011457 -0.375344 -0.472397
2.032162 -0.379575 -0.401844
2.034934 -0.380460 -0.327887
2.078115 -0.388533 -0.259582
2.056310 -0.384828 -0.183027
2.086789 -0.390909 -0.111266
2.093197 -0.392487 -0.037174
1.999133 -0.376295 -0.545073
2.108644 -0.396908 0.037453
2.006969 -0.378132 -0.471497
2.033425 -0.383485 -0.402225
2.042032 -0.385477 -0.329138
2.065729 -0.389950 -0.258119
2.057592 -0.388786 -0.183201
2.082178 -0.393808 -0.111057
2.108227 -0.399116 -0.037453
1.996576 -0.379423 -0.544555
2.115806 -0.402081 0.037592
2.000562 -0.380542 -0.470148
2.028896 -0.386299 -0.401462
2.045237 -0.389780 -0.329764
2.057245 -0.392068 -0.257144
2.064739 -0.393870 -0.183899
2.085411 -0.398191 -0.111266
2.097707 -0.400918 -0.037278
1.990219 -0.381815 -0.543002
2.120992 -0.406903 0.037697
2.009464 -0.385871 -0.472397
2.024363 -0.389098 -0.400699
2.048433 -0.394095 -0.330390
2.064355 -0.397159 -0.258119
2.058179 -0.396343 -0.183376
2.086674 -0.402208 -0.111371
2.098967 -0.404957 -0.037313
1.987653 -0.384921 -0.542485
2.106536 -0.407943 0.037453
2.018353 -0.391231 -0.474647
2.025608 -0.393004 -0.401081
2.039985 -0.396163 -0.329138
2.063659 -0.400761 -0.258119
2.049661 -0.398414 -0.182678
2.097732 -0.408138 -0.111999
2.090405 -0.407091 -0.037174
1.986978 -0.388389 -0.542485
2.107784 -0.412003 0.037488
2.008105 -0.392883 -0.472397
2.130625 -0.416854 0.113778
2.026845 -0.396917 -0.401462
2.035414 -0.398963 -0.328512
2.080489 -0.407799 -0.260313
2.054828 -0.403141 -0.183201
2.081338 -0.408720 -0.111162
2.097540 -0.412281 -0.037313
1.997669 -0.394100 -0.545591
2.109024 -0.416068 0.037523
1.997857 -0.394499 -0.470148
2.141651 -0.422893 0.114406
2.031928 -0.401595 -0.402607
2.038590 -0.403282 -0.329138
2.064195 -0.408347 -0.258363
2.058030 -0.407501 -0.183550
2.080621 -0.412352 -0.111162
2.104664 -0.417498 -0.037453
1.993189 -0.396831 -0.544555
2.112216 -0.420529 0.037592
2.008632 -0.400271 -0.472847
2.025447 -0.403989 -0.401462
2.043694 -0.407999 -0.330077
2.051799 -0.409618 -0.256901
2.061224 -0.411873 -0.183899
2.081857 -0.416374 -0.111266
2.092167 -0.418816 -0.037243
1.994387 -0.400690 -0.545073
2.123242 -0.426578 0.037802
2.007931 -0.403776 -0.472847
2.112749 -0.424854 0.112941
2.026664 -0.407911 -0.401844
2.044915 -0.411956 -0.330390
2.066649 -0.416334 -0.258851
2.050736 -0.413501 -0.183027
2.090916 -0.421982 -0.111790
2.083593 -0.420883 -0.037104
1.988005 -0.403019 -0.543520
2.110736 -0.427900 0.037592
2.014862 -0.408830 -0.474647
2.110047 -0.428143 0.112836
2.020177 -0.410275 -0.400699
2.038386 -0.414344 -0.329451
2.065919 -0.419941 -0.258851
2.059773 -0.419066 -0.183899
2.090177 -0.425631 -0.111790
2.084814 -0.424918 -0.037139
1.989191 -0.406875 -0.544038
2.104108 -0.430381 0.037488
2.006509 -0.410782 -0.472847
2.111253 -0.432226 0.112941
2.030998 -0.416165 -0.402989
2.031855 -0.416710 -0.328512
2.065183 -0.423546 -0.258851
2.049280 -0.420657 -0.183027
2.081605 -0.427671 -0.111371
2.080152 -0.427751 -0.037069
1.992262 -0.411127 -0.545073
2.105312 -0.434457 0.037523
2.005789 -0.414284 -0.472847
2.106583 -0.435102 0.112732
2.030268 -0.419709 -0.402989
2.036927 -0.421457 -0.329451
2.058609 -0.425943 -0.258119
2.048543 -0.424233 -0.183027
2.076944 -0.430492 -0.111162
2.097024 -0.435036 -0.037383
2.000998 -0.416572 -0.547661
2.112382 -0.439761 0.037662
2.003155 -0.417386 -0.472397
2.099955 -0.437556 0.112418
2.029532 -0.423252 -0.402989
2.042064 -0.425866 -0.330390
2.050090 -0.427913 -0.257144
2.067302 -0.431882 -0.184770
2.078144 -0.434526 -0.111266
2.090390 -0.437467 -0.037278
1.988924 -0.417682 -0.544555
2.111611 -0.443447 0.037662
2.004404 -0.420933 -0.472847
2.112870 -0.444096 0.113150
2.025023 -0.425632 -0.402225
2.041318 -0.429429 -0.330390
2.060995 -0.433944 -0.258607
2.056873 -0.433076 -0.183899
2.087231 -0.439849 -0.111790
2.085787 -0.439924 -0.037209
1.980705 -0.419206 -0.542485
2.110912 -0.446763 0.037662
2.007479 -0.425238 -0.473747
2.106308 -0.446173 0.112836
2.022356 -0.428758 -0.401844
2.038633 -0.432581 -0.330077
2.056427 -0.436357 -0.258119
2.042472 -0.433768 -0.182678
2.098182 -0.445982 -0.112418
2.081104 -0.442732 -0.037139
1.985638 -0.423872 -0.544038
2.106217 -0.449612 0.037592
2.006734 -0.428741 -0.473747
2.115292 -0.451935 0.113360
2.029284 -0.433930 -0.403370
2.028217 -0.434072 -0.328512
2.077015 -0.444515 -0.260800
2.049504 -0.439002 -0.183376
2.083730 -0.446713 -0.111685
2.084239 -0.447203 -0.037209
1.994338 -0.429370 -0.546626
2.109339 -0.454129 0.037662
1.996458 -0.430191 -0.471497
2.106690 -0.453943 0.112941
2.026604 -0.437057 -0.402989
2.035179 -0.439278 -0.329764
2.052951 -0.443114 -0.257876
2.050682 -0.442999 -0.183550
2.075139 -0.448661 -0.111266
2.095182 -0.453377 -0.037418
1.987923 -0.431620 -0.545073
2.108544 -0.457810 0.037662
1.997608 -0.434088 -0.471947
2.101991 -0.456771 0.112732
2.022002 -0.439759 -0.402225
2.034410 -0.442829 -0.329764
2.052174 -0.446696 -0.257876
2.061586 -0.449122 -0.184596
2.086061 -0.454835 -0.111894
2.082665 -0.454475 -0.037209
1.985279 -0.434676 -0.544555
2.107741 -0.461489 0.037662
2.004462 -0.439243 -0.473747
2.101191 -0.460439 0.112732
2.017396 -0.442446 -0.401462
2.043281 -0.448497 -0.331328
2.059147 -0.451979 -0.258851
2.045231 -0.449299 -0.183201
2.091116 -0.459762 -0.112208
2.077962 -0.457250 -0.037139
1.978858 -0.436891 -0.543002
2.110838 -0.466029 0.037732
2.005595 -0.443161 -0.474197
2.114036 -0.467122 0.113464
2.022372 -0.447238 -0.402607
2.184670 -0.483130 0.195752
2.038638 -0.451209 -0.330702
2.068046 -0.457717 -0.260069
2.042499 -0.452437 -0.183027
2.096160 -0.464707 -0.112522
2.079113 -0.461309 -0.037174
1.983750 -0.441603 -0.544555
2.102214 -0.467975 0.037592
2.002916 -0.446237 -0.473747
2.111268 -0.470377 0.113360
2.021588 -0.450767 -0.402607
2.107983 -0.470031 0.188954
2.032063 -0.453475 -0.329764
2.067244 -0.461326 -0.260069
2.049484 -0.457738 -0.183724
2.089498 -0.467058 -0.112208
2.082208 -0.465810 -0.037243
1.984861 -0.445488 -0.545073
2.103345 -0.472081 0.037627
1.994529 -0.448024 -0.471947
2.108495 -0.473623 0.113255
2.032291 -0.456878 -0.404897
2.118823 -0.476332 0.190000
2.035123 -0.457888 -0.330390
2.060626 -0.463626 -0.259338
2.050626 -0.461752 -0.183899
2.084783 -0.469826 -0.111999
2.087244 -0.470764 -0.037348
1.995386 -0.451510 -0.548179
2.106419 -0.476634 0.037697
1.997545 -0.452365 -0.472847
2.097925 -0.475097 0.112732
2.021917 -0.458255 -0.402989
2.137419 -0.484433 0.191743
2.036247 -0.461877 -0.330702
2.055942 -0.466344 -0.258851
2.051760 -0.465772 -0.184073
2.083960 -0.473464 -0.111999
2.084469 -0.473962 -0.037313
1.988944 -0.453703 -0.546626
2.107533 -0.480754 0.037732
2.004352 -0.457585 -0.474647
2.100987 -0.479647 0.112941
2.017286 -0.460909 -0.402225
2.130743 -0.486831 0.191220
2.041215 -0.466751 -0.331641
2.049319 -0.468604 -0.258119
2.043175 -0.467574 -0.183376
2.092865 -0.479330 -0.112522
2.077791 -0.476259 -0.037209
1.980618 -0.455442 -0.544555
2.106691 -0.484432 0.037732
2.003550 -0.461083 -0.474647
2.107932 -0.485105 0.113360
2.016478 -0.464429 -0.402225
2.114358 -0.486972 0.189825
2.034622 -0.468982 -0.330702
2.063973 -0.475747 -0.260069
2.038473 -0.470244 -0.183027
2.090079 -0.482533 -0.112418
2.080854 -0.480785 -0.037278
1.979820 -0.458898 -0.544555
2.099998 -0.486753 0.037627
2.002743 -0.464579 -0.474647
2.109028 -0.489234 0.113464
2.017577 -0.468391 -0.402607
2.129031 -0.494266 0.191220
2.031877 -0.472085 -0.330390
2.065073 -0.479798 -0.260313
2.043471 -0.475155 -0.183550
2.091178 -0.486632 -0.112522
2.080012 -0.484417 -0.037278
1.986541 -0.464110 -0.546626
2.089409 -0.488143 0.037453
1.998134 -0.467187 -0.473747
2.098447 -0.490641 0.112941
2.026314 -0.474149 -0.404515
2.130105 -0.498435 0.191394
2.036820 -0.476982 -0.331328
2.056502 -0.481591 -0.259338
2.050398 -0.480539 -0.184247
2.080604 -0.488001 -0.111999
2.088897 -0.490331 -0.037453
1.989489 -0.468463 -0.547661
2.100233 -0.494539 0.037662
1.997315 -0.470673 -0.473747
2.099532 -0.494761 0.113046
2.017841 -0.475882 -0.402989
2.133110 -0.503067 0.191743
2.037907 -0.480990 -0.331641
2.053726 -0.484723 -0.259094
2.053434 -0.485033 -0.184596
2.085580 -0.493010 -0.112313
2.078308 -0.491674 -0.037278
1.981150 -0.470150 -0.545591
2.099366 -0.498204 0.037662
1.996491 -0.474158 -0.473747
2.096721 -0.497963 0.112941
2.009367 -0.477587 -0.401462
2.122537 -0.504485 0.190871
2.044836 -0.486017 -0.332893
2.050946 -0.487848 -0.258851
2.040955 -0.485848 -0.183550
2.086659 -0.497112 -0.112418
2.077447 -0.495301 -0.037278
1.976569 -0.472708 -0.544555
2.094604 -0.500937 0.037592
2.003325 -0.479107 -0.475547
2.101676 -0.503016 0.113255
2.016251 -0.482571 -0.402989
2.117867 -0.506891 0.190522
2.036301 -0.487745 -0.331641
2.065534 -0.495128 -0.260800
2.040190 -0.489053 -0.183550
2.089760 -0.501321 -0.112627
2.080555 -0.499497 -0.037348
1.981458 -0.477169 -0.546108
2.089926 -0.503290 0.037523
1.998696 -0.481690 -0.474647
2.110592 -0.508657 0.113778
2.015406 -0.486089 -0.402989
2.130537 -0.513857 0.191743
2.027765 -0.489444 -0.330390
2.064754 -0.498372 -0.260800
2.043206 -0.493549 -0.183899
2.083058 -0.503560 -0.112313
2.085511 -0.504538 -0.037453
1.986254 -0.481994 -0.547661
2.092931 -0.507880 0.037592
1.994065 -0.484257 -0.473747
2.096115 -0.509040 0.113046
2.024093 -0.491924 -0.404897
2.127701 -0.517104 0.191568
2.032666 -0.494383 -0.331328
2.056166 -0.500099 -0.259825
2.050085 -0.498999 -0.184596
2.080235 -0.506722 -0.112208
2.088513 -0.509124 -0.037523
1.985410 -0.485459 -0.547661
2.095927 -0.512482 0.037662
1.993217 -0.487737 -0.473747
2.104923 -0.515072 0.113569
2.017511 -0.494055 -0.403752
2.134536 -0.522712 0.192266
2.037556 -0.499341 -0.332267
2.049505 -0.502269 -0.259094
2.049211 -0.502576 -0.184596
2.083227 -0.511304 -0.112418
2.081795 -0.511338 -0.037418
1.986435 -0.489386 -0.548179
2.095029 -0.516140 0.037662
1.992363 -0.491215 -0.473747
2.096265 -0.516832 0.113150
2.012833 -0.496635 -0.402989
2.125883 -0.524528 0.191568
2.038599 -0.503370 -0.332580
2.058262 -0.508225 -0.260313
2.040594 -0.504240 -0.183899
2.084270 -0.515419 -0.112522
2.077017 -0.514010 -0.037348
1.968704 -0.488664 -0.543520
2.090243 -0.518832 0.037592
1.999067 -0.496571 -0.475547
2.095360 -0.520490 0.113150
2.015774 -0.501094 -0.403752
2.117230 -0.526315 0.190871
2.024299 -0.503589 -0.330390
2.053519 -0.510858 -0.259825
2.039711 -0.507801 -0.183899
2.089182 -0.520504 -0.112836
2.074176 -0.517150 -0.037313
1.984715 -0.496317 -0.548179
2.085455 -0.521509 0.037523
1.998197 -0.500059 -0.475547
2.102198 -0.526086 0.113569
2.018705 -0.505566 -0.404515
2.125971 -0.532429 0.191743
2.021501 -0.506641 -0.330077
2.064177 -0.517337 -0.261288
2.042687 -0.512329 -0.184247
2.080521 -0.522205 -0.112418
2.069392 -0.519795 -0.037243
1.981973 -0.499308 -0.547661
2.088419 -0.526125 0.037592
1.989763 -0.501640 -0.473747
2.093530 -0.527801 0.113150
2.015916 -0.508608 -0.404133
2.130834 -0.537601 0.192266
2.028364 -0.511748 -0.331328
2.051723 -0.518023 -0.259825
2.041789 -0.515894 -0.184247
2.079607 -0.525835 -0.112418
2.089806 -0.528802 -0.037627
1.984843 -0.503717 -0.548696
2.091375 -0.530753 0.037662
1.992751 -0.505724 -0.474647
2.084862 -0.529488 0.112732
2.017018 -0.512257 -0.404515
2.133849 -0.541929 0.192614
2.031297 -0.516261 -0.331954
2.050816 -0.521603 -0.259825
2.048700 -0.521065 -0.184944
2.074907 -0.528116 -0.112208
2.067657 -0.526655 -0.037243
1.982177 -0.506356 -0.548179
2.090538 -0.534037 0.037662
1.991865 -0.509201 -0.474647
2.091768 -0.534741 0.113150
2.006611 -0.513344 -0.402607
2.113598 -0.540714 0.190871
2.034220 -0.520785 -0.332580
2.053840 -0.525808 -0.260313
2.043927 -0.523651 -0.184596
2.083655 -0.534217 -0.112732
2.062860 -0.529269 -0.037174
1.971936 -0.507408 -0.545591
2.089603 -0.537685 0.037662
1.998522 -0.514621 -0.476446
2.096634 -0.539885 0.113464
2.011415 -0.518315 -0.403752
2.120369 -0.546391 0.191568
2.027569 -0.522855 -0.331641
2.052919 -0.529392 -0.260313
2.039152 -0.526222 -0.184247
2.088521 -0.539351 -0.113046
2.075486 -0.536371 -0.037418
1.974788 -0.511818 -0.546626
2.084790 -0.540328 0.037592
1.993848 -0.517129 -0.475547
2.087955 -0.541537 0.113046
2.010507 -0.521825 -0.403752
2.129054 -0.552593 0.192440
2.020918 -0.524903 -0.330702
2.059678 -0.534971 -0.261288
2.038230 -0.529780 -0.184247
2.079845 -0.540984 -0.112627
2.076482 -0.540496 -0.037453
1.986976 -0.518680 -0.550249
2.087713 -0.544976 0.037662
1.991057 -0.520116 -0.475097
2.087007 -0.545181 0.113046
2.013392 -0.526326 -0.404515
2.126159 -0.555805 0.192266
2.027643 -0.530429 -0.331954
2.043377 -0.534545 -0.259338
2.045012 -0.535355 -0.184944
2.075034 -0.543601 -0.112418
2.092945 -0.548683 -0.037767
1.984199 -0.521655 -0.549732
2.090627 -0.549636 0.037732
1.988261 -0.523094 -0.474647
2.080258 -0.547298 0.112732
2.014369 -0.530339 -0.404897
2.130966 -0.561036 0.192788
2.030535 -0.534974 -0.332580
2.042441 -0.538111 -0.259338
2.049855 -0.540447 -0.185467
2.077944 -0.548241 -0.112627
2.084250 -0.550293 -0.037627
1.983286 -0.525118 -0.549732
2.089665 -0.553284 0.037732
1.998648 -0.529559 -0.477346
2.083161 -0.551951 0.112941
2.009645 -0.532848 -0.404133
2.124206 -0.563223 0.192266
2.029598 -0.538517 -0.332580
2.053011 -0.544730 -0.260800
2.035429 -0.540445 -0.184247
2.078914 -0.552379 -0.112732
2.063961 -0.548792 -0.037278
1.969300 -0.525094 -0.546108
2.096424 -0.558991 0.037872
1.995838 -0.532544 -0.476896
2.086054 -0.556616 0.113150
2.004919 -0.535342 -0.403370
2.111670 -0.563846 0.191220
2.028655 -0.542059 -0.332580
2.053975 -0.548824 -0.261044
2.034482 -0.543996 -0.184247
2.087594 -0.558588 -0.113255
2.076522 -0.556014 -0.037523
1.977709 -0.531036 -0.548696
2.087720 -0.560575 0.037732
1.994905 -0.536026 -0.476896
2.102439 -0.564920 0.114092
2.009669 -0.540369 -0.404515
2.126075 -0.571669 0.192614
2.020075 -0.543545 -0.331328
2.054931 -0.552924 -0.261288
2.033530 -0.547546 -0.184247
2.071188 -0.558074 -0.112418
2.073617 -0.559117 -0.037488
1.980509 -0.535495 -0.549732
2.082878 -0.563174 0.037662
1.982680 -0.536453 -0.474197
2.084098 -0.563894 0.113150
2.016303 -0.545928 -0.406042
2.132767 -0.577462 0.193311
2.026750 -0.549137 -0.332580
2.053962 -0.556510 -0.261288
2.036417 -0.552137 -0.184596
2.072139 -0.562211 -0.112522
2.082287 -0.565355 -0.037662
1.987028 -0.540981 -0.551802
2.089610 -0.568909 0.037802
1.993022 -0.542987 -0.476896
2.092746 -0.570156 0.113674
2.013453 -0.548930 -0.405660
2.139444 -0.583279 0.194009
2.029600 -0.553713 -0.333205
2.039582 -0.556436 -0.259582
2.046982 -0.558839 -0.185642
2.069227 -0.565300 -0.112418
2.075511 -0.567406 -0.037558
1.976765 -0.541894 -0.549214
2.088614 -0.572556 0.037802
1.990192 -0.545949 -0.476446
2.082117 -0.571165 0.113150
2.004919 -0.550365 -0.404133
2.117289 -0.581211 0.192091
2.028728 -0.556900 -0.333205
2.052007 -0.563676 -0.261288
2.038319 -0.560299 -0.184944
2.062460 -0.567322 -0.112104
2.074517 -0.571028 -0.037558
1.968367 -0.543288 -0.547143
2.087611 -0.576200 0.037802
1.998724 -0.551666 -0.478696
2.094593 -0.578521 0.113883
2.007837 -0.554559 -0.404897
2.122134 -0.586127 0.192614
2.022041 -0.558862 -0.332267
2.051020 -0.567257 -0.261288
2.033596 -0.562437 -0.184596
2.075041 -0.574290 -0.112836
2.069763 -0.573218 -0.037488
1.976818 -0.548963 -0.549732
2.082850 -0.578408 0.037732
1.990248 -0.553067 -0.476896
2.084060 -0.579136 0.113360
2.014432 -0.560166 -0.406423
2.121108 -0.589830 0.192614
2.019160 -0.561861 -0.331954
2.053952 -0.571542 -0.261775
2.032611 -0.565986 -0.184596
2.075959 -0.578447 -0.112941
2.078391 -0.579515 -0.037662
1.979578 -0.553453 -0.550767
2.081837 -0.582043 0.037732
1.983650 -0.554965 -0.475547
2.096510 -0.586540 0.114092
2.013451 -0.563681 -0.406423
2.118157 -0.592994 0.192440
2.021980 -0.566449 -0.332580
2.045305 -0.572984 -0.260800
2.039294 -0.571684 -0.185293
2.074947 -0.582069 -0.112941
2.085077 -0.585303 -0.037802
1.982329 -0.557954 -0.551802
2.088518 -0.587843 0.037872
1.982678 -0.558426 -0.475547
2.006795 -0.565597 -0.405278
2.132460 -0.601014 0.193834
2.028593 -0.572122 -0.333831
