# This PCD file was generated using the MATLAB® pcwrite function
# from Computer Vision System Toolbox®.
# .PCD v.7 - Point Cloud Data file format
VERSION .7
FIELDS x y z
SIZE 4 4 4
TYPE F F F
COUNT 1 1 1
WIDTH 1727
HEIGHT 1
VIEWPOINT 0 0 0 1 0 0 0
POINTS 1727
DATA ascii
0.836012 0.209527 -0.167530
0.829093 0.207792 0.074780
0.814384 0.203955 -0.132969
0.845348 0.211709 0.107001
0.831869 0.208334 -0.105295
0.805972 0.201699 -0.072688
0.829290 0.207381 -0.044800
0.826458 0.206519 -0.014869
0.824802 0.205494 -0.227761
0.822721 0.204975 0.014800
0.824484 0.205262 -0.196157
0.825631 0.205547 0.044590
0.830661 0.206645 -0.166385
0.835254 0.207788 0.075303
0.831956 0.206967 -0.135785
0.834158 0.207361 0.105539
0.843790 0.209755 -0.106758
0.853117 0.211916 0.139227
0.814057 0.202213 -0.073385
0.818020 0.203046 -0.044172
0.834581 0.207002 -0.015009
0.828910 0.204981 -0.228796
0.830843 0.205459 0.014939
0.815347 0.201627 -0.193908
0.822110 0.203147 0.044381
0.834796 0.206282 -0.167149
0.835580 0.206476 0.075303
0.826563 0.204094 -0.134847
0.838337 0.207002 0.106026
0.828736 0.204478 -0.104808
0.820177 0.202366 -0.073908
0.816399 0.201282 -0.044067
0.831022 0.204734 -0.014939
0.829231 0.203679 -0.228796
0.835048 0.205108 0.015009
0.827053 0.202991 -0.196607
0.814670 0.199951 0.043962
0.831342 0.203890 -0.166385
0.843679 0.206915 0.076000
0.842230 0.206560 -0.137349
0.834841 0.204593 0.105539
0.825201 0.202231 -0.104320
0.867245 0.212374 0.141417
0.818593 0.200460 -0.073734
0.812869 0.198908 -0.043858
0.825550 0.201858 -0.014835
0.825831 0.201316 -0.227761
0.843176 0.205544 0.015149
0.827371 0.201691 -0.196607
0.825939 0.201190 -0.165241
0.832388 0.202761 0.074954
0.840670 0.204622 -0.137037
0.840948 0.204690 0.106270
0.825552 0.200790 -0.104320
0.844545 0.205410 0.137662
0.816971 0.198703 -0.073559
0.857818 0.208479 -0.046265
0.827810 0.201033 -0.014869
0.822426 0.198966 -0.226725
0.835759 0.202192 0.015009
0.829651 0.200560 -0.197057
0.821187 0.198514 0.044276
0.832048 0.200987 -0.166385
0.828903 0.200227 0.074605
0.823780 0.198837 -0.134221
0.845198 0.204007 0.106758
0.833620 0.201212 -0.105295
0.837256 0.201935 0.136411
0.815415 0.196667 -0.073385
0.831033 0.200281 -0.044800
0.834026 0.200848 -0.014974
0.822772 0.197530 -0.226725
0.824444 0.197931 0.014800
0.828104 0.198658 -0.196607
0.833185 0.199877 0.044904
0.828579 0.198619 -0.165622
0.837001 0.200637 0.075303
0.837573 0.200620 -0.136411
0.841692 0.201606 0.106270
0.832040 0.199294 -0.105051
0.854898 0.204612 0.139227
0.811881 0.194316 -0.073037
0.854691 0.204405 -0.046056
0.836321 0.199857 -0.015009
0.826874 0.196989 -0.227761
0.828679 0.197419 0.014869
0.826554 0.196761 -0.196157
0.825761 0.196572 0.044486
0.836565 0.198989 -0.167149
0.831535 0.197793 0.074780
0.824469 0.195960 -0.134221
0.832386 0.197842 0.105051
0.834317 0.198301 -0.105295
0.845644 0.200837 0.137662
0.819973 0.194740 -0.073734
0.814238 0.193228 -0.043858
0.832777 0.197474 -0.014939
0.838497 0.198212 -0.230867
0.832914 0.196893 0.014939
0.819310 0.193526 -0.194358
0.835000 0.197078 -0.166767
0.845452 0.199545 0.076000
0.840190 0.198148 -0.136724
0.834662 0.196845 0.105295
0.825002 0.194566 -0.104076
0.836380 0.197095 0.136098
0.828069 0.195137 -0.074431
0.853456 0.200962 -0.045951
0.829227 0.195104 -0.014869
0.831318 0.194984 -0.228796
0.837150 0.196352 0.015009
0.832928 0.195208 -0.197507
0.820608 0.192321 0.044172
0.814316 0.190696 -0.162569
0.832220 0.194889 0.074780
0.836688 0.195782 -0.136098
0.840803 0.196744 0.106026
0.844669 0.197649 -0.106514
0.825181 0.192937 0.134221
0.814828 0.190516 -0.073211
0.822687 0.192202 -0.044276
0.825671 0.192748 -0.014800
0.824131 0.191782 -0.226725
0.833596 0.193984 0.014939
0.835165 0.194195 -0.197957
0.820943 0.190888 0.044172
0.833770 0.193718 -0.166385
0.832559 0.193437 0.074780
0.835104 0.193874 -0.135785
0.852747 0.197970 0.107489
0.833411 0.193481 -0.105051
0.840911 0.195067 0.136724
0.811277 0.188193 -0.072862
0.854152 0.197982 -0.045951
0.829903 0.192208 -0.014869
0.828229 0.191212 -0.227761
0.826140 0.190729 0.014800
0.835503 0.192738 -0.197957
0.836843 0.193047 0.045009
0.830281 0.191380 -0.165622
0.832895 0.191983 0.074780
0.814267 0.187539 -0.132344
0.841485 0.193808 0.106026
0.864698 0.199155 -0.108951
0.843175 0.194043 0.137037
0.813546 0.187224 -0.073037
0.827246 0.190225 -0.044486
0.834135 0.191655 -0.014939
0.832328 0.190629 -0.228796
0.830370 0.190180 0.014869
0.816842 0.186932 -0.193458
0.819657 0.187576 0.044067
0.828700 0.189493 -0.165241
0.840998 0.192305 0.075477
0.829999 0.189638 -0.134847
0.836016 0.191013 0.105295
0.828275 0.189244 -0.104320
0.839661 0.191691 0.136411
0.825526 0.188464 -0.074082
0.843154 0.192334 -0.045323
0.832518 0.189755 -0.014904
0.832659 0.189176 -0.228796
0.838501 0.190503 0.015009
0.832370 0.188957 -0.197057
0.819983 0.186145 0.044067
0.827115 0.187612 -0.164859
0.841333 0.190837 0.075477
0.838035 0.189936 -0.136098
0.842156 0.190870 0.106026
0.851836 0.193064 -0.107245
0.832288 0.188480 0.135159
0.825854 0.187023 -0.074082
0.820113 0.185573 -0.044067
0.830898 0.187861 -0.014869
0.832988 0.187722 -0.228796
0.840783 0.189479 0.015044
0.825094 0.185791 -0.195258
0.822255 0.185152 0.044172
0.838933 0.188754 -0.167149
0.835833 0.188056 0.074954
0.848001 0.190639 -0.137662
0.846362 0.190270 0.106514
0.823121 0.185046 -0.103589
0.832616 0.187027 0.135159
0.820347 0.184271 -0.073559
0.855513 0.192014 -0.045951
0.833176 0.186848 -0.014904
0.822002 0.183739 -0.225690
0.839161 0.187575 0.015009
0.840632 0.187749 -0.198857
0.816729 0.182411 0.043858
0.835429 0.186435 -0.166385
0.830326 0.185296 0.074431
0.829052 0.184859 -0.134534
0.848630 0.189225 0.106758
0.840880 0.187497 -0.105783
0.829085 0.184715 0.134534
0.812889 0.181106 -0.072862
0.842200 0.187483 -0.045218
0.829597 0.184525 -0.014835
0.829866 0.183977 -0.227761
0.833630 0.184811 0.014904
0.833348 0.184597 -0.197057
0.830696 0.184009 0.044590
0.830003 0.183703 -0.165241
0.832594 0.184277 0.074605
0.837089 0.185118 -0.135785
0.835391 0.184743 0.105051
0.845082 0.186886 -0.106270
0.844836 0.186678 0.137037
0.819040 0.180977 -0.073385
0.819123 0.180845 -0.043962
0.837728 0.184800 -0.014974
0.830186 0.182528 -0.227761
0.835904 0.183786 0.014939
0.829862 0.182305 -0.196157
0.834918 0.183416 0.044800
0.836075 0.183517 -0.166385
0.842644 0.184959 0.075477
0.829693 0.181964 -0.134534
0.841529 0.184560 0.105783
0.829895 0.182009 -0.104320
0.845161 0.185202 0.137037
0.815462 0.178694 -0.073037
0.856507 0.187532 -0.045951
0.840003 0.183764 -0.015009
0.841828 0.183548 -0.230867
0.840131 0.183178 0.015009
0.835891 0.182101 -0.197507
0.844067 0.183728 -0.167912
0.842966 0.183488 0.075477
0.843521 0.183455 -0.136724
0.851549 0.185201 0.107001
0.830212 0.180560 -0.104320
0.845483 0.183727 0.137037
0.831348 0.180656 -0.074431
0.821701 0.178409 -0.044067
0.834460 0.181027 -0.014904
0.827041 0.178813 -0.226725
0.852177 0.184247 0.015218
0.832398 0.179819 -0.196607
0.825196 0.178112 -0.164096
0.833547 0.179915 0.074605
0.841877 0.181713 -0.136411
0.846049 0.182459 0.106270
0.834406 0.179948 -0.104808
0.836147 0.180170 0.135472
0.825819 0.177945 -0.073908
0.859109 0.184961 -0.046056
0.830865 0.178729 -0.014835
0.823574 0.176559 -0.225690
0.840766 0.180244 0.015009
0.834585 0.178920 -0.197057
0.833154 0.178461 -0.165622
0.831881 0.178188 0.074431
0.838329 0.179417 -0.135785
0.850217 0.181961 0.106758
0.842484 0.180152 -0.105783
0.844156 0.180509 0.136724
0.816356 0.174565 -0.073037
0.830101 0.177352 -0.044486
0.827233 0.176589 -0.014765
0.827630 0.176069 -0.226725
0.839092 0.178508 0.014974
0.832990 0.177058 -0.196607
0.830286 0.176483 0.044486
0.844986 0.179454 -0.167912
0.838037 0.177978 0.074954
0.834777 0.177133 -0.135159
0.848592 0.180064 0.106514
0.844708 0.179240 -0.106026
0.836740 0.177397 0.135472
0.818608 0.173553 -0.073211
0.814778 0.172592 -0.043648
0.841235 0.178043 -0.015009
0.827936 0.174625 -0.226725
0.843315 0.177868 0.015044
0.825670 0.173996 -0.194808
0.843377 0.177574 -0.167530
0.838346 0.176515 0.074954
0.831218 0.174862 -0.134534
0.839192 0.176540 0.105295
0.858617 0.180626 -0.107733
0.848647 0.178374 0.137349
0.824759 0.173353 -0.073734
0.858079 0.180200 -0.045951
0.843501 0.176985 -0.015044
0.839585 0.175551 -0.229831
0.843625 0.176396 0.015044
0.824065 0.172156 -0.194358
0.813302 0.169908 0.043544
0.826389 0.172491 -0.164096
0.850355 0.177494 0.076000
0.833456 0.173814 -0.134847
0.847272 0.176695 0.106270
0.825896 0.172238 -0.103589
0.843156 0.175684 0.136411
0.819209 0.170694 -0.073211
0.825152 0.171782 -0.044172
0.832062 0.173069 -0.014835
0.832324 0.172518 -0.227761
0.847847 0.175735 0.015114
0.835814 0.173089 -0.197057
0.834379 0.172640 -0.165622
0.837006 0.173183 0.074780
0.835693 0.172759 -0.135159
0.853411 0.176422 0.107001
0.849523 0.175618 -0.106514
0.824115 0.170217 0.133282
0.827311 0.170876 -0.073908
0.856747 0.176800 -0.045846
0.828446 0.170809 -0.014765
0.836408 0.171843 -0.228796
0.844235 0.173451 0.015044
0.841842 0.172805 -0.198407
0.834679 0.171183 -0.165622
0.829500 0.170121 0.074082
0.841798 0.172491 -0.136098
0.859551 0.176128 0.107733
0.847883 0.173737 -0.106270
0.834088 0.170759 0.134847
0.810041 0.165836 -0.072339
0.833574 0.170502 -0.044590
0.834620 0.170564 -0.014869
0.832921 0.169611 -0.227761
0.836699 0.170380 0.014904
0.830684 0.169005 -0.195707
0.822009 0.167240 0.043962
0.838825 0.170508 -0.166385
0.841511 0.171054 0.075128
0.820804 0.166696 -0.132656
0.848185 0.172257 0.106270
0.848185 0.172257 -0.106270
0.846000 0.171659 0.136724
0.818139 0.166006 -0.073037
0.829955 0.168253 -0.044381
0.844716 0.171092 -0.015044
0.833216 0.168157 -0.227761
0.842875 0.170107 0.015009
0.830978 0.167554 -0.195707
0.826215 0.166594 0.044172
0.844895 0.170207 -0.167530
0.841808 0.169586 0.075128
0.836586 0.168382 -0.135159
0.848485 0.170777 0.106270
0.836808 0.168426 -0.104808
0.846298 0.170182 0.136724
0.828194 0.166542 -0.073908
0.826331 0.166018 -0.044172
0.843053 0.169224 -0.015009
0.837297 0.167460 -0.228796
0.839249 0.167851 0.014939
0.821714 0.164195 -0.193458
0.818670 0.163587 0.043753
0.839415 0.167580 -0.166385
0.849918 0.169676 0.075825
0.836878 0.166921 -0.135159
0.840994 0.167742 0.105295
0.825420 0.164636 -0.103345
0.831096 0.165617 0.134221
0.822622 0.163928 -0.073385
0.856002 0.170425 -0.045742
0.837463 0.166582 -0.014904
0.833797 0.165248 -0.227761
0.853271 0.169107 0.015184
0.839204 0.166167 -0.197507
0.820914 0.162546 0.043858
0.824299 0.163066 -0.163333
0.840440 0.166259 0.074954
0.848796 0.167758 -0.137037
0.845181 0.167044 0.105783
0.852970 0.168583 -0.106758
0.837197 0.165314 0.135159
0.818997 0.161721 -0.073037
0.822987 0.162359 -0.043962
0.831867 0.163960 -0.014800
0.826502 0.162303 -0.225690
0.845717 0.166076 0.015044
0.839493 0.164702 -0.197507
0.829036 0.162650 0.044276
0.828435 0.162382 -0.164096
0.834864 0.163642 0.074431
0.831640 0.162860 -0.134221
0.851315 0.166713 0.106514
0.841575 0.164805 -0.105295
0.835546 0.163473 0.134847
0.811457 0.158760 -0.072339
0.856592 0.167436 -0.045742
0.836077 0.163274 -0.014869
0.826784 0.160860 -0.225690
0.838154 0.163072 0.014904
0.834040 0.162121 -0.196157
0.835200 0.162347 0.044590
0.836426 0.162433 -0.165622
0.835148 0.162185 0.074431
0.835773 0.162307 -0.134847
0.849656 0.164849 0.106270
0.843810 0.163715 -0.105539
0.849405 0.164646 0.137037
0.817601 0.158481 -0.072862
0.827470 0.160245 -0.044172
0.836361 0.161815 -0.014869
0.830857 0.160149 -0.226725
0.842364 0.162366 0.014974
0.820899 0.158229 -0.193008
0.833521 0.160511 0.044486
0.844392 0.162604 -0.167149
0.841271 0.162003 0.074954
0.847694 0.163087 -0.136724
0.849914 0.163514 0.106270
0.853841 0.164115 -0.106758
0.851602 0.163685 0.137349
0.819805 0.157573 -0.073037
0.853219 0.163841 -0.045532
0.846433 0.162385 -0.015044
0.842493 0.161019 -0.229831
0.846546 0.161794 0.015044
0.834573 0.159354 -0.196157
0.829849 0.158452 0.044276
0.836960 0.159659 -0.165622
0.841552 0.160535 0.074954
0.828573 0.157909 -0.133595
0.840448 0.160172 0.105051
0.828748 0.157942 -0.103589
0.836363 0.159242 0.134847
0.827908 0.157632 -0.073734
0.818186 0.155634 -0.043648
0.832963 0.158294 -0.014800
0.835180 0.158111 -0.227761
0.854687 0.161804 0.015184
0.840594 0.158984 -0.197507
0.824236 0.155890 0.043962
0.825663 0.156011 -0.163333
0.845747 0.159806 0.075303
0.848258 0.160127 -0.136724
0.850480 0.160546 0.106270
0.856332 0.161651 -0.107001
0.828875 0.156318 0.133595
0.826224 0.155818 -0.073559
0.853786 0.160862 -0.045532
0.837169 0.157580 -0.014869
0.835455 0.156653 -0.227761
0.847106 0.158838 0.015044
0.846617 0.158593 -0.198857
0.822544 0.154084 0.043858
0.825934 0.154569 -0.163333
0.842108 0.157596 0.074954
0.838828 0.156831 -0.135159
0.854661 0.159791 0.106758
0.839051 0.156873 -0.104808
0.850506 0.158861 0.137037
0.818660 0.152912 -0.072862
0.844248 0.157539 -0.045009
0.833511 0.155385 -0.014800
0.831928 0.154489 -0.226725
0.835585 0.155168 0.014835
0.833480 0.154627 -0.195707
0.828703 0.153741 0.044172
0.831994 0.154201 -0.164477
0.840422 0.155763 0.074780
0.839100 0.155367 -0.135159
0.845179 0.156492 0.105539
0.854939 0.158299 -0.106758
0.844955 0.156298 0.136098
0.826763 0.152933 -0.073559
0.854342 0.157881 -0.045532
0.839680 0.155019 -0.014904
0.839797 0.154435 -0.228796
0.839788 0.154433 0.014904
0.837582 0.153876 -0.196607
0.823077 0.151211 0.043858
0.855433 0.157001 -0.169057
0.840693 0.154296 0.074780
0.829655 0.152121 -0.133595
0.849356 0.155733 0.106026
0.837641 0.153585 -0.104564
0.851055 0.155891 0.137037
0.830948 0.152208 -0.073908
0.825147 0.150996 -0.043962
0.847818 0.154992 -0.015044
0.840065 0.152969 -0.228796
0.845959 0.154042 0.015009
0.835932 0.152065 -0.196157
0.826732 0.150243 -0.163333
0.842921 0.153185 0.074954
0.845468 0.153495 -0.136098
0.849627 0.154250 0.106026
0.832048 0.151059 -0.103833
0.845495 0.153348 0.136098
0.833173 0.151113 -0.074082
0.827374 0.149912 -0.044067
0.838249 0.151731 -0.014869
0.832726 0.150131 -0.226725
0.846226 0.152565 0.015009
0.830443 0.149570 -0.194808
0.819668 0.147630 0.043648
0.832790 0.149843 -0.164477
0.843187 0.151713 0.074954
0.845735 0.152019 -0.136098
0.853802 0.153469 0.106514
0.832310 0.149606 -0.103833
0.845761 0.151872 0.136098
0.819708 0.147193 -0.072862
0.859089 0.154110 -0.045742
0.834575 0.149562 -0.014800
0.829183 0.147999 -0.225690
0.838617 0.149683 0.014869
0.842213 0.150173 -0.197507
0.837621 0.149354 0.044590
0.834983 0.148733 -0.164859
0.833643 0.148495 0.074082
0.838220 0.149159 -0.134847
0.857977 0.152675 0.107001
0.838434 0.149197 -0.104564
0.861584 0.153161 0.138601
0.818002 0.145414 -0.072688
0.833792 0.148071 -0.044381
0.838773 0.148804 -0.014869
0.829440 0.146551 -0.225690
0.832969 0.147175 0.014765
0.830960 0.146670 -0.194808
0.849682 0.149975 0.045218
0.831374 0.146594 -0.164096
0.831939 0.146693 0.073908
0.838479 0.147696 -0.134847
0.850423 0.149800 0.106026
0.866063 0.152555 -0.107976
0.856014 0.150631 0.137662
0.820217 0.144331 -0.072862
0.851753 0.149727 -0.045323
0.839031 0.147340 -0.014869
0.841112 0.147100 -0.228796
0.839134 0.146755 0.014869
0.833134 0.145555 -0.195258
0.828300 0.144710 0.044067
0.845167 0.147505 -0.166767
0.843970 0.147296 0.074954
0.846519 0.147589 -0.136098
0.850683 0.148315 0.106026
0.835038 0.145588 -0.104076
0.856275 0.149136 0.137662
0.828319 0.144267 -0.073559
0.822498 0.143105 -0.043753
0.847168 0.147245 -0.015009
0.841368 0.145632 -0.228796
0.847271 0.146654 0.015009
0.841068 0.145429 -0.197057
0.837685 0.144694 -0.165241
0.852079 0.147180 0.075651
0.838989 0.144768 -0.134847
0.854853 0.147505 0.106514
0.854853 0.147505 -0.106514
0.856534 0.147641 0.137662
0.830533 0.143159 -0.073734
0.864080 0.148787 -0.045951
0.835599 0.143732 -0.014800
0.837812 0.143511 -0.227761
0.853438 0.146188 0.015114
0.837479 0.143304 -0.196157
0.830195 0.141908 -0.163714
0.842515 0.144014 0.074780
0.854818 0.145963 -0.137349
0.853152 0.145679 0.106270
0.839455 0.143340 -0.104564
0.841213 0.143489 0.135159
0.824889 0.140704 -0.073211
0.828899 0.141240 -0.044067
0.837820 0.142609 -0.014835
0.834252 0.141403 -0.226725
0.839891 0.142358 0.014869
0.843492 0.142818 -0.197507
0.819200 0.138705 0.043544
0.832377 0.140786 -0.164096
0.840801 0.142211 0.074605
0.831698 0.140522 -0.133595
0.857320 0.144851 0.106758
0.865149 0.146173 -0.107733
0.849253 0.143336 0.136411
0.825134 0.139265 -0.073211
0.870503 0.146766 -0.046265
0.838068 0.141147 -0.014835
0.838308 0.140586 -0.227761
0.842110 0.141223 0.014904
0.834130 0.139735 -0.195258
0.827320 0.138595 0.043962
0.840367 0.140629 -0.165622
0.844978 0.141401 0.074954
0.847529 0.141676 -0.136098
0.855613 0.143027 0.106514
0.839950 0.140409 -0.104564
0.849502 0.141853 0.136411
0.821445 0.137168 -0.072862
0.835297 0.139331 -0.044381
0.842258 0.140342 -0.014904
0.834741 0.138490 -0.226725
0.844328 0.140081 0.014939
0.838218 0.138916 -0.196157
0.836737 0.138521 -0.164859
0.853086 0.141227 0.075651
0.832184 0.137618 -0.133595
0.849986 0.140562 0.105783
0.863696 0.142829 -0.107489
0.857544 0.141658 0.137662
0.835443 0.138007 -0.074082
0.827657 0.136572 -0.043962
0.856313 0.141148 -0.015149
0.838794 0.137658 -0.227761
0.842598 0.138283 0.014904
0.830766 0.136192 -0.194358
0.831741 0.136352 0.044172
0.836978 0.137061 -0.164859
0.851365 0.139417 0.075477
0.851917 0.139354 -0.136724
0.848271 0.138758 0.105539
0.830640 0.135874 -0.103345
0.848043 0.138568 0.136098
0.829784 0.135585 -0.073559
0.861403 0.140598 -0.045742
0.852611 0.139009 -0.015079
0.839033 0.136194 -0.227761
0.854681 0.138734 0.015114
0.844468 0.136926 -0.197507
0.820149 0.132983 0.043544
0.829464 0.134344 -0.163333
0.849640 0.137612 0.075303
0.844359 0.136605 -0.135472
0.852431 0.137911 0.106026
0.834795 0.135058 -0.103833
0.836583 0.135197 0.134221
0.826086 0.133501 -0.073211
0.834043 0.134638 -0.044276
0.835084 0.134656 -0.014765
0.835455 0.134117 -0.226725
0.845050 0.135657 0.014939
0.844706 0.135451 -0.197507
0.836156 0.134080 0.044381
0.841328 0.134759 -0.165622
0.838075 0.134238 0.074257
0.848498 0.135755 -0.136098
0.864432 0.138305 0.107489
0.848750 0.135796 -0.105539
0.838768 0.134049 0.134534
0.818448 0.130801 -0.072514
0.871751 0.139164 -0.046265
0.835318 0.133198 -0.014765
0.835687 0.132659 -0.226725
0.835411 0.132615 0.014765
0.839167 0.133061 -0.196157
0.824553 0.130744 0.043753
0.847380 0.134212 -0.166767
0.852083 0.134957 0.075477
0.837026 0.132423 -0.134221
0.850947 0.134625 0.105783
0.847025 0.134004 -0.105295
0.846805 0.133818 0.135785
0.828515 0.130928 -0.073385
0.828590 0.130791 -0.043962
0.843450 0.132986 -0.014904
0.843551 0.132399 -0.228796
0.843543 0.132397 0.014904
0.837473 0.131294 -0.195707
0.832673 0.130542 0.044172
0.845673 0.132429 -0.166385
0.854286 0.133778 0.075651
0.850918 0.133098 -0.136411
0.843335 0.131912 0.104808
0.837452 0.130992 -0.104076
0.854844 0.133559 0.137037
0.834648 0.130404 -0.073908
0.858417 0.133964 -0.045532
0.845657 0.131822 -0.014939
0.855235 0.132703 -0.231902
0.847725 0.131538 0.014974
0.837701 0.129833 -0.195707
0.823031 0.127559 0.043648
0.838142 0.129751 -0.164859
0.848611 0.131372 0.075128
0.841388 0.130103 -0.134847
0.851411 0.131653 0.105783
0.833755 0.128923 -0.103589
0.839458 0.129655 0.134534
0.832905 0.128643 -0.073734
0.831015 0.128203 -0.044067
0.843910 0.130041 -0.014904
0.844009 0.129453 -0.228796
0.853883 0.130968 0.015079
0.836000 0.128075 -0.195258
0.829175 0.127030 0.043962
0.838367 0.128288 -0.164859
0.848839 0.129891 0.075128
0.863093 0.131918 -0.138288
0.853602 0.130467 0.106026
0.869301 0.132867 -0.107976
0.847494 0.129382 0.135785
0.823280 0.125685 -0.072862
0.843084 0.128558 -0.044695
0.840181 0.127966 -0.014835
0.836593 0.126821 -0.226725
0.846202 0.128278 0.014939
0.847782 0.128367 -0.197957
0.823471 0.124686 0.043648
0.848296 0.128293 -0.166767
0.843155 0.127515 0.074605
0.841837 0.127165 -0.134847
0.851866 0.128680 0.105783
0.847940 0.128087 -0.105295
0.837953 0.126430 0.134221
0.827438 0.124843 -0.073211
0.843307 0.127087 -0.044695
0.846336 0.127392 -0.014939
0.844455 0.126506 -0.228796
0.850380 0.127394 0.015009
0.834514 0.124868 -0.194808
0.841465 0.125908 0.044590
0.852402 0.127392 -0.167530
0.849288 0.126927 0.075128
0.840104 0.125405 -0.134534
0.844236 0.126022 0.104808
0.848162 0.126608 -0.105295
0.851848 0.127006 0.136411
0.819773 0.122223 -0.072514
0.867234 0.129145 -0.045951
0.840623 0.125032 -0.014835
0.844675 0.125032 -0.228796
0.848623 0.125616 0.014974
0.836659 0.123696 -0.195258
0.833780 0.123271 0.044172
0.842912 0.124470 -0.165622
0.849508 0.125444 0.075128
0.834459 0.123073 -0.133595
0.850346 0.125417 0.105539
0.852310 0.125706 -0.105783
0.857932 0.126382 0.137349
0.833783 0.122825 -0.073734
0.831890 0.122398 -0.044067
0.850732 0.125018 -0.015009
0.848715 0.124117 -0.229831
0.844883 0.123556 0.014904
0.831089 0.121391 -0.193908
0.832018 0.121527 0.044067
0.845071 0.123283 -0.166004
0.857612 0.125112 0.075825
0.856174 0.124750 -0.137037
0.852528 0.124219 0.105783
0.836813 0.121929 -0.103833
0.846422 0.123178 0.135472
0.837939 0.121944 -0.074082
0.828149 0.120371 -0.043858
0.841054 0.122097 -0.014835
0.845106 0.122083 -0.228796
0.853014 0.123225 0.015044
0.844800 0.121888 -0.197057
0.836182 0.120645 0.044276
0.831682 0.119847 -0.163333
0.844024 0.121626 0.074605
0.854414 0.123123 -0.136724
0.854708 0.123013 0.106026
0.872392 0.125558 -0.108220
0.842725 0.121138 0.134847
0.828290 0.119063 -0.073211
0.875806 0.125738 -0.046370
0.845225 0.121197 -0.014904
0.833843 0.118970 -0.225690
0.847289 0.120889 0.014939
0.846920 0.120836 -0.197507
0.832437 0.118622 0.044067
0.837700 0.119372 -0.164477
0.838297 0.119457 0.074082
0.844849 0.120240 -0.135159
0.854900 0.121670 0.106026
0.837234 0.119007 -0.103833
0.852693 0.121204 0.136411
0.830449 0.118042 -0.073385
0.838431 0.119028 -0.044381
0.839475 0.119026 -0.014800
0.837855 0.118200 -0.226725
0.841538 0.118720 0.014835
0.845200 0.119086 -0.197057
0.836577 0.117871 0.044276
0.843740 0.118730 -0.165622
0.842450 0.118549 0.074431
0.835277 0.117391 -0.133595
0.853146 0.119902 0.105783
0.870838 0.122388 -0.107976
0.841166 0.118069 0.134534
0.828680 0.116316 -0.073211
0.836660 0.117287 -0.044276
0.845622 0.118393 -0.014904
0.845713 0.117804 -0.228796
0.851646 0.118630 0.015009
0.837686 0.116537 -0.195258
0.836782 0.116411 0.044276
0.855613 0.118878 -0.167912
0.852523 0.118449 0.075303
0.847221 0.117562 -0.135472
0.847455 0.117594 0.105051
0.843522 0.117048 -0.104564
0.860938 0.119312 0.137662
0.832829 0.115417 -0.073559
0.838841 0.116101 -0.044381
0.857713 0.118560 -0.015114
0.845917 0.116328 -0.228796
0.849871 0.116871 0.014974
0.834027 0.114544 -0.194358
0.835005 0.114679 0.044172
0.840259 0.115251 -0.164859
0.852728 0.116961 0.075303
0.843510 0.115547 -0.134847
0.855526 0.117193 0.106026
0.837825 0.114768 -0.103833
0.847445 0.115935 0.135472
0.842899 0.115313 -0.074431
0.831127 0.113555 -0.043962
0.846030 0.115441 -0.014904
0.842291 0.114332 -0.227761
0.856018 0.116195 0.015079
0.845812 0.114659 -0.197057
0.835204 0.113221 0.044172
0.840459 0.113784 -0.164859
0.856880 0.116007 0.075651
0.855456 0.115662 -0.136724
0.863598 0.116763 0.107001
0.841959 0.113838 -0.104320
0.847646 0.114455 0.135472
0.823355 0.111175 -0.072688
0.839242 0.113172 -0.044381
0.840285 0.113163 -0.014800
0.842489 0.112861 -0.227761
0.852256 0.114169 0.015009
0.859532 0.114991 -0.200206
0.841339 0.112557 0.044486
0.846494 0.113097 -0.166004
0.849182 0.113456 0.074954
0.836076 0.111556 -0.133595
0.867736 0.115781 0.107489
0.842156 0.112368 -0.104320
0.851760 0.113498 0.136098
0.821572 0.109475 -0.072514
0.851317 0.113288 -0.045009
0.840481 0.111696 -0.014800
0.842685 0.111390 -0.227761
0.840559 0.111110 0.014800
0.836547 0.110431 -0.194808
0.847475 0.111874 0.044800
0.850583 0.112132 -0.166767
0.849379 0.111974 0.074954
0.848021 0.111644 -0.135472
0.856128 0.112711 0.106026
0.873841 0.115043 -0.108220
0.863708 0.113556 0.137975
0.825713 0.108561 -0.072862
0.837651 0.109981 -0.044276
0.848606 0.111269 -0.014939
0.846709 0.110419 -0.228796
0.846701 0.110418 0.014904
0.838671 0.109222 -0.195258
0.845688 0.110136 0.044695
0.841043 0.109382 -0.164859
0.853524 0.111005 0.075303
0.836461 0.108637 -0.133595
0.850417 0.110450 0.105295
0.844512 0.109683 -0.104564
0.848233 0.110016 0.135472
0.829853 0.107632 -0.073211
0.873495 0.113137 -0.046160
0.850782 0.110044 -0.014974
0.850733 0.109434 -0.229831
0.852842 0.109706 0.015009
0.846592 0.108751 -0.197057
0.837955 0.107642 0.044276
0.843180 0.108163 -0.165241
0.861621 0.110529 0.076000
0.854283 0.109436 -0.136411
0.848640 0.108713 0.105051
0.846671 0.108461 -0.104808
0.858221 0.109789 0.137037
0.837945 0.107195 -0.073908
0.840011 0.107310 -0.044381
0.847006 0.108053 -0.014904
0.843256 0.106977 -0.227761
0.857000 0.108720 0.015079
0.837114 0.106049 -0.194808
0.834179 0.105677 0.044067
0.839472 0.106199 -0.164477
0.851930 0.107775 0.075128
0.848594 0.107203 -0.135472
0.858676 0.108476 0.106270
0.844889 0.106735 -0.104564
0.840773 0.106065 0.134221
0.834177 0.105233 -0.073559
0.836234 0.105344 -0.044172
0.837273 0.105327 -0.014730
0.839608 0.105025 -0.226725
0.851236 0.106480 0.014974
0.850834 0.106279 -0.197957
0.838326 0.104716 0.044276
0.847449 0.105706 -0.166004
0.848162 0.105795 0.074780
0.854660 0.106454 -0.136411
0.868713 0.108204 0.107489
0.849014 0.105750 -0.105051
0.852718 0.106061 0.136098
0.824474 0.102547 -0.072688
0.848309 0.105362 -0.044800
0.847378 0.105096 -0.014904
0.843624 0.104033 -0.227761
0.847451 0.104504 0.014904
0.837479 0.103127 -0.194808
0.842472 0.103742 0.044486
0.857375 0.105424 -0.167912
0.854278 0.105044 0.075303
0.841120 0.103277 -0.134221
0.861019 0.105720 0.106514
0.874811 0.107413 -0.108220
0.850941 0.104332 0.135785
0.830584 0.101836 -0.073211
0.844527 0.103396 -0.044590
0.849545 0.103860 -0.014939
0.843805 0.102560 -0.227761
0.849617 0.103266 0.014939
0.843461 0.102369 -0.196157
0.836703 0.101549 0.044172
0.853659 0.103455 -0.167149
0.854460 0.103553 0.075303
0.856988 0.103707 -0.136724
0.849378 0.102786 0.105051
0.841495 0.101832 -0.104076
0.864850 0.104505 0.137975
0.840650 0.101581 -0.074082
0.842723 0.101682 -0.044486
0.859651 0.103572 -0.015114
0.851655 0.102006 -0.229831
0.845825 0.101308 0.014869
0.845574 0.101128 -0.196607
0.832913 0.099614 0.043962
0.842142 0.100568 -0.164859
0.866510 0.103478 0.076348
0.841475 0.100340 -0.134221
0.857441 0.102244 0.106026
0.861383 0.102714 -0.106514
0.853262 0.101595 0.136098
0.844783 0.100585 -0.074431
0.844882 0.100447 -0.044590
0.857845 0.101837 -0.015079
0.847995 0.100067 -0.228796
0.855930 0.101003 0.015044
0.841878 0.099196 -0.195707
0.831102 0.097926 0.043858
0.840367 0.098869 -0.164477
0.850859 0.100104 0.074954
0.855382 0.100485 -0.136411
0.865504 0.101674 0.107001
0.847760 0.099589 -0.104808
0.841666 0.098724 0.134221
0.831106 0.097485 -0.073211
0.841089 0.098508 -0.044381
0.840146 0.098249 -0.014765
0.836655 0.097248 -0.225690
0.850146 0.098816 0.014939
0.857536 0.099524 -0.199307
0.835240 0.096936 0.044067
0.848339 0.098307 -0.166004
0.847074 0.098160 0.074605
0.837896 0.096948 -0.133595
0.861736 0.099706 0.106514
0.842017 0.097425 -0.104076
0.855574 0.098842 0.136411
0.833254 0.096263 -0.073385
0.841260 0.097040 -0.044381
0.844289 0.097240 -0.014835
0.844500 0.096667 -0.227761
0.850317 0.097333 0.014939
0.851900 0.097363 -0.197957
0.851282 0.097293 0.044904
0.854361 0.097493 -0.167149
0.855163 0.097585 0.075303
0.843952 0.096156 -0.134534
0.857964 0.097753 0.106026
0.881632 0.100449 -0.108951
0.855745 0.097349 0.136411
0.827482 0.094133 -0.072862
0.841428 0.095571 -0.044381
0.846445 0.095991 -0.014869
0.848507 0.095625 -0.228796
0.854460 0.096296 0.015009
0.828830 0.093261 -0.192558
0.841527 0.094690 0.044381
0.858432 0.096440 -0.167912
0.855331 0.096092 0.075303
0.842155 0.094463 -0.134221
0.858134 0.096255 0.106026
0.848270 0.095149 -0.104808
0.861803 0.096515 0.137349
0.841505 0.094241 -0.074082
0.841593 0.094103 -0.044381
0.848598 0.094735 -0.014904
0.852513 0.094570 -0.229831
0.858602 0.095246 0.015079
0.844487 0.093531 -0.196157
0.831766 0.092122 0.043858
0.850793 0.094079 -0.166385
0.863419 0.095475 0.076000
0.858026 0.094727 -0.136724
0.862247 0.095193 0.106514
0.842516 0.093015 -0.104076
0.846262 0.093279 0.134847
0.849590 0.093646 -0.074780
0.843741 0.092852 -0.044486
0.850750 0.093473 -0.014939
0.844995 0.092244 -0.227761
0.862742 0.094181 0.015149
0.850461 0.092690 -0.197507
0.825969 0.090021 0.043544
0.839246 0.091320 -0.164096
0.859623 0.093537 0.075651
0.850319 0.092525 -0.135472
0.866358 0.094117 0.107001
0.870305 0.094545 -0.107489
0.844460 0.091589 0.134534
0.831925 0.090229 -0.073211
0.851845 0.092239 -0.044904
0.846936 0.091558 -0.014869
0.845155 0.090769 -0.227761
0.854953 0.091821 0.015009
0.848668 0.091146 -0.197057
0.838040 0.089857 0.044172
0.845244 0.090629 -0.165241
0.857788 0.091974 0.075477
0.862264 0.092302 -0.137349
0.866505 0.092756 0.107001
0.850731 0.090917 -0.105051
0.852459 0.091102 0.135785
0.832066 0.088922 -0.073211
0.850003 0.090689 -0.044800
0.849067 0.090439 -0.014904
0.849138 0.089848 -0.228796
0.851119 0.090057 0.014939
0.850763 0.089869 -0.197507
0.852083 0.090009 0.044904
0.859068 0.090595 -0.167912
0.855966 0.090268 0.075303
0.842779 0.088728 -0.134221
0.858769 0.090412 0.106026
0.880485 0.092698 -0.108707
0.860475 0.090440 0.137037
0.832219 0.087470 -0.073211
0.846187 0.088789 -0.044590
0.847235 0.088749 -0.014869
0.849294 0.088365 -0.228796
0.851274 0.088572 0.014939
0.845104 0.087780 -0.196157
0.832373 0.086458 0.043858
0.863131 0.089501 -0.168675
0.856122 0.088774 0.075303
0.852757 0.088275 -0.135785
0.862875 0.089322 0.106514
0.853002 0.088300 -0.105295
0.860632 0.088937 0.137037
0.842280 0.087041 -0.074082
0.838394 0.086492 -0.044172
0.861312 0.088704 -0.015114
0.853290 0.087276 -0.229831
0.855406 0.087492 0.015009
0.851072 0.086899 -0.197507
0.830536 0.084802 0.043753
0.855473 0.087197 -0.167149
0.862222 0.087885 0.075825
0.850944 0.086586 -0.135472
0.866979 0.088217 0.107001
0.866979 0.088217 -0.107001
0.858820 0.087236 0.136724
0.842431 0.085571 -0.074082
0.850466 0.086237 -0.044800
0.853508 0.086395 -0.014974
0.849597 0.085401 -0.228796
0.863516 0.086800 0.015149
0.857039 0.085997 -0.198857
0.836645 0.083951 0.044067
0.841950 0.084335 -0.164477
0.852462 0.085388 0.074954
0.860922 0.086084 -0.137037
0.849354 0.084927 0.104808
0.845404 0.084532 -0.104320
0.853075 0.085148 0.135785
0.842579 0.084101 -0.074082
0.840678 0.083763 -0.044276
0.847688 0.084312 -0.014869
0.845900 0.083538 -0.227761
0.857697 0.084703 0.015044
0.857188 0.084501 -0.198857
0.840765 0.082882 0.044276
0.853818 0.084019 -0.166767
0.854592 0.084095 0.075128
0.847310 0.083229 -0.134847
0.863330 0.084803 0.106514
0.873208 0.085773 -0.107733
0.863052 0.084623 0.137349
0.834793 0.081852 -0.073385
0.850762 0.083268 -0.044800
0.845843 0.082638 -0.014835
0.846044 0.082061 -0.227761
0.849882 0.082433 0.014904
0.849576 0.082254 -0.197057
0.840909 0.081415 0.044276
0.852009 0.082340 -0.166385
0.854738 0.082603 0.075128
0.861217 0.083078 -0.137037
0.863477 0.083296 0.106514
0.867429 0.083677 -0.107001
0.847468 0.081602 0.134847
0.836918 0.080586 -0.073559
0.840965 0.080828 -0.044276
0.857930 0.082307 -0.015044
0.853879 0.081317 -0.229831
0.857987 0.081708 0.015044
0.836138 0.079480 -0.193908
0.839061 0.079758 0.044172
0.867788 0.082336 -0.169438
0.856864 0.081300 0.075303
0.839729 0.079525 -0.133595
0.859669 0.081414 0.106026
0.857692 0.081227 -0.105783
0.859409 0.081238 0.136724
0.835073 0.078938 -0.073385
0.845082 0.079735 -0.044486
0.856081 0.080622 -0.015009
0.857866 0.080186 -0.230867
0.862110 0.080583 0.015114
0.851798 0.079469 -0.197507
0.831245 0.077552 0.043753
0.850337 0.079183 -0.166004
0.862956 0.080358 0.075825
0.859535 0.079888 -0.136724
0.875622 0.081383 0.107976
0.842020 0.078260 -0.103833
0.847748 0.078644 0.134847
0.845129 0.078401 -0.074257
0.845220 0.078260 -0.044486
0.854229 0.078944 -0.014974
0.854158 0.078336 -0.229831
0.854284 0.078348 0.014974
0.840292 0.076916 -0.194808
0.835357 0.076464 0.043962
0.850474 0.077699 -0.166004
0.855159 0.078127 0.075128
0.855739 0.078029 -0.136098
0.855994 0.078053 0.105539
0.865878 0.078954 -0.106758
0.851818 0.077522 0.135472
0.829391 0.075481 -0.072862
0.853311 0.077507 -0.044904
0.848391 0.076911 -0.014869
0.850445 0.076499 -0.228796
0.852428 0.076677 0.014939
0.859834 0.077192 -0.199307
0.839467 0.075364 0.044172
0.842786 0.075513 -0.164477
0.847356 0.075922 0.074431
0.863744 0.077239 -0.137349
0.875901 0.078326 0.107976
0.854151 0.076381 -0.105295
0.859822 0.076737 0.136724
0.833491 0.074387 -0.073211
0.857424 0.076372 -0.045114
0.856492 0.076139 -0.015009
0.842879 0.074336 -0.226725
0.854553 0.075365 0.014974
0.854144 0.075178 -0.197957
0.847556 0.074599 0.044590
0.848784 0.074558 -0.165622
0.847487 0.074444 0.074431
0.852070 0.074697 -0.135472
0.860216 0.075411 0.106026
0.850329 0.074544 -0.104808
0.854051 0.074720 0.135785
0.833619 0.072932 -0.073211
0.851587 0.074355 -0.044800
0.854631 0.074470 -0.014974
0.850707 0.073529 -0.228796
0.858667 0.074218 0.015044
0.852332 0.073521 -0.197507
0.841715 0.072605 0.044276
0.858693 0.073918 -0.167530
0.861511 0.074161 0.075651
0.852199 0.073209 -0.135472
0.852435 0.073229 0.105051
0.846502 0.072720 -0.104320
0.865989 0.074241 0.137662
0.845656 0.072498 -0.074257
0.839776 0.071847 -0.044172
0.860737 0.073488 -0.015079
0.858534 0.072697 -0.230867
0.864773 0.073225 0.015149
0.844692 0.071377 -0.195707
0.829899 0.070127 0.043648
0.864690 0.072914 -0.168675
0.865610 0.072992 0.076000
0.856263 0.072053 -0.136098
0.864430 0.072740 0.106514
0.858496 0.072241 -0.105783
0.854307 0.071739 0.135785
0.849752 0.071356 -0.074605
0.843880 0.070714 -0.044381
0.854886 0.071486 -0.014974
0.850958 0.070560 -0.228796
0.864900 0.071716 0.015149
0.854526 0.070705 -0.197957
0.837983 0.069337 0.044067
0.847206 0.069951 -0.165241
0.859779 0.070989 0.075477
0.866231 0.071370 -0.137662
0.860599 0.070906 0.106026
0.856642 0.070580 -0.105539
0.854431 0.070247 0.135785
0.833990 0.068567 -0.073211
0.845993 0.069405 -0.044486
0.855009 0.069995 -0.014974
0.843378 0.068449 -0.226725
0.857051 0.069559 0.015009
0.868244 0.070315 -0.201106
0.842084 0.068196 0.044276
0.851241 0.068788 -0.166004
0.853944 0.069006 0.074954
0.848633 0.068429 -0.134847
0.872594 0.070361 0.107489
0.876551 0.070680 -0.107976
0.854552 0.068756 0.135785
0.830136 0.066791 -0.072862
0.842131 0.067608 -0.044276
0.847157 0.067863 -0.014835
0.847348 0.067283 -0.227761
0.853184 0.067747 0.014939
0.860595 0.068184 -0.199307
0.848175 0.067200 0.044590
0.861145 0.068076 -0.167912
0.856049 0.067673 0.075128
0.860567 0.067879 -0.136724
0.850947 0.067121 0.104808
0.860841 0.067901 -0.106026
0.860579 0.067729 0.136724
0.848128 0.066749 -0.074431
0.850212 0.066764 -0.044695
0.865216 0.067790 -0.015149
0.855168 0.066402 -0.229831
0.857289 0.066567 0.015009
0.849055 0.065779 -0.196607
0.844308 0.065411 0.044381
0.861263 0.066573 -0.167912
0.858152 0.066333 0.075303
0.860684 0.066377 -0.136724
0.864917 0.066704 0.106514
0.862938 0.066551 -0.106270
0.864635 0.066530 0.137349
0.844270 0.064963 -0.074082
0.848336 0.065127 -0.044590
0.863339 0.066127 -0.015114
0.855283 0.064910 -0.229831
0.865379 0.065676 0.015149
0.854998 0.064738 -0.197957
0.832471 0.063033 0.043753
0.853547 0.064478 -0.166385
0.862240 0.065135 0.075651
0.860798 0.064875 -0.136724
0.865032 0.065194 0.106514
0.845237 0.063702 -0.104076
0.856870 0.064429 0.136098
0.848356 0.063789 -0.074431
0.846457 0.063497 -0.044486
0.851489 0.063725 -0.014904
0.851542 0.063131 -0.228796
0.865493 0.064165 0.015149
0.851223 0.062958 -0.197057
0.840547 0.062169 0.044172
0.841911 0.062122 -0.164096
0.858379 0.063337 0.075303
0.864850 0.063663 -0.137349
0.873064 0.064267 0.107489
0.877023 0.064559 -0.107976
0.853041 0.062644 0.135472
0.840517 0.061724 -0.073734
0.858518 0.062895 -0.045114
0.845616 0.061802 -0.014800
0.847797 0.061366 -0.227761
0.857625 0.062077 0.015009
0.857163 0.061894 -0.198407
0.842647 0.060845 0.044276
0.859641 0.061921 -0.167530
0.852526 0.061409 0.074780
0.864960 0.062153 -0.137349
0.877134 0.063028 0.107976
0.859314 0.061747 -0.105783
0.851179 0.061013 0.135159
0.830687 0.059545 -0.072862
0.856634 0.061254 -0.045009
0.853701 0.060895 -0.014939
0.851757 0.060158 -0.228796
0.851748 0.060158 0.014904
0.847550 0.059712 -0.196157
0.848729 0.059795 0.044590
0.867582 0.060972 -0.169057
0.858595 0.060340 0.075303
0.845362 0.059262 -0.134221
0.865362 0.060664 0.106514
0.869322 0.060942 -0.107001
0.863107 0.060354 0.137037
0.838740 0.058650 -0.073559
0.856740 0.059759 -0.045009
0.863780 0.060099 -0.015114
0.851860 0.058671 -0.228796
0.853847 0.058808 0.014939
0.845709 0.058100 -0.195707
0.844847 0.058041 0.044381
0.861811 0.059055 -0.167912
0.864662 0.059250 0.075825
0.859260 0.058729 -0.136411
0.861505 0.058883 0.106026
0.879330 0.060101 -0.108220
0.867153 0.059117 0.137662
0.840829 0.057322 -0.073734
0.842894 0.057315 -0.044276
0.863884 0.058591 -0.015114
0.863527 0.057961 -0.231902
0.857939 0.057586 0.015009
0.849698 0.056884 -0.196607
0.832990 0.055765 0.043753
0.854077 0.057027 -0.166385
0.866752 0.057874 0.076000
0.853448 0.056836 -0.135472
0.865568 0.057643 0.106514
0.851703 0.056719 -0.104808
0.859371 0.057079 0.136411
0.848880 0.056383 -0.074431
0.852957 0.056504 -0.044800
0.857998 0.056687 -0.015009
0.855915 0.055950 -0.229831
0.862029 0.056349 0.015079
0.857574 0.055908 -0.198407
0.835079 0.054441 0.043858
0.850257 0.055282 -0.165622
0.856911 0.055714 0.075128
0.867344 0.056241 -0.137662
0.873591 0.056646 0.107489
0.855763 0.055490 -0.105295
0.859469 0.055580 0.136411
0.845001 0.054644 -0.074082
0.855048 0.055144 -0.044904
0.852109 0.054805 -0.014904
0.848300 0.053965 -0.227761
0.870108 0.055353 0.015218
0.861560 0.054658 -0.199307
0.837166 0.053110 0.043962
0.858190 0.054293 -0.167149
0.855018 0.054093 0.074954
0.857574 0.054254 -0.136098
0.873689 0.055121 0.107489
0.849915 0.053621 -0.104564
0.859565 0.054080 0.136411
0.833164 0.052419 -0.073037
0.851156 0.053401 -0.044695
0.852204 0.053318 -0.014904
0.852249 0.052723 -0.228796
0.846253 0.052352 0.014800
0.851920 0.052703 -0.197057
0.833270 0.051403 0.043753
0.858274 0.052945 -0.167149
0.865045 0.053363 0.075825
0.859639 0.052879 -0.136411
0.861886 0.053018 0.106026
0.883690 0.054204 -0.108707
0.867535 0.053213 0.137662
0.839211 0.051475 -0.073559
0.851239 0.052064 -0.044695
0.856278 0.052223 -0.014974
0.860044 0.051849 -0.230867
0.854319 0.051504 0.014939
0.852010 0.051216 -0.197057
0.835344 0.050214 0.043858
0.866204 0.051918 -0.168675
0.861159 0.051615 0.075477
0.849871 0.050789 -0.134847
0.861977 0.051513 0.106026
0.854060 0.050890 -0.105051
0.869599 0.051816 0.137975
0.849244 0.050603 -0.074431
0.847341 0.050341 -0.044486
0.860361 0.050964 -0.015044
0.863999 0.050423 -0.231902
0.866394 0.050563 0.015149
0.861826 0.050296 -0.199307
0.833445 0.048494 0.043753
0.858454 0.049949 -0.167149
0.867224 0.050308 0.076000
0.871651 0.050564 -0.138288
0.870002 0.050316 0.107001
0.871984 0.050431 -0.107245
0.859827 0.049728 0.136411
0.845361 0.048743 -0.074082
0.839460 0.048256 -0.044067
0.856464 0.049084 -0.014974
0.856371 0.048479 -0.229831
0.872470 0.049390 0.015253
0.856084 0.048312 -0.197957
0.837516 0.047265 0.043962
0.852667 0.047970 -0.166004
0.867310 0.048794 0.076000
0.857932 0.048266 -0.136098
0.870088 0.048798 0.107001
0.864142 0.048465 -0.106270
0.854004 0.047746 0.135472
0.835499 0.046712 -0.073211
0.849514 0.047346 -0.044590
0.856548 0.047589 -0.014974
0.848739 0.046561 -0.227761
0.858578 0.047100 0.015009
0.861996 0.047288 -0.199307
0.841586 0.046021 0.044172
0.858623 0.046952 -0.167149
0.859428 0.046996 0.075303
0.859988 0.046876 -0.136411
0.886021 0.048295 0.108951
0.868190 0.047172 -0.106758
0.856051 0.046512 0.135785
0.831592 0.045183 -0.072862
0.889474 0.048172 -0.046684
0.848635 0.045812 -0.014835
0.852669 0.045433 -0.228796
0.854657 0.045539 0.014939
0.854293 0.045370 -0.197507
0.841657 0.044699 0.044172
0.864585 0.045765 -0.168294
0.859509 0.045496 0.075303
0.858096 0.045272 -0.136098
0.866281 0.045703 0.106514
0.868263 0.045808 -0.106758
0.854158 0.044914 0.135472
0.843608 0.044359 -0.073908
0.845677 0.044320 -0.044381
0.860695 0.044957 -0.015044
0.856606 0.044143 -0.229831
0.858730 0.044253 0.015009
0.848532 0.043579 -0.196157
0.839739 0.043127 0.044067
0.870545 0.044557 -0.169438
0.867546 0.044404 0.076000
0.862119 0.043975 -0.136724
0.870324 0.044393 0.107001
0.868342 0.044292 -0.106758
0.875936 0.044526 0.138914
0.845674 0.042988 -0.074082
0.845753 0.042844 -0.044381
0.864767 0.043656 -0.015114
0.860540 0.042840 -0.230867
0.862800 0.042953 0.015079
0.854446 0.042388 -0.197507
0.837819 0.041563 0.043962
0.864739 0.042747 -0.168294
0.875582 0.043283 0.076697
0.858248 0.042276 -0.136098
0.866435 0.042679 0.106514
0.848591 0.041800 -0.104320
0.862202 0.042319 0.136724
0.853707 0.041902 -0.074780
0.841837 0.041173 -0.044172
0.860847 0.041952 -0.015044
0.852895 0.040967 -0.228796
0.874858 0.042022 0.015288
0.864251 0.041362 -0.199757
0.837890 0.040100 0.043962
0.855007 0.040770 -0.166385
0.859735 0.040996 0.075303
0.874106 0.041527 -0.138601
0.874439 0.041543 0.107489
0.860559 0.040884 -0.105783
0.854382 0.040441 0.135472
0.845819 0.040036 -0.074082
0.883804 0.041679 -0.046370
0.852929 0.040074 -0.014904
0.845246 0.039121 -0.226725
0.866940 0.040126 0.015149
0.864322 0.039854 -0.199757
0.841949 0.038822 0.044172
0.860961 0.039548 -0.167530
0.855825 0.039312 0.074954
0.858391 0.039279 -0.136098
0.874511 0.040017 0.107489
0.860629 0.039382 -0.105783
0.866291 0.039490 0.137349
0.837926 0.038197 -0.073385
0.857937 0.038959 -0.045009
0.851000 0.038495 -0.014869
0.853033 0.037990 -0.228796
0.855022 0.038079 0.014939
0.866337 0.038431 -0.200206
0.853987 0.037883 0.044800
0.857106 0.037872 -0.166767
0.863854 0.038170 0.075651
0.860431 0.037869 -0.136411
0.866646 0.038142 0.106514
0.878545 0.038666 -0.107976
0.864385 0.037891 0.137037
0.839982 0.036821 -0.073559
0.846032 0.036939 -0.044381
0.865051 0.037618 -0.015114
0.860818 0.036832 -0.230867
0.867074 0.037099 0.015149
0.852774 0.036338 -0.197057
0.840084 0.035798 0.044067
0.872863 0.037042 -0.169820
0.867901 0.036832 0.076000
0.858523 0.036283 -0.136098
0.870678 0.036797 0.107001
0.870678 0.036797 -0.107001
0.866423 0.036466 0.137349
0.846017 0.035607 -0.074082
0.846095 0.035462 -0.044381
0.865115 0.036108 -0.015114
0.864742 0.035488 -0.231902
0.867138 0.035586 0.015149
0.860625 0.035168 -0.198857
0.834158 0.034086 0.043753
0.865079 0.035199 -0.168294
0.875927 0.035640 0.076697
0.868453 0.035185 -0.137662
0.876692 0.035518 0.107733
0.860824 0.034875 -0.105783
0.864512 0.034873 0.137037
0.862004 0.034772 -0.075477
0.860125 0.034546 -0.045114
0.865177 0.034598 -0.015114
0.860942 0.033826 -0.230867
0.875191 0.034386 0.015288
0.856791 0.033514 -0.197957
0.838208 0.032787 0.043962
0.859254 0.033460 -0.167149
0.868024 0.033802 0.076000
0.866540 0.033592 -0.137349
0.862867 0.033450 0.106026
0.860883 0.033373 -0.105783
0.854702 0.032984 0.135472
0.842154 0.032500 -0.073734
0.858188 0.032969 -0.045009
0.857243 0.032782 -0.014974
0.853277 0.032034 -0.228796
0.863260 0.032409 0.015079
0.862690 0.032237 -0.199307
0.846247 0.031622 0.044381
0.865197 0.032179 -0.168294
0.858127 0.031916 0.075128
0.868571 0.032153 -0.137662
0.874826 0.032384 0.107489
0.858957 0.031797 -0.105539
0.862654 0.031783 0.136724
0.840218 0.030957 -0.073559
0.858245 0.031470 -0.045009
0.853302 0.031140 -0.014904
0.861054 0.030821 -0.230867
0.863316 0.030902 0.015079
0.854955 0.030453 -0.197507
0.854285 0.030429 0.044800
0.863290 0.030599 -0.167912
0.872119 0.030912 0.076348
0.854807 0.030150 -0.135472
0.874882 0.030858 0.107489
0.874882 0.030858 -0.107489
0.860734 0.030208 0.136411
0.840271 0.029490 -0.073559
0.884247 0.030879 -0.046370
0.861349 0.029929 -0.015044
0.861107 0.029318 -0.230867
0.859371 0.029259 0.015009
0.853059 0.028895 -0.197057
0.842360 0.028533 0.044172
0.877077 0.029556 -0.170583
0.864207 0.029122 0.075651
0.866704 0.029055 -0.137349
0.866998 0.029064 0.106514
0.880886 0.029530 -0.108220
0.876580 0.029232 0.138914
0.844304 0.028156 -0.073908
0.852361 0.028275 -0.044695
0.869394 0.028689 -0.015184
0.865018 0.027940 -0.231902
0.867415 0.028018 0.015149
0.853108 0.027406 -0.197057
0.865354 0.027649 -0.168294
0.872222 0.027868 0.076348
0.868727 0.027605 -0.137662
0.874984 0.027803 0.107489
0.853159 0.027110 -0.104808
0.860835 0.027203 0.136411
0.856300 0.027060 -0.074954
0.894331 0.028106 -0.046893
0.863447 0.026984 -0.015079
0.865066 0.026430 -0.231902
0.875458 0.026748 0.015288
0.860946 0.026154 -0.198857
0.840458 0.025532 0.044067
0.861476 0.026020 -0.167530
0.862311 0.026045 0.075477
0.872723 0.026207 -0.138288
0.875031 0.026276 0.107489
0.867095 0.026038 -0.106514
0.862855 0.025760 0.136724
0.842405 0.025150 -0.073734
0.856447 0.025419 -0.044904
0.859495 0.025359 -0.015009
0.853524 0.024587 -0.228796
0.863510 0.024874 0.015079
0.864886 0.024763 -0.199757
0.840502 0.024065 0.044067
0.867407 0.024683 -0.168675
0.862356 0.024540 0.075477
0.858945 0.024293 -0.136098
0.879044 0.024861 0.107976
0.881029 0.024917 -0.108220
0.860924 0.024199 0.136411
0.848423 0.023847 -0.074257
0.858487 0.023980 -0.045009
0.853541 0.023693 -0.014904
0.861291 0.023306 -0.230867
0.863552 0.023367 0.015079
0.855188 0.022991 -0.197507
0.848529 0.022812 0.044486
0.863524 0.023065 -0.167912
0.868372 0.023194 0.076000
0.866885 0.023003 -0.137349
0.871149 0.023116 0.107001
0.879086 0.023327 -0.107976
0.866889 0.022852 0.137349
0.840496 0.022156 -0.073559
0.860524 0.022534 -0.045114
0.859578 0.022359 -0.015009
0.861330 0.021803 -0.230867
0.863592 0.021860 0.015079
0.861071 0.021646 -0.198857
0.840581 0.021131 0.044067
0.871413 0.021754 -0.169438
0.864428 0.021579 0.075651
0.862975 0.021392 -0.136724
0.867219 0.021497 0.106514
0.865234 0.021448 -0.106270
0.872852 0.021485 0.138288
0.850493 0.020934 -0.074431
0.882525 0.021568 -0.046265
0.867612 0.021053 -0.015149
0.869092 0.020482 -0.232937
0.867627 0.020447 0.015149
0.861108 0.020143 -0.198857
0.838619 0.019617 0.043962
0.857711 0.019914 -0.166767
0.868448 0.020163 0.076000
0.872885 0.020114 -0.138288
0.871224 0.020075 0.107001
0.867255 0.019984 -0.106514
0.864989 0.019780 0.137037
0.848536 0.019404 -0.074257
0.860597 0.019530 -0.045114
0.855653 0.019268 -0.014939
0.861401 0.018796 -0.230867
0.875658 0.019107 0.015288
0.866986 0.018767 -0.200206
0.836656 0.018110 0.043858
0.861670 0.018501 -0.167530
0.868482 0.018647 0.076000
0.870940 0.018700 -0.137975
0.883166 0.018808 0.108464
0.869273 0.018512 -0.106758
0.861072 0.018188 0.136411
0.848569 0.017924 -0.074257
0.878601 0.018404 -0.046056
0.855685 0.017775 -0.014939
0.853707 0.017137 -0.228796
0.863694 0.017338 0.015079
0.868963 0.017444 -0.200656
0.850664 0.016928 0.044590
0.863661 0.017186 -0.167912
0.860542 0.017124 0.075303
0.870972 0.017180 -0.137975
0.871286 0.017186 0.107001
0.873274 0.017073 -0.107245
0.865050 0.016912 0.137037
0.844612 0.016512 -0.073908
0.862654 0.016714 -0.045218
0.857711 0.016469 -0.014974
0.861458 0.015939 -0.230867
0.855723 0.015833 0.014939
0.863147 0.015820 -0.199307
0.852686 0.015628 0.044695
0.869578 0.015786 -0.169057
0.868539 0.015767 0.076000
0.859150 0.015447 -0.136098
0.879254 0.015808 0.107976
0.879254 0.015808 -0.107976
0.876928 0.015613 0.138914
0.842647 0.015003 -0.073734
0.848703 0.014963 -0.044486
0.859738 0.015007 -0.015009
0.857622 0.014371 -0.229831
0.867746 0.014541 0.015149
0.857328 0.014217 -0.197957
0.850715 0.014107 0.044590
0.871568 0.014301 -0.169438
0.876533 0.014382 0.076697
0.871026 0.014140 -0.137975
0.867371 0.014080 0.106514
0.873326 0.014177 -0.107245
0.876954 0.014083 0.138914
0.846656 0.013596 -0.074082
0.852722 0.013545 -0.044695
0.869760 0.013663 -0.015184
0.869235 0.013048 -0.232937
0.867770 0.013026 0.015149
0.867094 0.012864 -0.200206
0.836760 0.012414 0.043858
0.871591 0.012779 -0.169438
0.870581 0.012764 0.076174
0.869075 0.012591 -0.137662
0.879304 0.012739 0.107976
0.853500 0.012365 -0.104808
0.869077 0.012439 0.137662
0.862616 0.012346 -0.075477
0.850747 0.012028 -0.044590
0.857786 0.011978 -0.014974
0.865393 0.011480 -0.231902
0.871791 0.011565 0.015218
0.865167 0.011326 -0.199757
0.848762 0.011111 0.044486
