# This PCD file was generated using the MATLAB® pcwrite function
# from Computer Vision System Toolbox®.
# .PCD v.7 - Point Cloud Data file format
VERSION .7
FIELDS x y z
SIZE 4 4 4
TYPE F F F
COUNT 1 1 1
WIDTH 1670
HEIGHT 1
VIEWPOINT 0 0 0 1 0 0 0
POINTS 1670
DATA ascii
2.037065 -0.113176 0.178495
2.029513 -0.113112 -0.321942
2.043459 -0.113889 0.251295
2.047423 -0.114110 -0.251782
2.037382 -0.113907 0.323194
2.007186 -0.112219 -0.175880
2.039990 -0.114410 -0.107079
2.038466 -0.114682 -0.035638
2.034392 -0.115877 0.035568
2.025336 -0.115716 -0.468348
2.015941 -0.115179 0.105823
2.034520 -0.116597 -0.396120
2.038854 -0.116846 0.178669
2.029333 -0.116300 -0.321942
2.043257 -0.117456 0.251295
2.049203 -0.117797 -0.252026
2.047041 -0.118032 0.324758
2.020911 -0.116525 -0.177100
2.027824 -0.117279 -0.106451
2.040259 -0.118355 -0.035673
2.038179 -0.119662 0.035638
2.027097 -0.119012 -0.468798
2.011750 -0.118463 0.105614
2.040214 -0.120139 -0.397264
2.042646 -0.120282 0.179018
2.029127 -0.119842 -0.321942
2.039107 -0.120431 0.250807
2.041068 -0.120904 -0.251051
2.042909 -0.121013 0.324132
2.022715 -0.119817 -0.177275
2.025644 -0.120345 -0.106347
2.044063 -0.121798 -0.035743
2.049965 -0.123586 0.035847
2.026886 -0.122549 -0.468798
2.007574 -0.121382 0.105405
2.045880 -0.124056 -0.398409
2.040444 -0.123727 0.178844
2.036801 -0.123862 -0.323194
2.042856 -0.124231 0.251295
2.038893 -0.123990 -0.250807
2.030865 -0.123857 0.322255
2.026480 -0.123590 -0.177623
2.029418 -0.124124 -0.106556
2.041851 -0.125243 -0.035708
2.045755 -0.126916 0.035777
2.028614 -0.126208 -0.469248
2.011346 -0.125133 0.105614
2.035863 -0.127015 -0.396501
2.040225 -0.127288 0.178844
2.040525 -0.127664 -0.323819
2.042636 -0.127796 0.251295
2.044618 -0.127920 -0.251538
2.038532 -0.127896 0.323507
2.028250 -0.127251 -0.177798
2.033185 -0.127917 -0.106765
2.033646 -0.128303 -0.035568
2.041539 -0.130231 0.035708
2.034225 -0.130121 -0.470598
2.023083 -0.129409 0.106242
2.027801 -0.130066 -0.394975
2.032046 -0.130338 0.178146
2.026500 -0.130338 -0.321629
2.058258 -0.132380 0.253245
2.058258 -0.132380 -0.253245
2.042248 -0.131708 0.324132
2.008142 -0.129509 -0.176055
2.050896 -0.132625 -0.107707
2.035415 -0.131981 -0.035603
2.029336 -0.133010 0.035498
2.030106 -0.133416 -0.469698
2.020862 -0.132808 0.106137
2.037366 -0.134250 -0.396883
2.029828 -0.133754 0.177972
2.026270 -0.133874 -0.321629
2.046139 -0.135187 0.251782
2.048120 -0.135318 -0.252026
2.040044 -0.135142 0.323819
2.017853 -0.133672 -0.176926
2.046676 -0.135940 -0.107498
2.049148 -0.136464 -0.035847
2.039077 -0.137223 0.035673
2.025981 -0.136697 -0.468798
2.020627 -0.136335 0.106137
2.041046 -0.138071 -0.397646
2.045494 -0.138372 0.179367
2.029975 -0.137678 -0.322255
2.030056 -0.137683 0.249832
2.035998 -0.138086 -0.250563
2.053601 -0.139640 0.326009
2.017617 -0.137194 -0.176926
2.014553 -0.137338 -0.105823
2.042922 -0.139631 -0.035743
2.042824 -0.141057 0.035743
2.029628 -0.140502 -0.469698
1.994483 -0.138069 0.104777
2.040802 -0.141633 -0.397646
2.047237 -0.142080 0.179541
2.035643 -0.141632 -0.323194
2.037734 -0.141777 0.250807
2.023872 -0.140813 -0.249101
2.043501 -0.142537 0.324445
2.025324 -0.141269 -0.177623
2.042204 -0.142805 -0.107289
2.042675 -0.143196 -0.035743
2.054543 -0.145469 0.035952
2.033267 -0.144320 -0.470598
2.006193 -0.142398 0.105405
2.028802 -0.144359 -0.395356
2.044998 -0.145511 0.179367
2.039334 -0.145466 -0.323819
2.045403 -0.145899 0.251782
2.035503 -0.145193 -0.250563
2.043249 -0.146103 0.324445
2.013150 -0.143951 -0.176578
2.022030 -0.144941 -0.106242
2.038433 -0.146474 -0.035673
2.044314 -0.148332 0.035777
2.044674 -0.148716 -0.473297
2.027853 -0.147493 0.106556
2.038337 -0.148613 -0.397264
2.040767 -0.148790 0.179018
2.037106 -0.148881 -0.323507
2.051085 -0.149902 0.252513
2.041186 -0.149179 -0.251295
2.041021 -0.149525 0.324132
2.012896 -0.147465 -0.176578
2.051652 -0.150664 -0.107812
2.038174 -0.150032 -0.035673
2.038069 -0.151455 0.035673
2.034694 -0.151561 -0.471048
2.021617 -0.150587 0.106242
2.036117 -0.152024 -0.396883
2.038517 -0.152204 0.178844
2.038813 -0.152583 -0.323819
2.042902 -0.152889 0.251538
2.044882 -0.153038 -0.251782
2.046666 -0.153530 0.325071
2.024557 -0.151872 -0.177623
2.049395 -0.154095 -0.107707
2.041898 -0.153889 -0.035743
2.049765 -0.155922 0.035882
2.024711 -0.154371 -0.468798
2.027326 -0.154571 0.106556
2.049551 -0.156625 -0.399554
2.046195 -0.156368 0.179541
2.030666 -0.155538 -0.322568
2.038674 -0.156152 0.251051
2.040653 -0.156303 -0.251295
2.054274 -0.157707 0.326322
2.016342 -0.154795 -0.176926
2.049122 -0.157671 -0.107707
2.051594 -0.158222 -0.035917
2.053477 -0.159809 0.035952
2.039981 -0.159117 -0.472397
2.005150 -0.156400 0.105405
2.037531 -0.159284 -0.397264
2.047905 -0.160095 0.179715
2.032360 -0.159236 -0.322881
2.046314 -0.160330 0.252026
2.038398 -0.159709 -0.251051
2.055964 -0.161447 0.326635
2.031959 -0.159562 -0.178321
2.052826 -0.161561 -0.107917
2.045335 -0.161331 -0.035812
2.055189 -0.163552 0.035987
2.035815 -0.162367 -0.471497
2.010846 -0.160376 0.105719
2.035293 -0.162683 -0.396883
2.039679 -0.163034 0.179018
2.047832 -0.164045 -0.325384
2.049989 -0.164218 0.252513
2.042074 -0.163584 -0.251538
2.043865 -0.164086 0.324758
2.015790 -0.161832 -0.176926
2.028651 -0.163221 -0.106661
2.041064 -0.164579 -0.035743
2.042942 -0.166166 0.035777
2.053010 -0.167345 -0.475547
2.018526 -0.164534 0.106137
2.036963 -0.166395 -0.397264
2.037405 -0.166431 0.178844
2.041636 -0.167136 -0.324445
2.047721 -0.167634 0.252270
2.041785 -0.167148 -0.251538
2.053420 -0.168461 0.326322
2.019475 -0.165676 -0.177275
2.064193 -0.169708 -0.108545
2.044759 -0.168469 -0.035812
2.044641 -0.169897 0.035812
2.037178 -0.169634 -0.471947
2.038140 -0.169715 0.107184
2.048408 -0.170930 -0.399554
2.047039 -0.170815 0.179715
2.033467 -0.170040 -0.323194
2.043468 -0.170877 0.251782
2.053360 -0.171704 -0.253001
2.051154 -0.171880 0.326009
2.023154 -0.169533 -0.177623
2.028069 -0.170302 -0.106661
2.048447 -0.172373 -0.035882
2.046334 -0.173634 0.035847
2.036879 -0.173190 -0.471947
2.011969 -0.171072 0.105823
2.053975 -0.175004 -0.400699
2.048723 -0.174557 0.179889
2.037104 -0.173925 -0.323819
2.041189 -0.174274 0.251538
2.047123 -0.174781 -0.252270
2.062660 -0.176470 0.327887
2.034766 -0.174083 -0.178669
2.043689 -0.175206 -0.107498
2.052128 -0.176290 -0.035952
2.053997 -0.177895 0.035987
2.032691 -0.176408 -0.471048
2.017637 -0.175101 0.106137
2.043887 -0.177739 -0.398791
2.054370 -0.178650 0.180412
2.032861 -0.177137 -0.323194
2.046815 -0.178353 0.252270
2.044837 -0.178181 -0.252026
2.062349 -0.180069 0.327887
2.030489 -0.177288 -0.178321
2.051338 -0.179469 -0.107917
2.047833 -0.179522 -0.035882
2.065667 -0.182176 0.036196
2.040176 -0.180286 -0.472847
2.033276 -0.179677 0.106975
2.035783 -0.180256 -0.397264
2.044164 -0.180998 0.179541
2.056192 -0.182425 -0.326948
2.050487 -0.181919 0.252757
2.048509 -0.181744 -0.252513
2.050258 -0.182259 0.326009
2.022270 -0.179771 -0.177623
2.055032 -0.183045 -0.108126
2.043565 -0.182383 -0.035812
2.053396 -0.184706 0.035987
2.043740 -0.184197 -0.473747
2.021024 -0.182149 0.106347
2.041331 -0.184339 -0.398409
2.039876 -0.184207 0.179192
2.048001 -0.185302 -0.325697
2.054120 -0.185855 0.253245
2.052143 -0.185676 -0.253001
2.067642 -0.187442 0.328825
2.021953 -0.183301 -0.177623
2.052721 -0.186451 -0.108021
2.049218 -0.186493 -0.035917
2.049087 -0.187924 0.035917
2.043415 -0.187763 -0.473747
2.042580 -0.187687 0.107498
2.054691 -0.189161 -0.401081
2.049471 -0.188681 0.180064
2.039807 -0.188150 -0.324445
2.045886 -0.188711 0.252270
2.063676 -0.190352 -0.254463
2.059444 -0.190324 0.327574
2.031550 -0.187746 -0.178495
2.054381 -0.190218 -0.108126
2.052872 -0.190439 -0.035987
2.052738 -0.191872 0.035987
2.041144 -0.191148 -0.473297
2.020375 -0.189203 0.106347
2.054358 -0.192747 -0.401081
2.049139 -0.192257 0.180064
2.043409 -0.192080 -0.325071
2.049506 -0.192653 0.252757
2.051482 -0.192838 -0.253001
2.068942 -0.194844 0.329138
2.029236 -0.191105 -0.178321
2.030185 -0.191551 -0.106870
2.056518 -0.194398 -0.036057
2.060363 -0.196213 0.036126
2.040807 -0.194710 -0.473297
2.035948 -0.194246 0.107184
2.046201 -0.195585 -0.399554
2.054750 -0.196402 0.180587
2.050936 -0.196399 -0.326322
2.053119 -0.196608 0.253245
2.051143 -0.196419 -0.253001
2.062700 -0.197889 0.328200
2.032866 -0.195027 -0.178669
2.059669 -0.197961 -0.108440
2.054185 -0.197796 -0.036022
2.067979 -0.200581 0.036266
2.048223 -0.199026 -0.475097
2.023679 -0.196641 0.106556
2.043903 -0.198966 -0.399172
2.044489 -0.199023 0.179715
2.054522 -0.200362 -0.326948
2.058700 -0.200769 0.253976
2.050797 -0.199998 -0.253001
2.048589 -0.200144 0.326009
2.032522 -0.198574 -0.178669
2.065284 -0.202139 -0.108754
2.049856 -0.200990 -0.035952
2.063646 -0.203797 0.036196
2.055629 -0.203368 -0.476896
2.039233 -0.201745 0.107393
2.051367 -0.203307 -0.400699
2.044139 -0.202591 0.179715
2.050238 -0.203557 -0.326322
2.064272 -0.204950 0.254707
2.054395 -0.203970 -0.253488
2.071825 -0.206065 0.329764
2.024242 -0.201333 -0.177972
2.049028 -0.204159 -0.107917
2.049502 -0.204568 -0.035952
2.055328 -0.206598 0.036057
2.051394 -0.206564 -0.475996
2.030929 -0.204504 0.106975
2.054916 -0.207281 -0.401462
2.051712 -0.206958 0.180412
2.038087 -0.205943 -0.324445
2.052061 -0.207355 0.253245
2.073787 -0.209551 -0.255926
2.071462 -0.209681 0.329764
2.027852 -0.205267 -0.178321
2.064565 -0.209347 -0.108754
2.057100 -0.208953 -0.036092
2.066900 -0.211406 0.036266
2.043276 -0.209350 -0.474197
2.048450 -0.209880 0.107917
2.058457 -0.211268 -0.402225
2.055311 -0.210946 0.180761
2.045585 -0.210308 -0.325697
2.045772 -0.210327 0.252513
2.057620 -0.211546 -0.253976
2.080918 -0.214308 0.331328
2.043346 -0.210438 -0.179715
2.040356 -0.210490 -0.107498
2.062700 -0.213159 -0.036196
2.066528 -0.215013 0.036266
2.042907 -0.212916 -0.474197
2.028216 -0.211385 0.106870
2.050274 -0.214045 -0.400699
2.058903 -0.214946 0.181110
2.053073 -0.214700 -0.326948
2.051325 -0.214517 0.253245
2.047376 -0.214104 -0.252757
2.060894 -0.215881 0.328200
2.046939 -0.214420 -0.180064
2.059849 -0.216135 -0.108545
2.054369 -0.215923 -0.036057
2.074104 -0.219461 0.036406
2.065787 -0.218946 -0.479596
2.035789 -0.215766 0.107289
2.045993 -0.217209 -0.399936
2.054562 -0.218119 0.180761
2.064519 -0.219176 -0.328825
2.058843 -0.218937 0.254219
2.066739 -0.219776 -0.255194
2.070336 -0.220524 0.329764
2.042599 -0.217570 -0.179715
2.061455 -0.219942 -0.108649
2.048024 -0.218871 -0.035952
2.069741 -0.222653 0.036336
2.061565 -0.221774 -0.478696
2.039380 -0.219747 0.107498
2.055409 -0.221474 -0.401844
2.048275 -0.220705 0.180238
2.056278 -0.221931 -0.327574
2.064418 -0.222809 0.254951
2.064379 -0.223170 -0.254951
2.054275 -0.222077 0.327261
2.026408 -0.219065 -0.178321
2.071035 -0.224255 -0.109173
2.059606 -0.223381 -0.036161
2.057462 -0.224602 0.036126
2.057301 -0.224948 -0.477796
2.044989 -0.223602 0.107812
2.053068 -0.224848 -0.401462
2.053828 -0.224931 0.180761
2.048033 -0.224658 -0.326322
2.060079 -0.225979 0.254463
2.083758 -0.228577 -0.257388
2.081374 -0.228683 0.331641
2.033944 -0.223472 -0.179018
2.062700 -0.226995 -0.108754
2.055238 -0.226537 -0.036092
2.065017 -0.229074 0.036266
2.054968 -0.228323 -0.477346
2.048566 -0.227611 0.108021
2.062428 -0.229516 -0.403370
2.057392 -0.228956 0.181110
2.047638 -0.228232 -0.326322
2.051790 -0.228695 0.253488
2.055736 -0.229135 -0.253976
2.080972 -0.232315 0.331641
2.045432 -0.228348 -0.180064
2.056346 -0.229929 -0.108440
2.056827 -0.230347 -0.036126
2.068588 -0.233126 0.036336
2.056503 -0.232128 -0.477796
2.032288 -0.229394 0.107184
2.052271 -0.232013 -0.401462
2.064909 -0.233441 0.181807
2.062939 -0.233583 -0.328825
2.053360 -0.232499 0.253732
2.061210 -0.233752 -0.254707
2.070749 -0.234834 0.330077
2.050969 -0.232591 -0.180587
2.065864 -0.234645 -0.108963
2.056422 -0.233936 -0.036126
2.072110 -0.237553 0.036406
2.065775 -0.236826 -0.480046
2.031844 -0.233296 0.107184
2.047962 -0.235146 -0.400699
2.058519 -0.236722 0.181284
2.066453 -0.237635 -0.329451
2.066715 -0.238030 0.255438
2.074603 -0.238939 -0.256413
2.068374 -0.238222 0.329764
2.044581 -0.235843 -0.180064
2.073346 -0.239528 -0.109382
2.055969 -0.237884 -0.036126
2.071692 -0.241169 0.036406
2.071123 -0.241469 -0.481395
2.053256 -0.239386 0.108335
2.057256 -0.240216 -0.402607
2.048208 -0.239160 0.180412
2.066035 -0.241241 -0.329451
2.066296 -0.241637 0.255438
2.066296 -0.241637 -0.255438
2.077723 -0.243341 0.331328
2.044166 -0.239411 -0.180064
2.078876 -0.243844 -0.109696
2.059522 -0.241938 -0.036196
2.063325 -0.243845 0.036266
2.061065 -0.243578 -0.479146
2.046885 -0.242265 0.108021
2.062726 -0.244140 -0.403752
2.059701 -0.243782 0.181458
2.057765 -0.243917 -0.328200
2.060000 -0.244182 0.254707
2.079670 -0.246881 -0.257144
2.073415 -0.246139 0.330702
2.041809 -0.242387 -0.179889
2.070557 -0.246166 -0.109277
2.061126 -0.245410 -0.036231
2.070881 -0.248037 0.036406
2.056767 -0.246711 -0.478246
2.052450 -0.246193 0.108335
2.068144 -0.248442 -0.404897
2.069163 -0.248564 0.182330
2.061258 -0.247980 -0.328825
2.055629 -0.247302 0.254219
2.065483 -0.248488 -0.255438
2.076904 -0.250230 0.331328
2.055230 -0.247618 -0.181110
2.066158 -0.249301 -0.109068
2.066650 -0.249726 -0.036336
2.074415 -0.252134 0.036476
2.056334 -0.250300 -0.478246
2.042104 -0.248568 0.107812
2.059912 -0.251101 -0.403370
2.058837 -0.250970 0.181458
2.068666 -0.252534 -0.330077
2.061105 -0.251611 0.254951
2.059135 -0.251371 -0.254707
2.078425 -0.254094 0.331641
2.060727 -0.251930 -0.181633
2.075632 -0.254120 -0.109592
2.062241 -0.252846 -0.036266
2.077941 -0.256244 0.036545
2.071366 -0.255800 -0.481845
2.049596 -0.253111 0.108231
2.057522 -0.254455 -0.402989
2.054442 -0.254074 0.181110
2.074103 -0.256873 -0.331015
2.064603 -0.255696 0.255438
2.068543 -0.256184 -0.255926
2.076018 -0.257478 0.331328
2.048421 -0.254055 -0.180587
2.083113 -0.258727 -0.110010
2.055843 -0.255704 -0.036161
2.077491 -0.259870 0.036545
2.076717 -0.260141 -0.483195
2.045188 -0.256192 0.108021
2.055127 -0.257801 -0.402607
2.055972 -0.257907 0.181284
2.065811 -0.259508 -0.329764
2.068093 -0.259794 0.255926
2.081880 -0.261526 -0.257632
2.073606 -0.260854 0.331015
2.044021 -0.257133 -0.180238
2.074733 -0.261364 -0.109592
2.063330 -0.260293 -0.036301
2.073067 -0.262992 0.036476
2.064661 -0.262292 -0.480495
2.058607 -0.261523 0.108754
2.066359 -0.262874 -0.404897
2.061448 -0.262249 0.181807
2.061436 -0.262613 -0.329138
2.063698 -0.262902 0.255438
2.085359 -0.265661 -0.258119
2.094702 -0.267223 0.334457
2.051475 -0.261708 -0.180935
2.080217 -0.265744 -0.109906
2.072790 -0.265163 -0.036476
2.072604 -0.266610 0.036476
2.058402 -0.265148 -0.479146
2.050224 -0.264095 0.108335
2.067844 -0.266731 -0.405278
2.066915 -0.266611 0.182330
2.072729 -0.267729 -0.331015
2.059299 -0.265994 0.254951
2.080955 -0.268792 -0.257632
2.088355 -0.270118 0.333518
2.054966 -0.265799 -0.181284
2.073807 -0.268604 -0.109592
2.072324 -0.268780 -0.036476
2.084033 -0.271778 0.036685
2.069530 -0.270254 -0.481845
2.043818 -0.266897 0.108021
2.059589 -0.269322 -0.403752
2.066447 -0.270218 0.182330
2.076176 -0.271859 -0.331641
2.062768 -0.270104 0.255438
2.062768 -0.270104 -0.255438
2.089839 -0.274019 0.333831
2.058450 -0.269904 -0.181633
2.071355 -0.271964 -0.109487
2.061939 -0.271093 -0.036301
2.083556 -0.275415 0.036685
2.069055 -0.273866 -0.481845
2.045329 -0.270726 0.108126
2.061062 -0.273174 -0.404133
2.063997 -0.273563 0.182156
2.079615 -0.276002 -0.332267
2.066229 -0.274226 0.255926
2.080004 -0.276054 -0.257632
2.075650 -0.275845 0.331641
2.061926 -0.274021 -0.181981
2.088696 -0.277949 -0.110429
2.067409 -0.275484 -0.036406
2.075144 -0.277989 0.036545
2.082094 -0.279290 -0.484994
2.064649 -0.276950 0.109173
2.056691 -0.276248 -0.403370
2.065491 -0.277430 0.182330
2.075215 -0.279105 -0.331641
2.077551 -0.279419 0.257388
2.087389 -0.280742 -0.258607
2.081039 -0.280258 0.332580
2.053547 -0.276556 -0.181284
2.076331 -0.279993 -0.109801
2.062961 -0.278557 -0.036336
2.074656 -0.281611 0.036545
2.064224 -0.280562 -0.480945
2.060205 -0.280015 0.108963
2.075658 -0.282485 -0.407186
2.057107 -0.279960 0.181633
2.074724 -0.282726 -0.331641
2.065259 -0.281437 0.255926
2.090829 -0.284921 -0.259094
2.088376 -0.284958 0.333831
2.053061 -0.280139 -0.181284
2.085734 -0.284968 -0.110324
2.068416 -0.282970 -0.036441
2.078123 -0.285776 0.036615
2.069523 -0.284961 -0.482295
2.057734 -0.283338 0.108859
2.075162 -0.286107 -0.407186
2.070431 -0.285455 0.182853
2.078141 -0.286887 -0.332267
2.064765 -0.285041 0.255926
2.082463 -0.287484 -0.258119
2.091788 -0.289143 0.334457
2.060463 -0.284813 -0.181981
2.075341 -0.287239 -0.109801
2.071880 -0.287129 -0.036510
2.085544 -0.290506 0.036755
2.070952 -0.288842 -0.482745
2.059214 -0.287205 0.108963
2.072715 -0.289457 -0.406805
2.077823 -0.290170 0.183550
2.081550 -0.291061 -0.332893
2.072128 -0.289744 0.256901
2.068196 -0.289194 -0.256413
2.089325 -0.292520 0.334144
2.071802 -0.290067 -0.183027
2.080771 -0.291693 -0.110115
2.069396 -0.290466 -0.036476
2.085033 -0.294146 0.036755
2.074304 -0.293001 -0.483645
2.056733 -0.290519 0.108859
2.066375 -0.292249 -0.405660
2.071395 -0.292959 0.183027
2.088862 -0.295801 -0.334144
2.073585 -0.293638 0.257144
2.079481 -0.294473 -0.257876
2.080987 -0.295057 0.332893
2.059456 -0.292004 -0.181981
2.092123 -0.297008 -0.110743
2.070866 -0.294359 -0.036510
2.080557 -0.297219 0.036685
2.081506 -0.297725 -0.485444
2.064131 -0.295240 0.109277
2.069749 -0.296412 -0.406423
2.064964 -0.295727 0.182504
2.076611 -0.297764 -0.332267
2.078964 -0.298102 0.257876
2.082894 -0.298665 -0.258363
2.098067 -0.301215 0.335708
2.062888 -0.296164 -0.182330
2.091602 -0.300659 -0.110743
2.072328 -0.298258 -0.036545
2.076077 -0.300277 0.036615
2.080983 -0.301357 -0.485444
2.069542 -0.299701 0.109592
2.073114 -0.300587 -0.407186
2.072331 -0.300474 0.183201
2.074133 -0.301105 -0.331954
2.070583 -0.300589 0.256901
2.094157 -0.304011 -0.259825
2.095584 -0.304592 0.335396
2.062368 -0.299764 -0.182330
2.093050 -0.304597 -0.110848
2.069825 -0.301586 -0.036510
2.079507 -0.304479 0.036685
2.070814 -0.303576 -0.483195
2.072968 -0.303892 0.109801
2.074529 -0.304490 -0.407568
2.079689 -0.305247 0.183899
2.079467 -0.305586 -0.332893
2.070055 -0.304203 0.256901
2.087731 -0.306800 -0.259094
2.104820 -0.309687 0.336960
2.073669 -0.305103 -0.183376
2.084611 -0.307085 -0.110429
2.081166 -0.306949 -0.036720
2.086885 -0.309281 0.036825
2.076064 -0.308048 -0.484545
2.050703 -0.304285 0.108649
2.066227 -0.306956 -0.406042
2.073241 -0.307998 0.183376
2.082839 -0.309796 -0.333518
2.075411 -0.308691 0.257632
2.089156 -0.310735 -0.259338
2.094507 -0.311905 0.335396
2.079045 -0.309603 -0.183899
2.089998 -0.311607 -0.110743
2.076671 -0.309990 -0.036650
2.090297 -0.313516 0.036894
2.083231 -0.312828 -0.486344
2.071895 -0.311126 0.109801
2.065688 -0.310562 -0.406042
2.082551 -0.313098 0.184247
2.090108 -0.314607 -0.334770
2.076833 -0.312608 0.257876
2.086647 -0.314086 -0.259094
2.086147 -0.314383 0.334144
2.066681 -0.311449 -0.182853
2.095376 -0.316148 -0.111057
2.074150 -0.313315 -0.036615
2.085793 -0.316564 0.036825
2.088462 -0.317342 -0.487694
2.065425 -0.313841 0.109487
2.070965 -0.315053 -0.407186
2.068213 -0.314634 0.183027
2.081745 -0.317064 -0.333518
2.080209 -0.316831 0.258363
2.101796 -0.320118 -0.261044
2.093406 -0.319214 0.335396
2.062195 -0.314455 -0.182504
2.104693 -0.321311 -0.111580
2.073600 -0.316935 -0.036615
2.077331 -0.318990 0.036685
2.080201 -0.319802 -0.485894
2.082641 -0.320177 0.110429
2.070412 -0.318667 -0.407186
2.073569 -0.319153 0.183550
2.081188 -0.320697 -0.333518
2.079652 -0.320461 0.258363
2.093386 -0.322577 -0.260069
2.106512 -0.324976 0.337586
2.069519 -0.319269 -0.183201
2.098207 -0.324070 -0.111266
2.080949 -0.321776 -0.036755
2.096531 -0.325684 0.037034
2.075788 -0.322833 -0.484994
2.066290 -0.321356 0.109592
2.077613 -0.323488 -0.408713
2.074977 -0.323078 0.183724
2.084529 -0.324938 -0.334144
2.071244 -0.322867 0.257388
2.096742 -0.326842 -0.260557
2.100086 -0.327738 0.336647
2.072896 -0.323495 -0.183550
2.085799 -0.325881 -0.110638
2.080384 -0.325407 -0.036755
2.082131 -0.327170 0.036790
2.082922 -0.327667 -0.486794
2.061780 -0.324341 0.109382
2.077045 -0.327114 -0.408713
2.080315 -0.327629 0.184247
2.085910 -0.328883 -0.334457
2.074600 -0.327100 0.257876
2.086365 -0.328955 -0.259338
2.089755 -0.329863 0.335083
2.080200 -0.328355 -0.184247
2.091145 -0.330457 -0.110952
2.073887 -0.328100 -0.036650
2.099331 -0.333628 0.037104
2.084271 -0.331608 -0.487244
2.076991 -0.330450 0.110220
2.072593 -0.330121 -0.407950
2.073837 -0.330319 0.183724
2.093135 -0.333767 -0.335708
2.077946 -0.331345 0.258363
2.093629 -0.333846 -0.260313
2.096979 -0.334755 0.336334
2.079624 -0.331985 -0.184247
2.094510 -0.334736 -0.111162
2.075286 -0.332035 -0.036685
2.084925 -0.335071 0.036859
2.087537 -0.335864 -0.488144
2.074439 -0.333757 0.110115
2.072014 -0.333738 -0.407950
2.071290 -0.333621 0.183550
2.084749 -0.336162 -0.334457
2.081284 -0.335604 0.258851
2.106761 -0.339712 -0.262019
2.104192 -0.339674 0.337586
2.075107 -0.334979 -0.183899
2.109696 -0.340940 -0.111999
2.078651 -0.336296 -0.036755
2.090259 -0.339671 0.036964
2.088871 -0.339820 -0.488594
2.079767 -0.338339 0.110429
2.073366 -0.337669 -0.408331
2.080537 -0.338837 0.184422
2.086109 -0.340118 -0.334770
2.080695 -0.339236 0.258851
2.106165 -0.343388 -0.262019
2.099696 -0.342710 0.336960
2.078453 -0.339242 -0.184247
2.101213 -0.343334 -0.111580
2.078061 -0.339923 -0.036755
2.083743 -0.342346 0.036859
2.082506 -0.342517 -0.487244
2.077203 -0.341644 0.110324
2.092145 -0.344477 -0.412147
2.081908 -0.342791 0.184596
2.089410 -0.344401 -0.335396
2.068348 -0.340929 0.257388
2.103604 -0.346741 -0.261775
2.114687 -0.348947 0.339463
2.077857 -0.342869 -0.184247
2.098640 -0.346675 -0.111476
2.093248 -0.346160 -0.037034
2.098924 -0.348604 0.037139
2.087672 -0.347109 -0.488594
2.066752 -0.343631 0.109801
2.085731 -0.347161 -0.411003
2.083272 -0.346752 0.184770
2.086858 -0.347723 -0.335083
2.079498 -0.346496 0.258851
2.097121 -0.349433 -0.261044
2.102384 -0.350687 0.337586
2.089047 -0.348462 -0.185293
2.100002 -0.350666 -0.111580
2.080806 -0.347834 -0.036825
2.094368 -0.351604 0.037069
2.092829 -0.351722 -0.489943
2.083876 -0.350217 0.110743
2.077378 -0.349498 -0.409476
2.074805 -0.349065 0.184073
2.099883 -0.353661 -0.337273
2.082805 -0.350785 0.259338
2.110211 -0.355400 -0.262750
2.101769 -0.354356 0.337586
2.084507 -0.351445 -0.184944
2.097417 -0.353999 -0.111476
2.076253 -0.350799 -0.036755
2.093751 -0.355259 0.037069
2.092212 -0.355374 -0.489943
2.083262 -0.353854 0.110743
2.078700 -0.353452 -0.409858
2.078121 -0.353354 0.184422
2.093420 -0.356331 -0.336334
2.088061 -0.355419 0.260069
2.109587 -0.359083 -0.262750
2.105042 -0.358687 0.338211
2.076034 -0.353744 -0.184247
2.114516 -0.360681 -0.112418
2.083522 -0.355769 -0.036894
2.085244 -0.357561 0.036929
2.097350 -0.360014 -0.491293
2.082641 -0.357489 0.110743
2.085819 -0.358409 -0.411384
2.081428 -0.357655 0.184770
2.086955 -0.358979 -0.335396
2.085481 -0.358726 0.259825
2.116783 -0.364110 -0.263725
2.116093 -0.364372 0.340089
2.083267 -0.358719 -0.184944
2.104041 -0.362675 -0.111894
2.090780 -0.360765 -0.037034
2.090528 -0.362224 0.037034
2.090959 -0.362675 -0.489943
2.082014 -0.361123 0.110743
2.083256 -0.361713 -0.411003
2.086690 -0.362310 0.185293
2.090281 -0.362933 -0.336021
2.080940 -0.361685 0.259338
2.112232 -0.367124 -0.263238
2.109616 -0.367049 0.339150
2.086563 -0.363038 -0.185293
2.095535 -0.364976 -0.111476
2.101967 -0.366474 -0.037243
2.095802 -0.366907 0.037139
2.088467 -0.365623 -0.489493
2.067609 -0.362343 0.110010
2.082685 -0.364985 -0.411003
2.099856 -0.367994 0.186513
2.097427 -0.367946 -0.337273
2.084280 -0.365640 0.259825
2.101813 -0.369094 -0.262019
2.107090 -0.370020 0.338837
2.085990 -0.366315 -0.185293
2.100860 -0.369304 -0.111790
2.085633 -0.367003 -0.036964
2.097192 -0.370546 0.037174
2.095501 -0.370625 -0.491293
2.082772 -0.368373 0.110848
2.078179 -0.367935 -0.410239
2.081553 -0.368533 0.184944
2.100672 -0.372296 -0.337898
2.091457 -0.370663 0.260800
2.111003 -0.374127 -0.263238
2.106442 -0.373697 0.338837
2.089272 -0.370651 -0.185642
2.112011 -0.375066 -0.112418
2.084990 -0.370642 -0.036964
2.094573 -0.373855 0.037139
2.094851 -0.374282 -0.491293
2.088024 -0.373062 0.111162
2.081399 -0.372253 -0.411003
2.084829 -0.372867 0.185293
2.100019 -0.375961 -0.337898
2.092761 -0.374662 0.261044
2.116210 -0.378860 -0.263969
2.109675 -0.378070 0.339463
2.080777 -0.372891 -0.184944
2.107422 -0.378046 -0.112208
2.088276 -0.374988 -0.037034
2.089982 -0.376800 0.037069
2.094195 -0.377937 -0.491293
2.095232 -0.378124 0.111580
2.080746 -0.375885 -0.411003
2.084176 -0.376505 0.185293
2.089640 -0.377868 -0.336334
2.086244 -0.377254 0.260313
2.123358 -0.383966 -0.264944
2.118731 -0.383511 0.341027
2.084044 -0.377232 -0.185293
2.108724 -0.382080 -0.112313
2.091554 -0.379346 -0.037104
2.087354 -0.380089 0.037034
2.089698 -0.380893 -0.490393
2.082779 -0.379632 0.110952
2.093606 -0.381983 -0.413674
2.087435 -0.380857 0.185642
2.102580 -0.383999 -0.338524
2.085582 -0.380895 0.260313
2.110969 -0.385531 -0.263482
2.118058 -0.387208 0.341027
2.095142 -0.383019 -0.186339
2.104125 -0.385040 -0.112104
2.102690 -0.385157 -0.037313
2.096521 -0.385540 0.037209
2.092863 -0.385245 -0.491293
2.076221 -0.382182 0.110638
2.087144 -0.384569 -0.412529
2.102443 -0.387388 0.187036
2.101907 -0.387668 -0.338524
2.090771 -0.385615 0.261044
2.110292 -0.389215 -0.263482
2.107666 -0.389111 0.339463
2.098389 -0.387398 -0.186688
2.113270 -0.390527 -0.112627
2.090217 -0.386644 -0.037104
2.101743 -0.390294 0.037313
2.109431 -0.392102 -0.495342
2.089296 -0.388360 0.111371
2.078749 -0.386775 -0.411003
2.086093 -0.388141 0.185642
2.108995 -0.392783 -0.339776
2.099852 -0.391080 0.262263
2.109610 -0.392898 -0.263482
2.108926 -0.393151 0.339776
2.089875 -0.389599 -0.185990
2.114548 -0.394581 -0.112732
2.081676 -0.388823 -0.036964
2.099093 -0.393593 0.037278
2.112573 -0.396502 -0.496242
2.088615 -0.392006 0.111371
2.093507 -0.393302 -0.414056
2.079538 -0.390678 0.185119
2.100541 -0.395003 -0.338524
2.099166 -0.394745 0.262263
2.116724 -0.398046 -0.264456
2.116002 -0.398293 0.341027
2.089191 -0.393246 -0.185990
2.115819 -0.398641 -0.112836
2.090819 -0.394309 -0.037139
2.090544 -0.395768 0.037139
2.092731 -0.396561 -0.491743
2.091852 -0.396394 0.111580
2.094746 -0.397321 -0.414437
2.102343 -0.398762 0.187211
2.099848 -0.398669 -0.338524
2.094573 -0.397667 0.261775
2.116027 -0.401740 -0.264456
2.115304 -0.401985 0.341027
2.092417 -0.397636 -0.186339
2.113158 -0.401960 -0.112732
2.097986 -0.399453 -0.037278
2.101635 -0.401669 0.037348
2.099692 -0.401677 -0.493543
2.087234 -0.399294 0.111371
2.092121 -0.400607 -0.414056
2.097730 -0.401681 0.186862
2.103029 -0.403077 -0.339150
2.086078 -0.399828 0.260800
2.123121 -0.406927 -0.265431
2.122359 -0.407165 0.342279
2.095633 -0.402038 -0.186688
2.114414 -0.406024 -0.112836
2.111032 -0.405756 -0.037523
2.106821 -0.406472 0.037453
2.097075 -0.404972 -0.493093
2.092417 -0.404072 0.111685
2.091419 -0.404258 -0.414056
2.102894 -0.406476 0.187385
2.106201 -0.407497 -0.339776
2.097071 -0.405730 0.262263
2.116560 -0.409501 -0.264700
2.117766 -0.410118 0.341653
2.098840 -0.406453 -0.187036
2.111742 -0.409334 -0.112732
2.104431 -0.408298 -0.037418
2.111997 -0.411296 0.037558
2.098277 -0.409004 -0.493543
2.093669 -0.408106 0.111790
2.086856 -0.407156 -0.413292
2.096315 -0.409001 0.186862
2.113242 -0.412687 -0.341027
2.096359 -0.409390 0.262263
2.119739 -0.413956 -0.265188
2.115108 -0.413435 0.341340
2.094217 -0.409351 -0.186688
2.112984 -0.413402 -0.112836
2.093903 -0.410048 -0.037243
2.099503 -0.412667 0.037348
2.105209 -0.414170 -0.495342
2.094913 -0.412145 0.111894
2.093848 -0.412315 -0.414819
2.093643 -0.412275 0.186688
2.104766 -0.414846 -0.339776
2.107327 -0.415351 0.263725
2.130699 -0.419958 -0.266650
2.118260 -0.417890 0.341966
2.089590 -0.412234 -0.186339
2.124016 -0.419411 -0.113464
2.104955 -0.416029 -0.037453
2.098779 -0.416331 0.037348
2.106394 -0.418224 -0.495792
2.107904 -0.418523 0.112627
2.100827 -0.417499 -0.416345
2.094875 -0.416316 0.186862
2.100164 -0.417749 -0.339150
2.104652 -0.418641 0.263482
2.122175 -0.422127 -0.265675
2.121402 -0.422358 0.342592
2.094729 -0.417048 -0.186862
2.119363 -0.422337 -0.113255
2.104225 -0.419702 -0.037453
2.101971 -0.420778 0.037418
2.094196 -0.419602 -0.493093
2.095420 -0.419847 0.111999
2.102020 -0.421551 -0.416727
2.101959 -0.421539 0.187559
2.107178 -0.422968 -0.340401
2.094187 -0.420361 0.262263
2.123381 -0.426221 -0.265919
2.128408 -0.427616 0.343843
2.099858 -0.421880 -0.187385
2.116665 -0.425641 -0.113150
2.115252 -0.425741 -0.037662
2.105154 -0.425238 0.037488
2.104921 -0.425574 -0.495792
2.090769 -0.422712 0.111790
2.099357 -0.424830 -0.416345
2.101220 -0.425207 0.187559
2.110309 -0.427430 -0.341027
2.101233 -0.425591 0.263238
2.124579 -0.430320 -0.266163
2.116043 -0.428976 0.341966
2.103024 -0.426336 -0.187733
2.115919 -0.429335 -0.113150
2.104707 -0.427442 -0.037488
2.108327 -0.429710 0.037558
2.104175 -0.429247 -0.495792
2.097856 -0.427958 0.112208
2.092842 -0.427315 -0.415200
2.100475 -0.428874 0.187559
2.113431 -0.431903 -0.341653
2.116046 -0.432438 0.265188
2.114101 -0.432040 -0.264944
2.121097 -0.433856 0.342904
2.098373 -0.429208 -0.187385
2.115166 -0.433027 -0.113150
2.100040 -0.430312 -0.037418
2.111491 -0.434195 0.037627
2.112967 -0.434883 -0.498042
2.102974 -0.432826 0.112522
2.092093 -0.430967 -0.415200
2.091917 -0.430931 0.186862
2.112674 -0.435591 -0.341653
2.123065 -0.437734 0.266163
2.130841 -0.439337 -0.267138
2.124205 -0.438355 0.343530
2.095669 -0.432467 -0.187211
2.130055 -0.439950 -0.113988
2.099286 -0.433977 -0.037418
2.095066 -0.434630 0.037348
2.108388 -0.437778 -0.497142
2.104171 -0.436902 0.112627
2.097104 -0.435816 -0.416345
2.098965 -0.436203 0.187559
2.108042 -0.438473 -0.341027
2.102862 -0.437396 0.263725
2.122297 -0.441438 -0.266163
2.127305 -0.442867 0.344156
2.098813 -0.436936 -0.187559
2.115597 -0.440815 -0.113255
2.114186 -0.440906 -0.037697
2.106048 -0.440744 0.037558
2.103806 -0.440658 -0.496242
2.105360 -0.440983 0.112732
2.104026 -0.441087 -0.417872
2.106000 -0.441501 0.188256
2.111140 -0.442963 -0.341653
2.098210 -0.440250 0.263238
2.129295 -0.446772 -0.267138
2.130395 -0.447392 0.344782
2.101946 -0.441417 -0.187908
2.114825 -0.444507 -0.113255
2.123197 -0.446654 -0.037872
2.111145 -0.445658 0.037662
2.112567 -0.446343 -0.498492
2.100679 -0.443831 0.112522
2.099411 -0.443946 -0.417108
2.107176 -0.445588 0.188431
2.114229 -0.447465 -0.342279
2.107149 -0.445967 0.264456
2.128512 -0.450488 -0.267138
2.125746 -0.450290 0.344156
2.101173 -0.445085 -0.187908
2.121861 -0.449854 -0.113674
2.110677 -0.447868 -0.037662
2.114276 -0.450175 0.037732
2.113691 -0.450436 -0.498941
2.101855 -0.447913 0.112627
2.102473 -0.448429 -0.417872
2.112241 -0.450512 0.188954
2.113445 -0.451155 -0.342279
2.119957 -0.452545 0.266163
2.119957 -0.452545 -0.266163
2.119162 -0.452762 0.343217
2.096496 -0.447919 -0.187559
2.123025 -0.453975 -0.113778
2.113804 -0.452389 -0.037732
2.111532 -0.453444 0.037697
2.104975 -0.452421 0.112836
2.097849 -0.451272 -0.417108
2.103660 -0.452522 0.188256
2.112654 -0.454843 -0.342279
2.115283 -0.455408 0.265675
2.126926 -0.457915 -0.267138
2.124161 -0.457708 0.344156
2.099606 -0.452417 -0.187908
2.130039 -0.459364 -0.114197
2.109101 -0.455233 -0.037662
2.104874 -0.455859 0.037592
2.108297 -0.456986 -0.498042
2.113942 -0.458209 0.113360
2.102814 -0.456181 -0.418253
2.098972 -0.455348 0.187908
2.111937 -0.458161 -0.342279
2.114484 -0.459100 0.265675
2.135823 -0.463733 -0.268356
2.131081 -0.463092 0.345407
2.102707 -0.456927 -0.188256
2.119477 -0.460958 -0.113674
2.114166 -0.460190 -0.037767
2.111890 -0.461239 0.037732
2.111384 -0.461128 -0.498941
2.107285 -0.460618 0.113046
2.111685 -0.461580 -0.420161
2.111880 -0.461623 0.189128
2.111134 -0.461846 -0.342279
2.109882 -0.461572 0.265188
2.117558 -0.463638 -0.266163
2.134210 -0.467284 0.346033
2.105879 -0.461081 -0.188605
2.116799 -0.463859 -0.113569
2.129066 -0.466937 -0.038046
2.117022 -0.465845 0.037837
2.112479 -0.465232 -0.499391
2.104609 -0.463498 0.112941
2.103207 -0.463575 -0.418635
2.114962 -0.466166 0.189477
2.118041 -0.467232 -0.343530
2.112950 -0.466109 0.265675
2.122643 -0.468247 -0.266894
2.121817 -0.468453 0.344156
2.108963 -0.465615 -0.188954
2.123787 -0.469277 -0.113988
2.108723 -0.466334 -0.037697
2.118158 -0.469972 0.037872
2.111664 -0.468918 -0.499391
2.101847 -0.466738 0.112836
2.094729 -0.465541 -0.417108
2.114145 -0.469856 0.189477
2.121079 -0.471786 -0.344156
2.116009 -0.470658 0.266163
2.129573 -0.473675 -0.267869
2.128709 -0.473873 0.345407
2.100368 -0.467564 -0.188256
2.124914 -0.473417 -0.114092
2.117664 -0.472190 -0.037872
2.115383 -0.473232 0.037837
2.108825 -0.472151 0.113255
2.103492 -0.471343 -0.419017
2.101657 -0.470932 0.188431
2.120252 -0.475487 -0.344156
2.122932 -0.476088 0.267138
2.144239 -0.480866 -0.269819
2.127879 -0.477587 0.345407
2.099548 -0.471229 -0.188256
2.131879 -0.478876 -0.114511
2.110984 -0.474570 -0.037767
2.102850 -0.474283 0.037627
2.113842 -0.477150 0.113569
2.104581 -0.475446 -0.419398
2.108605 -0.476355 0.189128
2.115566 -0.478316 -0.343530
2.116290 -0.478479 0.266406
2.125971 -0.480668 -0.267625
2.130896 -0.482172 0.346033
2.102609 -0.475772 -0.188605
2.125196 -0.481273 -0.114197
2.127705 -0.482231 -0.038081
2.117618 -0.481500 0.037907
2.109112 -0.479953 0.113360
2.109490 -0.480426 -0.420543
2.113599 -0.481362 0.189651
2.118580 -0.482885 -0.344156
2.111580 -0.481290 0.265919
2.132870 -0.486142 -0.268600
2.141606 -0.488527 0.347910
2.109546 -0.481213 -0.189302
2.112670 -0.482314 -0.113569
2.136607 -0.488171 -0.038256
2.118723 -0.485642 0.037942
2.100484 -0.481847 0.112941
2.114389 -0.485425 -0.421688
2.122465 -0.487279 0.190522
2.115808 -0.486140 -0.343843
2.120411 -0.487197 0.267138
2.132019 -0.489864 -0.268600
2.129199 -0.489608 0.346033
2.112586 -0.485787 -0.189651
2.127396 -0.489584 -0.114406
2.124060 -0.489207 -0.038046
2.127614 -0.491590 0.038116
2.111315 -0.488212 0.113569
2.100150 -0.486016 -0.419017
2.117729 -0.490084 0.190174
2.124579 -0.492060 -0.345407
2.119557 -0.490897 0.267138
2.142764 -0.496272 -0.270062
2.132190 -0.494215 0.346659
2.115617 -0.490374 -0.190000
2.134321 -0.495102 -0.114825
2.125151 -0.493365 -0.038081
2.122858 -0.494395 0.038046
2.112405 -0.492349 0.113674
2.101210 -0.490127 -0.419398
2.114930 -0.493327 0.190000
2.123717 -0.495768 -0.345407
2.141895 -0.500011 0.270062
2.134162 -0.498206 -0.269088
2.125554 -0.496588 0.345720
2.099236 -0.490439 -0.188605
2.135398 -0.499281 -0.114930
2.134022 -0.499352 -0.038256
2.118098 -0.497186 0.037976
2.119320 -0.497862 0.114092
2.107996 -0.495591 -0.420925
2.108247 -0.495650 0.189477
2.122849 -0.499473 -0.345407
2.129425 -0.501021 0.268600
2.148748 -0.505567 -0.271037
2.134298 -0.502560 0.347285
2.106135 -0.495929 -0.189302
2.132580 -0.502549 -0.114825
2.142879 -0.505370 -0.038430
2.123065 -0.502263 0.038081
2.106786 -0.498800 0.113464
2.116680 -0.501532 -0.422833
2.117072 -0.501625 0.190348
2.121974 -0.503178 -0.345407
2.120821 -0.502904 0.267625
2.140136 -0.507485 -0.270062
2.141106 -0.508109 0.348536
2.120775 -0.503284 -0.190697
2.125870 -0.504885 -0.114511
2.143939 -0.509572 -0.038465
2.128021 -0.507359 0.038186
2.105913 -0.502476 0.113464
2.115801 -0.505226 -0.422833
2.131697 -0.509022 0.191743
2.124934 -0.507799 -0.346033
2.125732 -0.507989 0.268356
2.123801 -0.507528 -0.268113
2.140215 -0.511845 0.348536
2.116017 -0.506058 -0.190348
2.126928 -0.509060 -0.114616
2.131378 -0.510518 -0.038256
2.134910 -0.512941 0.038325
2.114742 -0.508485 0.113988
2.113007 -0.508458 -0.422451
2.124994 -0.511343 0.191220
2.127886 -0.512432 -0.346659
2.134492 -0.514022 0.269575
2.138352 -0.514952 -0.270062
2.131637 -0.513729 0.347285
2.111257 -0.508817 -0.190000
2.131861 -0.514176 -0.114930
2.128540 -0.513768 -0.038221
2.126237 -0.514784 0.038186
2.117733 -0.513116 0.114197
2.114025 -0.512608 -0.422833
2.116353 -0.513173 0.190522
2.126988 -0.516145 -0.346659
2.145166 -0.520556 0.271037
2.141308 -0.519619 -0.270550
2.136496 -0.518847 0.348223
2.102621 -0.510620 -0.189302
2.146486 -0.521670 -0.115767
2.131526 -0.518428 -0.038291
2.125335 -0.518494 0.038186
2.126536 -0.519180 0.114720
2.120756 -0.518161 -0.424359
2.119325 -0.517812 0.190871
2.122247 -0.518918 -0.346033
2.134613 -0.521941 0.269819
2.144254 -0.524299 -0.271037
2.143262 -0.524453 0.349475
2.113338 -0.517131 -0.190348
2.135873 -0.523040 -0.115244
2.138387 -0.524051 -0.038430
2.124427 -0.522202 0.038186
2.117869 -0.520982 0.114302
2.117942 -0.521392 -0.423978
2.128092 -0.523891 0.191743
2.125174 -0.523566 -0.346659
2.125988 -0.523767 0.268844
2.141408 -0.527566 -0.270794
2.148097 -0.529611 0.350413
2.108564 -0.519864 -0.190000
2.131078 -0.525810 -0.115034
2.153000 -0.531617 -0.038709
2.135159 -0.528794 0.038395
2.113079 -0.523717 0.114092
2.122745 -0.526506 -0.425122
2.125240 -0.527125 0.191568
2.128091 -0.528226 -0.347285
2.132777 -0.529390 0.269819
2.146264 -0.532737 -0.271525
2.137584 -0.530979 0.348849
2.126990 -0.528347 -0.191743
2.134034 -0.530492 -0.115244
2.140426 -0.532478 -0.038500
2.138113 -0.533488 0.038465
2.121850 -0.529824 0.114616
2.118014 -0.529258 -0.424359
2.124317 -0.530833 0.191568
2.134925 -0.533484 -0.348536
2.139554 -0.535037 0.270794
2.153034 -0.538409 -0.272500
2.144320 -0.536627 0.350100
2.118333 -0.530124 -0.191045
2.138917 -0.535672 -0.115558
2.131734 -0.534268 -0.038360
2.133300 -0.536244 0.038395
2.122860 -0.534013 0.114720
2.117180 -0.532584 -0.424359
2.131209 -0.536114 0.192266
2.130159 -0.536245 -0.347910
2.142561 -0.539367 0.271281
2.128992 -0.536346 -0.269575
2.131981 -0.537099 0.348223
2.109770 -0.531504 -0.190348
2.145820 -0.540984 -0.115976
2.142526 -0.540551 -0.038570
2.136332 -0.540575 0.038465
2.131699 -0.539799 0.115244
2.133375 -0.540619 -0.427794
2.134133 -0.540811 0.192614
2.125390 -0.538991 -0.347285
2.139692 -0.542617 0.271037
2.162782 -0.548473 -0.273962
2.150187 -0.545678 0.351352
2.116564 -0.537145 -0.191045
2.146808 -0.545220 -0.116081
2.153208 -0.547245 -0.038779
2.129572 -0.542821 0.038360
2.130754 -0.543518 0.115244
2.128623 -0.543371 -0.427031
2.146699 -0.547985 0.193834
2.128274 -0.543677 -0.347910
2.132972 -0.544877 0.270306
2.131048 -0.544386 -0.270062
2.151145 -0.549920 0.351665
2.119483 -0.541826 -0.191394
2.132308 -0.545501 -0.115348
2.148375 -0.550011 -0.038709
2.142180 -0.550018 0.038605
2.123998 -0.545745 0.114930
2.127672 -0.547085 -0.427031
2.143810 -0.551235 0.193660
2.134974 -0.549360 -0.349162
2.143552 -0.551567 0.271769
2.145474 -0.552062 -0.272012
2.142530 -0.551703 0.350413
2.122393 -0.546518 -0.191743
2.146826 -0.553209 -0.116186
2.143539 -0.552761 -0.038640
2.145089 -0.554758 0.038675
2.121109 -0.548951 0.114825
2.124813 -0.550305 -0.426649
2.144773 -0.555475 0.193834
2.139749 -0.554572 -0.350100
2.154116 -0.558296 0.273231
2.152194 -0.557798 -0.272987
2.135828 -0.553954 0.349475
2.121436 -0.550221 -0.191743
2.141991 -0.555951 -0.115976
2.142571 -0.556501 -0.038640
2.136377 -0.556484 0.038535
2.131744 -0.555675 0.115453
2.125749 -0.554509 -0.427031
2.132233 -0.556200 0.192788
2.136866 -0.557807 -0.349788
2.153138 -0.562055 0.273231
2.139693 -0.558545 -0.271525
2.144414 -0.560177 0.351039
2.112762 -0.551909 -0.191045
2.150679 -0.562214 -0.116500
2.141596 -0.560240 -0.038640
2.137336 -0.560720 0.038570
2.119180 -0.556352 0.114825
2.141867 -0.562708 -0.430465
2.137040 -0.561439 0.193311
2.132068 -0.560531 -0.349162
2.146394 -0.564297 0.272500
2.165593 -0.569345 -0.274937
2.149164 -0.565427 0.351978
2.123356 -0.558637 -0.192091
2.147763 -0.565459 -0.116395
2.156085 -0.568052 -0.038919
2.138288 -0.564960 0.038605
2.129791 -0.563113 0.115453
2.146576 -0.567952 -0.431610
2.137983 -0.565678 0.193486
2.134906 -0.565263 -0.349788
2.145406 -0.568043 0.272500
2.145406 -0.568043 -0.272500
2.159631 -0.572212 0.353855
2.128156 -0.563873 -0.192614
2.144842 -0.568695 -0.116291
2.155090 -0.571814 -0.038919
2.152758 -0.572805 0.038884
2.128805 -0.566829 0.115453
2.139890 -0.570181 -0.430465
2.152394 -0.573512 0.194880
2.145368 -0.572041 -0.351665
2.144411 -0.571786 0.272500
2.154002 -0.574343 -0.273719
2.145268 -0.572416 0.351665
2.131019 -0.568613 -0.192963
2.139987 -0.571407 -0.116081
2.157953 -0.576607 -0.038989
2.151755 -0.576561 0.038884
2.133600 -0.572096 0.115767
2.136996 -0.573406 -0.430084
2.143693 -0.575203 0.194183
2.148283 -0.576434 -0.352290
2.156831 -0.579132 0.274206
2.139576 -0.574498 -0.272012
2.142358 -0.575647 0.351352
2.126175 -0.571298 -0.192614
2.156345 -0.579808 -0.117023
2.149219 -0.578294 -0.038849
2.143023 -0.578232 0.038744
2.130670 -0.575298 0.115662
2.136092 -0.576762 -0.430084
2.138940 -0.577531 0.193834
2.139646 -0.578122 -0.351039
2.154002 -0.582001 0.273962
2.157733 -0.583413 -0.274450
2.150986 -0.581589 0.352916
2.117581 -0.572557 -0.191917
2.155432 -0.583195 -0.117023
2.152169 -0.582715 -0.038919
2.138252 -0.580550 0.038675
2.137473 -0.580739 0.116081
2.138871 -0.581519 -0.430847
2.153309 -0.585445 0.195229
2.131009 -0.579781 -0.349788
2.154898 -0.586281 0.274206
2.170222 -0.590450 -0.276156
2.155686 -0.586899 0.353855
2.124269 -0.578345 -0.192614
2.142848 -0.583806 -0.116395
2.158865 -0.588574 -0.039058
2.148809 -0.587445 0.038884
2.136456 -0.584468 0.116081
2.151108 -0.588880 -0.433518
2.156128 -0.590254 0.195577
2.141425 -0.586631 -0.351665
2.150043 -0.588992 0.273719
2.144299 -0.587418 -0.272987
2.162279 -0.592750 0.355106
2.127099 -0.583106 -0.192963
2.147604 -0.589130 -0.116709
2.161692 -0.593400 -0.039128
2.151637 -0.592255 0.038954
2.133507 -0.587666 0.115976
2.148185 -0.592112 -0.433136
2.158936 -0.595075 0.195926
2.148015 -0.592469 -0.352916
2.156666 -0.594855 0.274694
2.156666 -0.594855 -0.274694
2.161241 -0.596523 0.355106
2.133760 -0.588938 -0.193660
2.148498 -0.593409 -0.116814
2.156798 -0.596107 -0.039058
2.158308 -0.598146 0.039093
2.134403 -0.591922 0.116081
2.132014 -0.591660 -0.430084
2.150214 -0.596711 0.195229
2.150784 -0.597274 -0.353542
2.159450 -0.599680 0.275181
2.163275 -0.600743 -0.275668
2.154487 -0.598707 0.354168
2.136569 -0.593728 -0.194009
2.151308 -0.598228 -0.117023
2.151901 -0.598798 -0.038989
2.159187 -0.602450 0.039128
2.137214 -0.596721 0.116291
2.144214 -0.599079 -0.432755
2.147251 -0.599927 0.195055
2.145934 -0.599963 -0.352916
2.166047 -0.605586 0.276156
2.152665 -0.601845 -0.274450
2.153438 -0.602466 0.354168
2.127854 -0.595309 -0.193311
2.161800 -0.605213 -0.117651
2.162406 -0.605789 -0.039198
2.152357 -0.604595 0.039024
2.147706 -0.603693 0.116919
2.152614 -0.605478 -0.434663
2.148118 -0.604213 0.195229
2.137277 -0.601567 -0.351665
2.153522 -0.606139 0.274694
2.176452 -0.612593 -0.277618
2.163792 -0.609437 0.356045
2.134483 -0.601182 -0.194009
2.149206 -0.605734 -0.117023
2.165195 -0.610648 -0.039268
2.155146 -0.609439 0.039093
2.133196 -0.603634 0.116186
2.155332 -0.610304 -0.435426
2.162397 -0.612304 0.196623
2.155336 -0.610305 -0.354793
2.156280 -0.610979 0.275181
2.154370 -0.610438 -0.274937
2.164625 -0.613752 0.356358
2.137264 -0.605994 -0.194357
2.157753 -0.612210 -0.117547
2.164125 -0.614426 -0.039268
2.157926 -0.614294 0.039163
2.132140 -0.607356 0.116186
2.156259 -0.614227 -0.435808
2.161432 -0.615700 0.196623
2.161866 -0.616232 -0.356045
2.162954 -0.616542 0.276156
2.164755 -0.617464 -0.276400
2.156060 -0.614984 0.355106
2.143973 -0.611536 -0.195055
2.154868 -0.615050 -0.117442
2.155467 -0.615628 -0.039128
2.172338 -0.622087 0.039442
2.138863 -0.612905 0.116605
2.151409 -0.616907 -0.435045
2.158439 -0.618922 0.196449
2.164586 -0.621094 -0.356671
2.161875 -0.620316 0.276156
2.156150 -0.618674 -0.275425
2.160679 -0.620381 0.356045
2.142903 -0.615277 -0.195055
2.163389 -0.621568 -0.117965
2.162076 -0.621599 -0.039268
2.161642 -0.623108 0.039268
2.147385 -0.619405 0.117128
2.154102 -0.621750 -0.435808
2.151613 -0.621031 0.195926
2.159702 -0.623774 -0.356045
2.166510 -0.625741 0.276887
2.168417 -0.626291 -0.277131
2.167184 -0.626345 0.357296
2.134169 -0.616803 -0.194357
2.169976 -0.627562 -0.118384
2.160988 -0.625372 -0.039268
2.156710 -0.625766 0.039198
2.155891 -0.625936 0.117651
2.160555 -0.627699 -0.437334
2.162005 -0.628120 0.196972
2.154817 -0.626440 -0.355419
2.163509 -0.628967 0.276643
2.173040 -0.631738 -0.277862
2.173675 -0.632334 0.358548
2.140742 -0.622753 -0.195055
2.151618 -0.626325 -0.117442
2.167573 -0.631379 -0.039408
2.167132 -0.632892 0.039408
2.150961 -0.628578 0.117442
2.163224 -0.632571 -0.438097
2.164730 -0.633011 0.197321
2.157512 -0.631309 -0.356045
2.160502 -0.632184 0.276400
2.168123 -0.634414 -0.277375
2.204796 -0.645563 0.363867
2.151124 -0.629848 -0.196100
2.150522 -0.630079 -0.117442
2.170305 -0.636287 -0.039477
2.167942 -0.637238 0.039442
2.146029 -0.631204 0.117233
2.167767 -0.638009 -0.439242
2.163622 -0.636789 0.197321
2.163986 -0.637306 -0.357296
2.165108 -0.637637 0.277131
2.176534 -0.641001 -0.278593
2.192297 -0.646060 0.361989
2.153844 -0.634728 -0.196449
2.162829 -0.637786 -0.118175
2.163438 -0.638376 -0.039373
2.172579 -0.642722 0.039547
2.135348 -0.632114 0.116709
2.159121 -0.639561 -0.437716
2.158687 -0.639432 0.196972
2.174234 -0.644450 -0.359174
2.169702 -0.643107 0.277862
2.177315 -0.645364 -0.278837
2.145092 -0.636220 -0.195752
2.169371 -0.643833 -0.118593
2.168071 -0.643859 -0.039477
2.167621 -0.645372 0.039477
2.153383 -0.641542 0.117756
2.167409 -0.646133 -0.439624
2.159477 -0.643768 0.197146
2.169320 -0.647115 -0.358548
2.174283 -0.648595 0.278593
2.172381 -0.648028 -0.278350
2.143979 -0.639963 -0.195752
2.177813 -0.650476 -0.119117
2.166944 -0.647642 -0.039477
2.162660 -0.648006 0.039408
2.159912 -0.647594 0.118175
2.162517 -0.648786 -0.438861
2.160259 -0.648109 0.197321
2.160620 -0.648628 -0.357296
2.165543 -0.650106 0.277618
2.194062 -0.658667 -0.281274
2.207803 -0.663213 0.365118
2.154308 -0.647143 -0.196798
2.163285 -0.650251 -0.118384
2.165810 -0.651423 -0.039477
2.169184 -0.654089 0.039547
2.153042 -0.649632 0.117861
2.178296 -0.657666 -0.442295
2.161031 -0.652454 0.197495
2.170830 -0.655826 -0.359174
2.162504 -0.653310 0.277375
2.185308 -0.660199 -0.280300
2.160804 -0.653208 -0.197495
2.158324 -0.652870 -0.118175
2.176154 -0.658678 -0.039687
2.168039 -0.657874 0.039547
2.146172 -0.651648 0.117547
2.167753 -0.658614 -0.440387
2.163702 -0.657383 0.197844
2.177242 -0.661912 -0.360425
2.165160 -0.658239 0.277862
2.178454 -0.662280 -0.279568
2.163473 -0.658138 -0.197844
2.162913 -0.658380 -0.118489
2.167349 -0.660144 -0.039547
2.172625 -0.663409 0.039652
2.148851 -0.656560 0.117756
2.166600 -0.662396 -0.440387
2.162552 -0.661158 0.197844
2.183639 -0.668022 -0.361677
2.169702 -0.663759 0.278593
2.179193 -0.666662 -0.279812
2.158510 -0.660747 -0.197495
2.175128 -0.666249 -0.119221
2.166194 -0.663926 -0.039547
2.175287 -0.668375 0.039722
2.164884 -0.665592 0.118698
2.171070 -0.667908 -0.441532
2.157586 -0.663760 0.197495
2.182470 -0.671832 -0.361677
2.178026 -0.670464 0.279812
2.185615 -0.672801 -0.280787
2.184241 -0.672795 0.361989
2.149737 -0.662167 -0.196798
2.181597 -0.672397 -0.119640
2.172675 -0.670063 -0.039687
2.172207 -0.671579 0.039687
2.165627 -0.669959 0.118803
2.179278 -0.674599 -0.443440
2.167843 -0.671060 0.198541
2.168203 -0.671171 -0.359486
2.169268 -0.671916 0.278837
2.195815 -0.680138 -0.282249
2.159997 -0.669457 -0.197844
2.172789 -0.673837 -0.119221
2.177232 -0.675632 -0.039791
2.174850 -0.676558 0.039757
2.168268 -0.674925 0.119012
2.185714 -0.680356 -0.444967
2.162982 -0.673280 0.198192
2.184002 -0.680241 -0.362302
2.164419 -0.674142 0.278350
2.187044 -0.681607 -0.281274
2.166551 -0.675220 -0.198541
2.169822 -0.676655 -0.119117
2.174259 -0.678455 -0.039757
2.175694 -0.680570 0.039791
2.159581 -0.675944 0.118593
2.184523 -0.684169 -0.444967
2.188422 -0.685390 0.200633
2.182812 -0.684052 -0.362302
2.176499 -0.682073 0.280056
2.189759 -0.686229 -0.281762
2.172974 -0.681385 -0.199238
2.172449 -0.681637 -0.119326
2.180703 -0.684645 -0.039896
2.182132 -0.686768 0.039931
2.158398 -0.679712 0.118593
2.170218 -0.683851 -0.442295
2.164419 -0.682023 0.198541
