# This PCD file was generated using the MATLAB® pcwrite function
# from Computer Vision System Toolbox®.
# .PCD v.7 - Point Cloud Data file format
VERSION .7
FIELDS x y z
SIZE 4 4 4
TYPE F F F
COUNT 1 1 1
WIDTH 1670
HEIGHT 1
VIEWPOINT 0 0 0 1 0 0 0
POINTS 1670
DATA ascii
1.353494 -1.067392 -0.335061
1.358562 -1.071773 -0.274073
1.369919 -1.080733 -0.214246
1.346614 -1.062728 -0.150082
1.362260 -1.075462 -0.090960
1.357457 -1.072055 -0.030193
1.359166 -1.074946 -0.464321
1.338765 -1.059191 -0.394114
1.353168 -1.070971 -0.335442
1.359787 -1.076595 -0.274699
1.364918 -1.080658 -0.213759
1.346319 -1.066314 -0.150256
1.360314 -1.079719 -0.465357
1.349124 -1.071221 -0.397713
1.343610 -1.067225 -0.333534
1.353894 -1.078480 -0.463804
1.350300 -1.076002 -0.398613
1.853618 -0.317178 0.297851
1.825811 -0.315700 0.293471
1.838201 -0.320817 0.229114
1.821365 -0.318207 0.292845
1.815017 -0.319710 0.161238
1.825909 -0.321957 0.227652
1.824697 -0.322072 0.293471
1.813049 -0.322300 0.096508
1.812495 -0.322528 0.161064
1.827299 -0.325491 0.227896
1.816354 -0.323869 0.292220
1.826244 -0.327935 0.097240
1.802125 -0.323929 0.160192
1.808010 -0.325638 0.290968
1.863607 -0.336323 -0.033055
1.851624 -0.335162 0.032845
1.845379 -0.334364 0.098287
1.831020 -0.332092 0.162807
1.816443 -0.329776 0.226677
1.821100 -0.330950 0.293158
1.868149 -0.339500 -0.166119
1.817635 -0.330648 -0.096822
1.823729 -0.332085 -0.032357
1.826518 -0.334570 0.162458
1.815865 -0.332946 0.226677
1.818577 -0.333771 0.292845
1.840118 -0.337725 -0.163678
1.824913 -0.335263 -0.097240
1.829047 -0.336353 -0.032461
1.828812 -0.337630 0.032461
1.812814 -0.335004 -0.425607
1.787245 -0.330278 0.095251
1.837840 -0.339960 -0.363300
1.816135 -0.335945 0.161587
1.868552 -0.345978 -0.300980
1.819185 -0.336838 0.227164
1.869934 -0.346234 -0.233502
1.806338 -0.334785 0.290968
1.831690 -0.339484 -0.162981
1.845926 -0.342455 -0.098392
1.822322 -0.339722 0.032357
1.839046 -0.343172 -0.431906
1.802372 -0.336328 0.096089
1.806366 -0.337400 -0.357194
1.811629 -0.338383 0.161238
1.869887 -0.349602 -0.301293
1.822497 -0.340742 0.227652
1.847863 -0.345484 -0.230821
1.801868 -0.337210 0.290342
1.797802 -0.336449 -0.160018
1.827658 -0.342367 -0.097450
1.816069 -0.340524 -0.032252
1.825657 -0.343642 0.032427
1.811634 -0.341329 -0.425607
1.795895 -0.338364 0.095775
1.828925 -0.344918 -0.361774
1.811036 -0.341544 0.161238
1.830452 -0.345537 -0.295035
1.821899 -0.343922 0.227652
1.805158 -0.341088 0.290968
1.791339 -0.338477 -0.159495
1.852569 -0.350382 -0.098810
1.817437 -0.344065 -0.032287
1.835255 -0.348766 -0.500556
1.805409 -0.343094 0.032078
1.828265 -0.347768 -0.429657
1.809036 -0.344110 0.096508
1.810963 -0.344805 -0.358339
1.810437 -0.344704 0.161238
1.802680 -0.343554 -0.290655
1.815446 -0.345987 0.226921
1.825196 -0.347845 -0.228139
1.808441 -0.344979 0.291594
1.790745 -0.341603 -0.159495
1.826452 -0.348745 -0.097450
1.812905 -0.346486 -0.032217
1.825158 -0.350149 -0.497968
1.812663 -0.347752 0.032217
1.791294 -0.343976 -0.421108
1.782934 -0.342371 0.095147
1.802647 -0.346482 -0.356813
1.811789 -0.348240 0.161412
1.813716 -0.348938 -0.292533
1.803144 -0.346904 0.225458
1.824586 -0.351030 -0.228139
1.807836 -0.348134 0.291594
1.805798 -0.347742 -0.160889
1.802306 -0.347396 -0.096193
1.824079 -0.351923 -0.032427
1.815060 -0.351497 -0.495380
1.815980 -0.351675 0.032287
1.790690 -0.347102 -0.421108
1.790177 -0.347002 0.095565
1.807821 -0.350750 -0.357958
1.822914 -0.353678 0.162458
1.813105 -0.352103 -0.292533
1.808381 -0.351186 0.226190
1.810330 -0.351565 -0.226433
1.799469 -0.349781 0.290342
1.797365 -0.349372 -0.160192
1.821302 -0.354355 -0.097240
1.811685 -0.352812 -0.032217
1.808756 -0.353553 -0.493827
1.813401 -0.354461 0.032252
1.795819 -0.351349 -0.422458
1.785648 -0.349359 0.095356
1.809133 -0.354282 -0.358339
1.802741 -0.353030 0.160715
1.814426 -0.355647 -0.292845
1.809713 -0.354724 0.226433
1.811662 -0.355106 -0.226677
1.787226 -0.350640 0.288465
1.788932 -0.350975 -0.159495
1.818721 -0.357148 -0.097136
1.807142 -0.355202 -0.032147
1.796765 -0.354466 -0.490721
1.808856 -0.356851 0.032182
1.812410 -0.357881 -0.426507
1.800711 -0.355571 0.096193
1.808512 -0.357439 -0.358339
1.800168 -0.355790 0.160541
1.809927 -0.358047 -0.292220
1.812986 -0.358652 0.226921
1.818828 -0.359808 -0.227652
1.794362 -0.355293 0.289717
1.780499 -0.352548 -0.158798
1.808299 -0.358381 -0.096612
1.806519 -0.358356 -0.032147
1.798038 -0.357978 -0.491239
1.798424 -0.358055 0.032008
1.804138 -0.359520 -0.424708
1.788335 -0.356371 0.095565
1.811736 -0.361363 -0.359103
1.803452 -0.359711 0.160889
1.801550 -0.359658 -0.290968
1.806518 -0.360650 0.226190
1.818198 -0.362982 -0.227652
1.795676 -0.358812 0.290030
1.785742 -0.356827 -0.159321
1.811588 -0.362320 -0.096822
1.811773 -0.362686 -0.032252
1.801198 -0.361877 -0.492274
1.807599 -0.363163 0.032182
1.795866 -0.361132 -0.422908
1.785752 -0.359098 0.095461
1.813027 -0.364912 -0.359484
1.802822 -0.362858 0.160889
1.800920 -0.362802 -0.290968
1.798101 -0.362234 0.225215
1.800048 -0.362626 -0.225458
1.802793 -0.363507 0.291281
1.781211 -0.359155 -0.158972
1.805079 -0.364296 -0.096508
1.809178 -0.365451 -0.032217
1.800564 -0.365020 -0.492274
1.810882 -0.367112 0.032252
1.793323 -0.363878 -0.422458
1.769464 -0.359037 0.094623
1.800843 -0.365731 -0.357194
1.804138 -0.366400 0.161064
1.800284 -0.365945 -0.290968
1.799412 -0.365767 0.225458
1.799412 -0.365767 -0.225458
1.788606 -0.363896 0.289091
1.788391 -0.363852 -0.159669
1.782913 -0.363062 -0.095356
1.808537 -0.368608 -0.032217
1.798032 -0.367775 -0.491756
1.808279 -0.369871 0.032217
1.792685 -0.367007 -0.422458
1.784488 -0.365329 0.095461
1.788663 -0.366509 -0.354905
1.799592 -0.368749 0.160715
1.805448 -0.370277 -0.291907
1.802660 -0.369705 0.225946
1.802660 -0.369705 -0.225946
1.787968 -0.367017 0.289091
1.783850 -0.366172 -0.159321
1.809666 -0.371800 -0.096822
1.800056 -0.370153 -0.032078
1.789819 -0.369351 -0.489686
1.793922 -0.370197 0.031973
1.799675 -0.371712 -0.424258
1.772112 -0.366019 0.094833
1.791865 -0.370425 -0.355668
1.795043 -0.371082 0.160367
1.798996 -0.372227 -0.290968
1.802012 -0.372851 0.225946
1.809788 -0.374460 -0.226921
1.787325 -0.370137 0.289091
1.771502 -0.366860 -0.158275
1.801191 -0.373337 -0.096403
1.799407 -0.373294 -0.032078
1.789172 -0.372474 -0.489686
1.793273 -0.373328 0.031973
1.791393 -0.373263 -0.422458
1.791023 -0.373186 0.095879
1.800826 -0.375556 -0.357576
1.790492 -0.373401 0.160018
1.782874 -0.372137 -0.288465
1.793586 -0.374373 0.224971
1.807188 -0.377212 -0.226677
1.786676 -0.373256 0.289091
1.778660 -0.371581 -0.158972
1.804447 -0.377297 -0.096612
1.802668 -0.377254 -0.032147
1.794191 -0.376787 -0.491239
1.796533 -0.377279 0.032043
1.779296 -0.373984 -0.419759
1.763005 -0.370559 0.094414
1.802089 -0.379103 -0.357958
1.793737 -0.377346 0.160367
1.789953 -0.376876 -0.289717
1.792929 -0.377503 0.224971
1.796815 -0.378321 -0.225458
1.789888 -0.377188 0.289717
1.778009 -0.374685 -0.158972
1.778380 -0.375088 -0.095251
1.803963 -0.380812 -0.032182
1.791641 -0.379518 -0.490721
1.790003 -0.379171 0.031938
1.782454 -0.377897 -0.420658
1.770171 -0.375293 0.094833
1.797583 -0.381432 -0.357194
1.800872 -0.382130 0.161064
1.787361 -0.379589 -0.289404
1.788384 -0.379807 0.224483
1.776734 -0.377332 -0.223021
1.777633 -0.377848 0.287839
1.785148 -0.379445 -0.159669
1.808980 -0.384840 -0.096926
1.791561 -0.381462 -0.031973
1.783418 -0.381030 -0.488650
1.797161 -0.383966 0.032078
1.789414 -0.382637 -0.422458
1.759748 -0.376294 0.094309
1.791155 -0.383337 -0.356050
1.796306 -0.384439 0.160715
1.802215 -0.385704 -0.291907
1.787719 -0.382927 0.224483
1.789660 -0.383343 -0.224727
1.776971 -0.380950 0.287839
1.776690 -0.380889 -0.158972
1.784871 -0.382969 -0.095670
1.790892 -0.384588 -0.031973
1.771420 -0.381700 -0.485545
1.796488 -0.387102 0.032078
1.788811 -0.385448 -0.422458
1.768850 -0.381470 0.094833
1.792470 -0.386563 -0.356431
1.784014 -0.384740 0.159669
1.791885 -0.386764 -0.290342
1.794877 -0.387410 0.225458
1.787048 -0.386047 -0.224483
1.782163 -0.384992 0.288778
1.770247 -0.382418 -0.158449
1.813550 -0.392103 -0.097240
1.790286 -0.387401 -0.031973
1.774594 -0.385302 -0.486580
1.778290 -0.386105 0.031763
1.780518 -0.386914 -0.420658
1.760442 -0.382551 0.094414
1.795630 -0.390526 -0.357194
1.787233 -0.388700 0.160018
1.779626 -0.387370 -0.288465
1.788379 -0.389276 0.224727
1.794198 -0.390542 -0.225458
1.779558 -0.387681 0.288465
1.767630 -0.385083 -0.158275
1.779689 -0.388035 -0.095461
1.793514 -0.391377 -0.032043
1.777693 -0.389225 -0.487615
1.779567 -0.389635 0.031798
1.766515 -0.387101 -0.417509
1.779281 -0.389898 0.095461
1.794945 -0.393659 -0.357194
1.786552 -0.391818 0.160018
1.775088 -0.389629 -0.287839
1.778002 -0.390269 0.223508
1.778002 -0.390269 -0.223508
1.782738 -0.391634 0.289091
1.776685 -0.390305 -0.159146
1.788762 -0.393285 -0.095984
1.796734 -0.395366 -0.032112
1.788329 -0.394826 -0.490721
1.788647 -0.394896 0.031973
1.779157 -0.393127 -0.420658
1.753245 -0.387401 0.094100
1.784671 -0.394672 -0.355286
1.793647 -0.396657 0.160715
1.782120 -0.394434 -0.289091
1.779256 -0.393800 0.223752
1.777318 -0.393371 -0.223508
1.776266 -0.393463 0.288152
1.774056 -0.392974 -0.158972
1.772474 -0.392948 -0.095147
1.790185 -0.397202 -0.032008
1.774438 -0.395008 -0.487097
1.786003 -0.397583 0.031938
1.778468 -0.396231 -0.420658
1.754516 -0.390895 0.094205
1.772482 -0.395222 -0.352997
1.787118 -0.398486 0.160192
1.783357 -0.397974 -0.289404
1.790191 -0.399499 0.225215
1.772754 -0.395608 -0.223021
1.764009 -0.393979 0.286275
1.761701 -0.393464 -0.157926
1.795175 -0.401269 -0.096403
1.785586 -0.399453 -0.031938
1.760551 -0.395143 -0.483474
1.787258 -0.401137 0.031973
1.781576 -0.400189 -0.421558
1.769421 -0.397458 0.095042
1.773705 -0.398746 -0.353378
1.776701 -0.399419 0.159321
1.780733 -0.400652 -0.289091
1.797238 -0.404366 0.226190
1.785617 -0.401751 -0.224727
1.776808 -0.400095 0.288465
1.753237 -0.394787 -0.157229
1.809885 -0.407875 0.360629
1.774988 -0.400011 -0.095356
1.780985 -0.401689 -0.031868
1.767395 -0.399921 -0.485545
1.769002 -0.400284 0.031659
1.773273 -0.401576 -0.419759
1.770672 -0.400987 0.095147
1.778750 -0.403143 -0.354523
1.776001 -0.402520 0.159321
1.768472 -0.401138 -0.287214
1.786849 -0.405306 0.224971
1.786849 -0.405306 -0.224971
1.772255 -0.402321 0.287839
1.756431 -0.398729 -0.157578
1.774710 -0.403204 0.353760
1.793763 -0.407533 -0.096403
1.786131 -0.406127 -0.031973
1.766695 -0.403005 -0.485545
1.774149 -0.404705 0.031763
1.764970 -0.402935 -0.417959
1.748551 -0.399187 0.093995
1.785700 -0.407996 -0.356050
1.773353 -0.405175 0.159146
1.771621 -0.405104 -0.287839
1.776464 -0.406212 0.223752
1.776464 -0.406212 -0.223752
1.769624 -0.404973 0.287527
1.759616 -0.402683 -0.157926
1.747212 -0.400165 0.348417
1.761900 -0.403529 -0.094728
1.789318 -0.410137 -0.032043
1.781050 -0.409551 -0.489686
1.777338 -0.408697 0.031833
1.766163 -0.406452 -0.418409
1.755637 -0.404030 0.094414
1.779246 -0.409790 -0.354905
1.780410 -0.410058 0.159844
1.782460 -0.410858 -0.289717
1.781555 -0.410649 0.224483
1.764146 -0.406637 -0.222290
1.763140 -0.406729 0.286588
1.762794 -0.406649 -0.158275
1.740772 -0.401889 0.347272
1.788438 -0.412893 -0.096193
1.778857 -0.411009 -0.031868
1.761513 -0.408297 -0.484509
1.780518 -0.412702 0.031903
1.771146 -0.410855 -0.419759
1.739365 -0.403483 0.093577
1.761316 -0.408899 -0.351470
1.773869 -0.411813 0.159321
1.781740 -0.413968 -0.289717
1.775035 -0.412410 0.223752
1.773101 -0.411961 -0.223508
1.764352 -0.410253 0.286901
1.760141 -0.409274 -0.158101
1.738156 -0.404482 0.346891
1.770207 -0.411940 -0.095251
1.770347 -0.412298 -0.031728
1.749511 -0.408734 -0.481403
1.772006 -0.413989 0.031763
1.774221 -0.414833 -0.420658
1.769775 -0.413794 0.095251
1.772069 -0.414656 -0.353760
1.755688 -0.410823 0.157752
1.765629 -0.413474 -0.287214
1.780111 -0.416866 0.224483
1.774312 -0.415508 -0.223752
1.759786 -0.412430 0.286275
1.749725 -0.410072 -0.157229
1.741270 -0.408411 0.347654
1.790875 -0.420046 -0.096403
1.773518 -0.416301 -0.031798
1.760077 -0.414443 -0.484509
1.759602 -0.414331 0.031554
1.765907 -0.416141 -0.418859
1.755442 -0.413675 0.094519
1.769432 -0.417298 -0.353378
1.770481 -0.417545 0.159146
1.764977 -0.416247 -0.287214
1.767788 -0.417236 0.223021
1.783244 -0.420884 -0.224971
1.768676 -0.417771 0.287839
1.749007 -0.413125 -0.157229
1.746358 -0.412500 0.348799
1.760983 -0.416279 -0.094833
1.774735 -0.419857 -0.031833
1.755592 -0.416622 -0.483474
1.754985 -0.416478 0.031484
1.757667 -0.417115 -0.417059
1.760546 -0.418123 0.094833
1.768775 -0.420077 -0.353378
1.758193 -0.417564 0.158101
1.764248 -0.419327 -0.287214
1.767131 -0.420012 0.223021
1.778645 -0.423077 -0.224483
1.766096 -0.420092 0.287527
1.758047 -0.418177 -0.158101
1.743726 -0.415092 0.348417
1.754498 -0.417657 -0.094519
1.776018 -0.423107 -0.031868
1.762451 -0.421176 -0.485545
1.762108 -0.421094 0.031624
1.743669 -0.417009 -0.413910
1.736578 -0.415313 0.093577
1.756583 -0.420421 -0.351089
1.778775 -0.425733 0.160018
1.771197 -0.424246 -0.288465
1.764465 -0.422633 0.222777
1.766395 -0.423096 -0.223021
1.755755 -0.420871 0.285962
1.755377 -0.420781 -0.157926
1.744908 -0.418593 0.348799
1.779015 -0.426775 -0.095879
1.767499 -0.424339 -0.031728
1.757957 -0.423346 -0.484509
1.776923 -0.427914 0.031903
1.763778 -0.425074 -0.418859
1.747500 -0.421151 0.094205
1.757755 -0.423947 -0.351470
1.762535 -0.425100 0.158623
1.770454 -0.427337 -0.288465
1.767584 -0.426644 0.223265
1.767584 -0.426644 -0.223265
1.749258 -0.422544 0.285024
1.743019 -0.421037 -0.156880
1.751808 -0.423483 0.350325
1.756913 -0.424717 -0.094728
1.764812 -0.426953 -0.031694
1.745951 -0.423681 -0.481403
1.756741 -0.426299 0.031554
1.759246 -0.427232 -0.417959
1.737058 -0.421844 0.093681
1.747474 -0.424696 -0.349562
1.755982 -0.426764 0.158101
1.762028 -0.428559 -0.287214
1.772623 -0.431136 0.223996
1.764907 -0.429259 -0.223021
1.750437 -0.426063 0.285336
1.744218 -0.424549 -0.157055
1.747251 -0.425611 0.349562
1.777514 -0.432983 -0.095879
1.764065 -0.430033 -0.031694
1.745209 -0.426727 -0.481403
1.752109 -0.428414 0.031484
1.762284 -0.431228 -0.418859
1.757660 -0.430097 0.094833
1.750544 -0.428679 -0.350325
1.757170 -0.430302 0.158275
1.745928 -0.427872 -0.284711
1.762228 -0.431866 0.222777
1.764156 -0.432339 -0.223021
1.755446 -0.430529 0.286275
1.745409 -0.428068 -0.157229
1.729346 -0.424448 0.346128
1.749600 -0.429419 -0.094414
1.767195 -0.434065 -0.031763
1.748213 -0.430697 -0.482439
1.753300 -0.431950 0.031519
1.742608 -0.429638 -0.414360
1.739454 -0.428861 0.093891
1.763135 -0.435026 -0.352997
1.758351 -0.433845 0.158449
1.756761 -0.433453 -0.286588
1.753762 -0.433038 0.221802
1.765326 -0.435893 -0.223265
1.760445 -0.435014 0.287214
1.742725 -0.430635 -0.157055
1.742018 -0.430461 0.348799
1.752726 -0.433431 -0.094623
1.764494 -0.436668 -0.031728
1.751209 -0.434678 -0.483474
1.758366 -0.436455 0.031624
1.753279 -0.435192 -0.417059
1.727072 -0.429007 0.093263
1.756734 -0.436375 -0.351852
1.767335 -0.439008 0.159321
1.756002 -0.436519 -0.286588
1.764639 -0.438666 0.223265
1.756857 -0.437057 -0.222290
1.748258 -0.434918 0.285336
1.745914 -0.434334 -0.157403
1.735549 -0.432078 0.347654
1.748167 -0.435219 -0.094414
1.759925 -0.438472 -0.031659
1.743027 -0.435555 -0.481403
1.757678 -0.439216 0.031624
1.758188 -0.439669 -0.418409
1.726396 -0.431719 0.093263
1.750256 -0.438010 -0.350707
1.751104 -0.438223 0.157926
1.759070 -0.440542 -0.287214
1.763870 -0.441745 0.223265
1.761945 -0.441262 -0.223021
1.739832 -0.436047 0.284085
1.737422 -0.435443 -0.156706
1.744314 -0.437494 0.349562
1.751279 -0.439241 -0.094623
1.759157 -0.441543 -0.031659
1.738517 -0.437653 -0.480368
1.745274 -0.439354 0.031414
1.736631 -0.437501 -0.413460
1.731451 -0.436196 0.093577
1.751392 -0.441545 -0.351089
1.746472 -0.440304 0.157578
1.750637 -0.441679 -0.285962
1.763097 -0.444823 0.223265
1.757322 -0.443366 -0.222533
1.742899 -0.440050 0.284711
1.727001 -0.436036 -0.155834
1.732127 -0.437652 0.347272
1.773746 -0.448168 -0.095879
1.756445 -0.444123 -0.031624
1.737751 -0.440687 -0.480368
1.744504 -0.442400 0.031414
1.749087 -0.443887 -0.416609
1.740366 -0.441673 0.094100
1.746813 -0.443634 -0.350325
1.751495 -0.444823 0.158101
1.742205 -0.442787 -0.284711
1.748850 -0.444476 0.221558
1.762318 -0.447899 -0.223265
1.749786 -0.445039 0.285962
1.733961 -0.441014 -0.156532
1.740873 -0.443096 0.349180
1.743928 -0.443873 -0.094309
1.761481 -0.448668 -0.031728
1.744466 -0.445632 -0.482439
1.743730 -0.445444 0.031414
1.723765 -0.440664 -0.410761
1.722177 -0.440258 0.093158
1.761253 -0.450575 -0.353378
1.754576 -0.448867 0.158449
1.749085 -0.447787 -0.285962
1.748072 -0.447528 0.221558
1.751918 -0.448513 -0.222046
1.749006 -0.448092 0.285962
1.735119 -0.444534 -0.156706
1.736294 -0.445158 0.348417
1.762498 -0.451877 -0.095356
1.764569 -0.452736 -0.031798
1.739944 -0.447713 -0.481403
1.741013 -0.447988 0.031379
1.739978 -0.448046 -0.414810
1.717538 -0.442267 0.092949
1.737650 -0.447769 -0.348799
1.751860 -0.451431 0.158275
1.748300 -0.450839 -0.285962
1.743444 -0.449587 0.221071
1.751132 -0.451570 -0.222046
1.736745 -0.448183 0.284085
1.738198 -0.448558 -0.157055
1.731712 -0.447206 0.347654
1.732699 -0.447461 -0.093786
1.752159 -0.452813 -0.031589
1.735420 -0.449780 -0.480368
1.746036 -0.452531 0.031484
1.746739 -0.453039 -0.416609
1.739963 -0.451281 0.094205
1.744467 -0.452774 -0.350325
1.749141 -0.453988 0.158101
1.751335 -0.454883 -0.286588
1.756106 -0.456122 0.222777
1.748420 -0.454126 -0.221802
1.730225 -0.449723 0.283146
1.723915 -0.448082 -0.155834
1.732829 -0.450722 0.348036
1.739647 -0.452496 -0.094205
1.749431 -0.455367 -0.031554
1.730893 -0.451832 -0.479333
1.743308 -0.455073 0.031449
1.736518 -0.453624 -0.414360
1.719848 -0.449269 0.093158
1.743674 -0.455818 -0.350325
1.730998 -0.452505 0.156532
1.742894 -0.455939 -0.285336
1.751466 -0.458182 0.222290
1.743784 -0.456172 -0.221315
1.737081 -0.454743 0.284398
1.728912 -0.452604 -0.156357
1.720645 -0.450761 0.345746
1.767836 -0.463124 -0.095775
1.746700 -0.457912 -0.031519
1.730102 -0.454852 -0.479333
1.732842 -0.455572 0.031275
1.735724 -0.456654 -0.414360
1.726788 -0.454303 0.093577
1.739079 -0.457861 -0.349562
1.741766 -0.458569 0.157578
1.730634 -0.455961 -0.283459
1.746824 -0.460227 0.221802
1.754503 -0.462249 -0.222777
1.738195 -0.458277 0.284711
1.712707 -0.451558 -0.154963
1.723652 -0.454765 0.346509
1.741920 -0.459585 -0.094414
1.745898 -0.460960 -0.031519
1.733041 -0.458860 -0.480368
1.737843 -0.460132 0.031379
1.734924 -0.459683 -0.414360
1.722131 -0.456293 0.093367
1.743970 -0.462405 -0.350707
1.740963 -0.461608 0.157578
1.741292 -0.462020 -0.285336
1.728750 -0.458693 0.219609
1.744100 -0.462766 -0.221558
1.743120 -0.462831 0.285649
1.725396 -0.458125 -0.156183
1.717163 -0.456260 0.345364
1.748836 -0.464676 -0.094833
1.756686 -0.467090 -0.031728
1.739704 -0.463875 -0.482439
1.738969 -0.463679 0.031414
1.726588 -0.460700 -0.412560
1.709754 -0.456209 0.092739
1.731779 -0.462409 -0.348417
1.742079 -0.465160 0.157752
1.740483 -0.465059 -0.285336
1.735618 -0.463759 0.220584
1.733700 -0.463247 -0.220340
1.734676 -0.463832 0.284398
1.726519 -0.461651 -0.156357
1.722054 -0.460779 0.346509
1.732587 -0.463597 -0.093995
1.744278 -0.467052 -0.031519
1.724046 -0.462602 -0.478298
1.742102 -0.467447 0.031484
1.731508 -0.464928 -0.413910
1.705177 -0.457858 0.092530
1.729155 -0.464620 -0.348036
1.729802 -0.464794 0.156706
1.739750 -0.467792 -0.285336
1.742556 -0.468547 0.221558
1.732971 -0.465969 -0.220340
1.732038 -0.466043 0.284085
1.720020 -0.462809 -0.155834
1.727015 -0.465015 0.347654
1.753071 -0.472030 -0.095147
1.739680 -0.468750 -0.031449
1.715776 -0.463595 -0.476227
1.731631 -0.467878 0.031310
1.726932 -0.466932 -0.413010
1.717871 -0.464482 0.093263
1.724551 -0.466611 -0.347272
1.717449 -0.464690 0.155660
1.731304 -0.468763 -0.284085
1.741735 -0.471587 0.221558
1.735987 -0.470031 -0.220827
1.723596 -0.466999 0.282834
1.715363 -0.464768 -0.155486
1.720517 -0.466487 0.346509
1.732968 -0.469863 -0.094100
1.738860 -0.471786 -0.031449
1.722421 -0.468617 -0.478298
1.717305 -0.467225 0.031065
1.729875 -0.470969 -0.413910
1.715131 -0.466955 0.093158
1.729416 -0.471169 -0.348417
1.728169 -0.470829 0.156706
1.726671 -0.470745 -0.283459
1.729418 -0.471494 0.220096
1.746655 -0.476193 -0.222290
1.726589 -0.471046 0.283459
1.716472 -0.468286 -0.155660
1.700760 -0.464318 0.342693
1.745633 -0.476569 -0.094833
1.743821 -0.476401 -0.031554
1.721600 -0.471623 -0.478298
1.728059 -0.473392 0.031275
1.706497 -0.467805 -0.408511
1.714313 -0.469948 0.093158
1.734272 -0.475745 -0.349562
1.721580 -0.472263 0.156183
1.729657 -0.474803 -0.284085
1.719022 -0.471884 0.218877
1.726679 -0.473986 -0.219852
1.731479 -0.475628 0.284398
1.713730 -0.470753 -0.155486
1.703733 -0.468327 0.343456
1.723614 -0.473792 -0.093681
1.744915 -0.479974 -0.031589
1.728224 -0.476681 -0.480368
1.729157 -0.476939 0.031310
1.724463 -0.475968 -0.413010
1.692313 -0.467094 0.092007
1.722084 -0.475635 -0.347272
1.724594 -0.476328 0.156532
1.732717 -0.478572 -0.284711
1.723935 -0.476470 0.219609
1.729675 -0.478056 -0.220340
1.717319 -0.474964 0.282208
1.718667 -0.475337 -0.156009
1.710565 -0.473096 0.344983
1.736259 -0.480528 -0.094414
1.726730 -0.478216 -0.031275
1.723666 -0.478663 -0.479333
1.726396 -0.479421 0.031275
1.714325 -0.476069 -0.410761
1.706890 -0.474325 0.092844
1.713769 -0.476237 -0.345746
1.721924 -0.478503 0.156357
1.728073 -0.480537 -0.284085
1.727010 -0.480241 0.220096
1.721189 -0.478946 -0.219365
1.712765 -0.476602 0.281582
1.708321 -0.475365 -0.155137
1.705954 -0.475027 0.344219
1.716261 -0.477897 -0.093367
1.716345 -0.478244 -0.031100
1.711749 -0.478251 -0.476227
1.719863 -0.480518 0.031170
1.726629 -0.482733 -0.413910
1.702295 -0.475930 0.092635
1.720497 -0.481343 -0.347272
1.719168 -0.480971 0.156183
1.727232 -0.483552 -0.284085
1.726169 -0.483254 0.220096
1.733731 -0.485698 -0.221071
1.717637 -0.481189 0.282521
1.703652 -0.477271 -0.154789
1.707013 -0.478534 0.344601
1.726963 -0.484127 -0.093995
1.730911 -0.485559 -0.031379
1.714547 -0.482583 -0.477262
1.707388 -0.480568 0.030961
1.707025 -0.480466 -0.409411
1.705223 -0.480280 0.092844
1.725324 -0.485942 -0.348417
1.718241 -0.484270 0.156183
1.720681 -0.484958 -0.283146
1.717596 -0.484412 0.219121
1.740523 -0.490878 -0.222046
1.720597 -0.485258 0.283146
1.696980 -0.478918 -0.154266
1.698617 -0.479380 0.343075
1.720264 -0.485813 -0.093681
1.726127 -0.487794 -0.031310
1.717419 -0.486628 -0.478298
1.702698 -0.482457 0.030891
1.696725 -0.481085 -0.407161
1.702461 -0.482711 0.092739
1.724388 -0.489253 -0.348417
1.711643 -0.485637 0.155660
1.706530 -0.484186 -0.280956
1.701471 -0.483072 0.217171
1.718657 -0.487951 -0.219365
1.719662 -0.488561 0.283146
1.699974 -0.482968 -0.154614
1.699666 -0.482880 0.343456
1.719414 -0.488815 -0.093681
1.729119 -0.491900 -0.031379
1.716567 -0.489625 -0.478298
1.713392 -0.488719 0.031100
1.707212 -0.486956 -0.409861
1.692013 -0.482941 0.092216
1.697187 -0.484417 -0.343075
1.718542 -0.490512 0.156357
1.703783 -0.486621 -0.280643
1.704527 -0.486834 0.217659
1.725438 -0.493132 -0.220340
1.713194 -0.489633 0.282208
1.706877 -0.487827 -0.155312
1.700708 -0.486386 0.343838
1.714803 -0.490417 -0.093472
1.724499 -0.493515 -0.031310
1.710225 -0.490722 -0.476745
1.716466 -0.492513 0.031170
1.713851 -0.492087 -0.411660
1.693172 -0.486149 0.092321
1.698226 -0.487921 -0.343456
1.698534 -0.488009 0.154614
1.710525 -0.491778 -0.281895
1.711306 -0.492002 0.218634
1.715122 -0.493099 -0.219121
1.714236 -0.493168 0.282521
1.690705 -0.486399 -0.153917
1.705517 -0.490983 0.344983
1.721622 -0.495619 -0.093891
1.714028 -0.493757 -0.031135
1.703798 -0.492098 -0.475192
1.707919 -0.493288 0.031030
1.714862 -0.495618 -0.412110
1.696159 -0.490212 0.092530
1.693600 -0.489793 -0.342693
1.699594 -0.491527 0.154789
1.705869 -0.493664 -0.281269
1.721886 -0.498299 0.220096
1.710445 -0.494988 -0.218634
1.711475 -0.495610 0.282208
1.689853 -0.489349 -0.153917
1.697114 -0.491773 0.343456
1.718836 -0.498067 -0.093786
1.718925 -0.498418 -0.031240
1.702937 -0.495071 -0.475192
1.695534 -0.492919 0.030821
1.695283 -0.493167 -0.407611
1.689547 -0.491498 0.092216
1.696512 -0.493846 -0.343456
1.700646 -0.495049 0.154963
1.697418 -0.494431 -0.280018
1.705767 -0.496863 0.218146
1.732449 -0.504635 -0.221558
1.708711 -0.498044 0.281895
1.685171 -0.491183 -0.153568
1.694369 -0.494184 0.343075
1.719881 -0.501625 -0.093891
1.719972 -0.501978 -0.031275
1.711341 -0.500755 -0.477780
1.702348 -0.498124 0.030961
1.700030 -0.497768 -0.408961
1.686770 -0.493885 0.092111
1.703184 -0.499014 -0.344983
1.703604 -0.499137 0.155312
1.700344 -0.498504 -0.280643
1.697277 -0.497605 0.217171
1.708707 -0.500956 -0.218634
1.711630 -0.502137 0.282521
1.688135 -0.495245 -0.153917
1.699155 -0.498800 0.344219
1.707505 -0.501251 -0.093263
1.726768 -0.507233 -0.031414
1.708611 -0.503196 -0.477262
1.701476 -0.501094 0.030961
1.699159 -0.500734 -0.408961
1.680158 -0.495135 0.091797
1.698544 -0.500875 -0.344219
1.712285 -0.504927 0.156183
1.703261 -0.502589 -0.281269
1.694502 -0.500005 0.216927
1.704022 -0.502814 -0.218146
1.706962 -0.504005 0.281895
1.694911 -0.500447 -0.154614
1.694516 -0.500652 0.343456
1.702797 -0.503099 -0.093053
1.710539 -0.505711 -0.031135
1.704026 -0.505079 -0.476227
1.700599 -0.504063 0.030961
1.696414 -0.503145 -0.408511
1.683121 -0.499202 0.092007
1.686375 -0.500488 -0.341930
1.701851 -0.505081 0.155312
1.704274 -0.506123 -0.281582
1.706948 -0.506917 0.218634
1.718365 -0.510308 -0.220096
1.694718 -0.503607 0.280018
1.690215 -0.502269 -0.154266
1.697404 -0.504728 0.344219
1.711488 -0.508916 -0.093577
1.698154 -0.505274 -0.030926
1.695737 -0.505843 -0.474157
1.695884 -0.505887 0.030891
1.704870 -0.508892 -0.410761
1.686075 -0.503282 0.092216
1.683618 -0.502868 -0.341548
1.695240 -0.506339 0.154789
1.686442 -0.503712 -0.278766
1.713668 -0.512170 0.219609
1.706060 -0.509896 -0.218634
1.699515 -0.508263 0.280956
1.677883 -0.501793 -0.153220
1.694728 -0.506831 0.343838
1.710597 -0.511902 -0.093577
1.708763 -0.511679 -0.031135
1.698552 -0.509913 -0.475192
1.687338 -0.506547 0.030751
1.700336 -0.510449 -0.409861
1.687106 -0.506798 0.092321
1.688467 -0.507207 -0.342693
1.690626 -0.507855 0.154440
1.693128 -0.508929 -0.280018
1.697653 -0.510289 0.217659
1.727979 -0.519734 -0.221558
1.702497 -0.512069 0.281582
1.680909 -0.505576 -0.153568
1.684441 -0.506959 0.341930
1.702141 -0.512286 -0.093158
1.707957 -0.514362 -0.031135
1.701447 -0.513697 -0.476227
1.694198 -0.511508 0.030891
1.682653 -0.508343 -0.405812
1.686308 -0.509448 0.092321
1.695096 -0.512425 -0.344219
1.695458 -0.512535 0.154963
1.692237 -0.511883 -0.280018
1.694860 -0.512677 0.217415
1.698660 -0.513826 -0.217902
1.699710 -0.514468 0.281269
1.683838 -0.509664 -0.153917
1.685432 -0.510467 0.342311
1.699333 -0.514677 -0.093053
1.714712 -0.519662 -0.031275
1.700548 -0.516666 -0.476227
1.695215 -0.515046 0.030926
1.698543 -0.516381 -0.409861
1.675862 -0.509485 0.091797
1.682929 -0.511955 -0.341930
1.704092 -0.518393 0.155834
1.695120 -0.515987 -0.280643
1.692063 -0.515056 0.217171
1.707256 -0.519681 -0.219121
1.695030 -0.516282 0.280643
1.682945 -0.512602 -0.153917
1.682661 -0.512836 0.341930
1.704163 -0.519389 -0.093367
1.706152 -0.520321 -0.031135
1.695949 -0.518504 -0.475192
1.700051 -0.519758 0.031030
1.688322 -0.516494 -0.407611
1.674970 -0.512410 0.091797
1.680156 -0.514317 -0.341548
1.689849 -0.517284 0.154614
1.696106 -0.519523 -0.280956
1.693060 -0.518590 0.217415
1.693060 -0.518590 -0.217415
1.690349 -0.518082 0.280018
1.682048 -0.515538 -0.153917
1.694902 -0.519801 0.344601
1.699435 -0.521192 -0.093158
1.701417 -0.522124 -0.031065
1.683963 -0.518055 -0.472086
1.683851 -0.518020 0.030751
1.693005 -0.521160 -0.408961
1.677891 -0.516507 0.092007
1.686761 -0.519560 -0.343075
1.687039 -0.519646 0.154440
1.689534 -0.520737 -0.280018
1.705431 -0.525637 0.219121
1.716814 -0.529145 -0.220584
1.696993 -0.523360 0.281269
1.673530 -0.516124 -0.153220
1.688364 -0.521022 0.343456
1.704249 -0.525924 -0.093472
1.700504 -0.525093 -0.031065
1.686747 -0.522135 -0.473121
1.682944 -0.520958 0.030751
1.692093 -0.524114 -0.408961
1.680803 -0.520617 0.092216
1.680225 -0.520759 -0.341930
1.684227 -0.522000 0.154266
1.681075 -0.521344 -0.278766
1.683655 -0.522145 0.216440
1.700719 -0.527436 -0.218634
1.692304 -0.525150 0.280643
1.668821 -0.517863 -0.152871
1.685578 -0.523386 0.343075
1.695698 -0.526528 -0.093053
1.691946 -0.525687 -0.030926
1.693211 -0.527376 -0.475192
1.682032 -0.523895 0.030751
1.680013 -0.523587 -0.406262
1.677985 -0.522955 0.092111
1.679314 -0.523691 -0.341930
1.690921 -0.527311 0.154963
1.683934 -0.525454 -0.279392
1.680846 -0.524491 0.216196
1.711166 -0.533952 -0.220096
1.698927 -0.530458 0.281895
1.671719 -0.521963 -0.153220
1.682788 -0.525741 0.342693
1.690964 -0.528296 -0.092844
1.704386 -0.532816 -0.031170
1.692288 -0.530331 -0.475192
1.681116 -0.526830 0.030751
1.682816 -0.527685 -0.407161
1.665635 -0.522298 0.091483
1.684017 -0.528385 -0.343075
1.693800 -0.531454 0.155312
1.683015 -0.528393 -0.279392
1.678034 -0.526829 0.215953
1.687504 -0.529802 -0.217171
1.686691 -0.529871 0.280018
1.678408 -0.527268 -0.153917
1.685613 -0.529855 0.343456
1.686229 -0.530049 -0.092635
1.692008 -0.532190 -0.030961
1.683990 -0.530960 -0.473121
1.687822 -0.532168 0.030891
1.678175 -0.529449 -0.406262
1.668530 -0.526406 0.091693
1.668115 -0.526595 -0.340022
1.675770 -0.529012 0.153743
1.689624 -0.533709 -0.280643
1.688470 -0.533345 0.217415
1.705506 -0.538726 -0.219609
1.689531 -0.534004 0.280643
1.666087 -0.526594 -0.152871
1.688430 -0.533980 0.344219
1.700536 -0.537809 -0.093472
1.685357 -0.533332 -0.030856
1.679378 -0.532730 -0.472086
1.683078 -0.533904 0.030821
1.679106 -0.532966 -0.406712
1.669513 -0.529921 0.091797
1.669064 -0.530100 -0.340403
1.674845 -0.531935 0.153743
1.677487 -0.532775 -0.278766
1.683753 -0.535088 0.216927
1.687536 -0.536291 -0.217415
1.688596 -0.536952 0.280643
1.661368 -0.528294 -0.152523
1.680105 -0.534252 0.342693
1.691981 -0.538354 -0.093053
1.701573 -0.541733 -0.031170
1.678446 -0.535660 -0.472086
1.674524 -0.534409 0.030681
1.676410 -0.535011 -0.406262
1.670488 -0.533442 0.091902
1.673840 -0.534512 -0.341548
1.672109 -0.533960 0.153568
1.676555 -0.535702 -0.278766
1.675346 -0.535316 0.215953
1.707397 -0.545885 -0.220096
1.685869 -0.539002 0.280331
1.660536 -0.530903 -0.152523
1.675430 -0.535987 0.341930
1.687329 -0.539794 -0.092844
1.691198 -0.541357 -0.030995
1.681281 -0.539477 -0.473121
1.681299 -0.539482 0.030821
1.671763 -0.536744 -0.405362
1.662041 -0.533623 0.091483
1.676643 -0.538634 -0.342311
1.686350 -0.541752 0.154963
1.675618 -0.538627 -0.278766
1.664960 -0.535201 0.214734
1.681969 -0.540669 -0.216927
1.696209 -0.545573 0.282208
1.667194 -0.536240 -0.153220
1.661410 -0.534700 0.339258
1.682582 -0.541514 -0.092635
1.692154 -0.544920 -0.031030
1.684014 -0.543597 -0.474157
1.680355 -0.542416 0.030821
1.674533 -0.540859 -0.406262
1.661107 -0.536523 0.091483
1.675701 -0.541559 -0.342311
1.683506 -0.544082 0.154789
1.674675 -0.541551 -0.278766
1.673468 -0.541160 0.215953
1.698022 -0.549101 -0.219121
1.685857 -0.545492 0.280643
1.666255 -0.539149 -0.153220
1.671681 -0.541227 0.341548
1.685434 -0.545680 -0.092844
1.689297 -0.547257 -0.030995
1.679388 -0.545342 -0.473121
1.679405 -0.545348 0.030821
1.668026 -0.541974 -0.404912
1.663968 -0.540656 0.091693
1.661683 -0.540234 -0.339640
1.676869 -0.545171 0.154266
1.677484 -0.545695 -0.279392
1.681959 -0.547151 0.217171
1.681959 -0.547151 -0.217171
1.681146 -0.547211 0.280018
1.661523 -0.540823 -0.152871
1.672601 -0.544752 0.341930
1.688278 -0.549858 -0.093053
1.678833 -0.547106 -0.030821
1.667415 -0.544673 -0.470015
1.674649 -0.547036 0.030751
1.676339 -0.547912 -0.407161
1.663021 -0.543559 0.091693
1.670068 -0.546185 -0.341548
1.668340 -0.545620 0.153568
1.676529 -0.548622 -0.279392
1.675342 -0.548233 0.216440
1.679115 -0.549468 -0.216927
1.678311 -0.549529 0.279705
1.656789 -0.542482 -0.152523
1.664185 -0.545226 0.340403
1.687315 -0.552804 -0.093053
1.677876 -0.550035 -0.030821
1.670133 -0.548789 -0.471051
1.666093 -0.547461 0.030612
1.667975 -0.548402 -0.405362
1.656378 -0.544589 0.091379
1.667247 -0.548485 -0.341166
1.667386 -0.548531 0.153568
1.666188 -0.548459 -0.277828
1.666840 -0.548674 0.215465
1.702666 -0.560467 -0.220096
1.675473 -0.551840 0.279392
1.655840 -0.545373 -0.152523
1.659501 -0.546900 0.339640
1.678760 -0.553247 -0.092635
1.684510 -0.555468 -0.030961
1.672841 -0.552915 -0.472086
1.665135 -0.550368 0.030612
1.659615 -0.548865 -0.403562
1.659218 -0.548734 0.091588
1.664424 -0.550778 -0.340785
1.656968 -0.548311 0.152697
1.667103 -0.551987 -0.278141
1.663995 -0.550958 0.215221
1.677187 -0.555326 -0.216927
1.687633 -0.559112 0.281582
1.654885 -0.548262 -0.152523
1.671589 -0.554120 0.342311
1.670209 -0.553663 -0.092216
1.681640 -0.557778 -0.030926
1.679206 -0.558272 -0.474157
1.667967 -0.554535 0.030681
1.660503 -0.552376 -0.404012
1.652572 -0.549738 0.091274
1.657871 -0.551822 -0.339640
1.665461 -0.554348 0.153568
1.666137 -0.554896 -0.278141
1.663031 -0.553862 0.215221
1.681865 -0.560134 -0.217659
1.673536 -0.557685 0.279392
1.665267 -0.554929 -0.153568
1.674344 -0.558279 0.343075
1.676819 -0.559104 -0.092635
1.680664 -0.560712 -0.030926
1.667236 -0.557526 -0.471051
1.666997 -0.557446 0.030681
1.663233 -0.556510 -0.404912
1.653504 -0.553255 0.091379
1.649459 -0.552221 -0.338114
1.662601 -0.556621 0.153394
1.663293 -0.557176 -0.277828
1.663944 -0.557394 0.215465
1.669591 -0.559286 -0.216196
1.672560 -0.560605 0.279392
1.656740 -0.555302 -0.152871
1.675229 -0.561824 0.343456
1.673947 -0.561395 -0.092530
1.668308 -0.559827 -0.030716
1.662598 -0.559203 -0.470015
1.662230 -0.559079 0.030612
1.673341 -0.563141 -0.407611
1.654429 -0.556777 0.091483
1.655935 -0.557605 -0.339640
1.655963 -0.557615 0.152871
1.662416 -0.559788 -0.277828
1.672375 -0.563466 0.216684
1.691187 -0.569804 -0.219121
1.671579 -0.563523 0.279392
1.648216 -0.555647 -0.152174
1.657601 -0.558811 0.340022
1.684320 -0.568145 -0.093158
1.674907 -0.565296 -0.030856
1.661620 -0.562104 -0.470015
1.657464 -0.560698 0.030542
1.646610 -0.557027 -0.401313
1.661022 -0.562225 0.091902
1.653198 -0.559576 -0.339258
1.649423 -0.558299 0.152348
1.653952 -0.560154 -0.276576
1.663967 -0.563545 0.215709
1.673269 -0.567021 -0.216927
1.674434 -0.567416 0.280018
1.651115 -0.559514 -0.152523
1.654764 -0.561072 0.339640
1.677751 -0.568866 -0.092844
1.672123 -0.567284 -0.030821
1.664393 -0.565957 -0.471051
1.656581 -0.563301 0.030542
1.654860 -0.563038 -0.403562
1.646901 -0.560330 0.091169
1.655935 -0.563726 -0.340022
1.661649 -0.565671 0.153568
1.666061 -0.567498 -0.278766
1.653586 -0.563249 0.214490
1.681772 -0.572849 -0.218146
1.673441 -0.570338 0.280018
1.650136 -0.562395 -0.152523
1.651924 -0.563326 0.339258
1.663523 -0.567281 -0.092111
1.676808 -0.572139 -0.030926
1.667059 -0.570112 -0.472086
1.659379 -0.567485 0.030612
1.657562 -0.567187 -0.404462
1.642141 -0.561910 0.090960
1.645662 -0.563436 -0.338114
1.660659 -0.568571 0.153568
1.659462 -0.568484 -0.277828
1.654478 -0.566777 0.214734
1.665746 -0.570637 -0.216196
1.668706 -0.571977 0.279392
1.652922 -0.566566 -0.152871
1.654652 -0.567482 0.340022
1.673865 -0.574072 -0.092739
1.668241 -0.572468 -0.030786
1.662407 -0.571764 -0.471051
1.662168 -0.571681 0.030681
1.652885 -0.568811 -0.403562
1.648712 -0.567375 0.091379
1.640963 -0.565029 -0.337350
1.654013 -0.569522 0.153045
1.662202 -0.572667 -0.278453
1.657240 -0.570957 0.215221
1.683516 -0.580010 -0.218634
1.667705 -0.574888 0.279392
1.648163 -0.568152 -0.152523
1.666651 -0.574850 0.342693
1.672861 -0.576992 -0.092739
1.655898 -0.571465 -0.030577
1.650452 -0.570875 -0.467945
1.653609 -0.571967 0.030542
1.662939 -0.575519 -0.406262
1.649607 -0.570905 0.091483
1.641830 -0.568535 -0.337732
1.651134 -0.571756 0.152871
1.655601 -0.573627 -0.277515
1.663744 -0.576448 0.216196
1.669371 -0.578398 -0.216927
1.662966 -0.576504 0.278766
1.639639 -0.568417 -0.151825
1.654516 -0.573898 0.340403
1.671851 -0.579911 -0.092739
1.658676 -0.575665 -0.030646
1.656752 -0.576294 -0.470015
1.648830 -0.573538 0.030472
1.654570 -0.575858 -0.404462
1.652380 -0.575096 0.091693
1.646397 -0.573336 -0.338877
1.644488 -0.572671 0.152348
1.650866 -0.575216 -0.276889
1.653362 -0.576085 0.214978
1.688979 -0.588495 -0.219609
1.669419 -0.582007 0.280018
1.642407 -0.572589 -0.152174
1.655365 -0.577431 0.340785
1.667065 -0.581512 -0.092530
1.653893 -0.577241 -0.030577
1.655744 -0.579184 -0.470015
1.651602 -0.577736 0.030542
1.646205 -0.576170 -0.402662
1.647604 -0.576660 0.091483
1.649100 -0.577507 -0.339640
1.651008 -0.578175 0.153045
1.649860 -0.578096 -0.276889
1.642987 -0.575688 0.213759
1.663595 -0.582909 -0.216440
1.668400 -0.584919 0.280018
1.645166 -0.576774 -0.152523
1.650650 -0.579020 0.340022
1.656624 -0.581116 -0.092007
1.667978 -0.585425 -0.030856
1.658375 -0.583355 -0.471051
1.646818 -0.579290 0.030472
1.652550 -0.581630 -0.404462
1.640943 -0.577545 0.091169
1.640682 -0.577775 -0.338114
1.657513 -0.583703 0.153743
1.650712 -0.581631 -0.277202
1.641980 -0.578555 0.213759
1.670064 -0.588450 -0.217415
1.663651 -0.586517 0.279392
1.644156 -0.579644 -0.152523
1.651488 -0.582553 0.340403
1.655607 -0.584006 -0.092007
1.655639 -0.584342 -0.030646
1.657354 -0.586249 -0.471051
1.653346 -0.584831 0.030612
1.653369 -0.585164 -0.404912
1.639932 -0.580408 0.091169
1.639672 -0.580638 -0.338114
1.637711 -0.579944 0.152000
1.653418 -0.585831 -0.277828
1.652194 -0.585397 0.215221
1.663421 -0.589375 -0.216684
1.662625 -0.589420 0.279392
1.639386 -0.581181 -0.152174
1.652319 -0.586091 0.340785
1.663997 -0.590233 -0.092530
1.647079 -0.584556 -0.030507
1.641768 -0.583961 -0.466910
1.644786 -0.585035 0.030472
1.654181 -0.588702 -0.405362
1.642680 -0.584609 0.091379
1.638656 -0.583499 -0.338114
1.636696 -0.582801 0.152000
1.646811 -0.586727 -0.276889
1.651170 -0.588280 0.215221
1.673610 -0.596275 -0.218146
1.654151 -0.589667 0.278141
1.630863 -0.581366 -0.151477
1.643897 -0.586336 0.339258
1.662965 -0.593136 -0.092530
1.649823 -0.588774 -0.030577
1.648022 -0.589428 -0.468980
1.636231 -0.585211 0.030332
1.649482 -0.590275 -0.404462
1.637897 -0.586129 0.091169
1.641331 -0.587682 -0.338877
1.639428 -0.587000 0.152348
1.636486 -0.586269 -0.275325
1.642666 -0.588483 0.214246
1.663222 -0.595847 -0.216927
1.653119 -0.592553 0.278141
1.637348 -0.586900 -0.152174
1.635479 -0.586553 0.337732
1.658167 -0.594689 -0.092321
1.654439 -0.593678 -0.030681
1.646991 -0.592304 -0.468980
1.646497 -0.592126 0.030542
1.633780 -0.587875 -0.400863
1.636871 -0.588987 0.091169
1.643998 -0.591876 -0.339640
1.644025 -0.591885 0.152871
1.644752 -0.592472 -0.276889
1.641636 -0.591349 0.214246
1.669650 -0.601440 -0.217902
1.655799 -0.596777 0.278766
1.636321 -0.589757 -0.152174
1.641841 -0.592070 0.339258
1.649611 -0.594872 -0.091902
1.659043 -0.598601 -0.030786
1.653221 -0.597805 -0.471051
1.641700 -0.593639 0.030472
1.640081 -0.593377 -0.402662
1.630206 -0.589805 0.090855
1.630040 -0.590066 -0.336969
1.648610 -0.596788 0.153394
1.645573 -0.596014 -0.277202
1.636869 -0.592861 0.213759
1.648067 -0.596917 -0.215221
1.651041 -0.598320 0.278141
1.642782 -0.595327 -0.152871
1.640805 -0.594935 0.339258
1.654203 -0.599793 -0.092216
1.650477 -0.598768 -0.030646
1.650360 -0.600029 -0.470533
1.648179 -0.599237 0.030612
1.642706 -0.597571 -0.403562
1.631051 -0.593332 0.090960
1.634542 -0.594925 -0.338114
1.634460 -0.594895 0.152174
1.648347 -0.599949 -0.277828
1.643292 -0.598434 0.214734
1.661945 -0.605227 -0.217171
1.642570 -0.598496 0.276889
1.630508 -0.594101 -0.151825
1.649091 -0.600872 0.341166
1.656907 -0.604047 -0.092425
1.643793 -0.599592 -0.030542
1.634795 -0.597603 -0.466392
1.643375 -0.600739 0.030542
1.645426 -0.601489 -0.404462
1.633765 -0.597550 0.091169
1.631762 -0.596817 -0.337732
1.626039 -0.594724 0.151477
1.638022 -0.599431 -0.276263
1.646079 -0.602379 0.215221
1.657158 -0.606762 -0.216684
1.649048 -0.603792 0.278141
1.622090 -0.593921 -0.151128
1.642510 -0.601723 0.340022
1.659707 -0.608023 -0.092635
1.648482 -0.604238 -0.030646
1.637481 -0.601502 -0.467427
1.634921 -0.600562 0.030402
1.640715 -0.603015 -0.403562
1.630949 -0.599426 0.091065
1.632560 -0.600342 -0.338114
1.624998 -0.597561 0.151477
1.635120 -0.601607 -0.275950
1.633847 -0.601139 0.213759
1.652477 -0.607993 -0.216196
1.651699 -0.608034 0.278766
1.628529 -0.599505 -0.151825
1.628561 -0.599839 0.337350
1.651146 -0.608158 -0.092216
1.647425 -0.607114 -0.030646
1.643677 -0.607036 -0.469498
1.633870 -0.603414 0.030402
1.634176 -0.603852 -0.402213
1.628027 -0.601580 0.090960
1.638876 -0.605913 -0.339640
1.640772 -0.606614 0.153045
1.635920 -0.605145 -0.276263
1.629072 -0.602612 0.213271
1.658860 -0.613631 -0.217171
1.658045 -0.613658 0.280018
1.627481 -0.602346 -0.151825
1.633035 -0.604726 0.338495
1.642591 -0.608265 -0.091797
1.648238 -0.610683 -0.030681
1.642615 -0.609904 -0.469498
1.640313 -0.609049 0.030542
1.618506 -0.601274 -0.398613
1.626975 -0.604420 0.090960
1.630455 -0.606037 -0.338114
1.635976 -0.608089 0.152697
1.642267 -0.610754 -0.277515
1.628017 -0.605454 0.213271
1.642902 -0.610990 -0.215221
1.649566 -0.613796 0.278766
1.633896 -0.607965 -0.152523
1.641176 -0.611000 0.340403
1.650885 -0.614615 -0.092321
1.637800 -0.610069 -0.030507
1.637929 -0.611419 -0.468462
1.639247 -0.611911 0.030542
1.639361 -0.612280 -0.404012
1.622175 -0.605861 0.090751
1.625716 -0.607507 -0.337350
1.627446 -0.608154 0.152000
1.633798 -0.610852 -0.276263
1.626958 -0.608295 0.213271
1.652990 -0.618028 -0.216684
1.637391 -0.612521 0.276889
1.621636 -0.606627 -0.151477
1.638269 -0.613176 0.340022
1.653551 -0.618895 -0.092530
1.632988 -0.611524 -0.030437
1.629624 -0.611562 -0.466392
1.630688 -0.611961 0.030402
1.636465 -0.614455 -0.403562
1.624855 -0.610096 0.090960
1.620978 -0.608963 -0.336587
1.622652 -0.609592 0.151651
1.634578 -0.614398 -0.276576
1.627752 -0.611832 0.213515
1.648192 -0.619515 -0.216196
1.640018 -0.616769 0.277515
1.616845 -0.608054 -0.151128
1.633521 -0.614651 0.339258
1.648730 -0.620374 -0.092321
1.631918 -0.614373 -0.030437
1.633977 -0.616451 -0.467945
1.624005 -0.612689 0.030297
1.629921 -0.615246 -0.402213
1.627525 -0.614341 0.091169
1.629096 -0.615259 -0.338495
1.630905 -0.615942 0.152523
1.631655 -0.616551 -0.276263
1.632253 -0.616777 0.214246
1.650822 -0.623794 -0.216684
1.646330 -0.622424 0.278766
1.619508 -0.612284 -0.151477
1.621428 -0.613334 0.336969
1.645776 -0.622544 -0.092216
1.638324 -0.620052 -0.030577
1.631092 -0.618617 -0.467427
1.626672 -0.616940 0.030367
1.619735 -0.614633 -0.399963
1.622715 -0.615764 0.090960
1.629855 -0.618798 -0.338877
1.624240 -0.616666 0.152000
1.634270 -0.620801 -0.276889
1.620039 -0.615395 0.212784
1.649731 -0.626674 -0.216684
1.641548 -0.623893 0.278141
1.614712 -0.613694 -0.151128
1.624026 -0.617558 0.337732
1.635353 -0.621866 -0.091693
1.644715 -0.625754 -0.030716
1.639035 -0.624904 -0.470015
1.631199 -0.621916 0.030472
1.625943 -0.620237 -0.401763
1.612308 -0.615036 0.090437
1.619601 -0.618142 -0.336969
1.625023 -0.620211 0.152174
1.623957 -0.620129 -0.275325
1.626381 -0.621054 0.213759
1.633799 -0.623887 -0.214734
1.636766 -0.625347 0.277515
1.621084 -0.619356 -0.151825
1.622945 -0.620392 0.337732
1.641728 -0.627572 -0.092111
1.624943 -0.621481 -0.030367
1.630727 -0.624998 -0.467945
1.630111 -0.624762 0.030472
1.621218 -0.621678 -0.400863
1.616826 -0.619994 0.090751
1.613021 -0.618858 -0.335824
1.618357 -0.620905 0.151651
1.632093 -0.626502 -0.276889
1.623441 -0.623181 0.213515
1.649387 -0.633140 -0.216927
1.635672 -0.628203 0.277515
1.612560 -0.619327 -0.151128
1.629190 -0.626040 0.339258
1.636901 -0.629003 -0.091902
1.629455 -0.626468 -0.030472
1.626028 -0.626454 -0.466910
1.625286 -0.626168 0.030402
1.627404 -0.627311 -0.402662
1.612015 -0.621378 0.090541
1.611939 -0.621672 -0.335824
1.611694 -0.621578 0.151128
1.623626 -0.626505 -0.275638
1.635315 -0.631016 0.215221
1.639019 -0.632445 -0.215709
1.634573 -0.631057 0.277515
1.607760 -0.620705 -0.150779
1.620770 -0.626053 0.337732
1.641390 -0.634018 -0.092216
1.624629 -0.627870 -0.030402
1.624932 -0.629291 -0.466910
1.620461 -0.627559 0.030332
1.619039 -0.627334 -0.400863
1.618377 -0.627077 0.090960
1.614512 -0.625904 -0.336587
1.612464 -0.625110 0.151302
1.618846 -0.627909 -0.275012
1.615704 -0.626690 0.212784
1.637913 -0.635304 -0.215709
1.637152 -0.635338 0.278141
1.610389 -0.624952 -0.151128
1.617845 -0.628170 0.337350
1.630972 -0.633267 -0.091693
1.627259 -0.632152 -0.030472
1.627432 -0.633528 -0.467945
1.615636 -0.628936 0.030262
1.619757 -0.630866 -0.401313
1.617280 -0.629901 0.090960
1.617076 -0.630146 -0.337350
1.620653 -0.631540 0.152174
1.617748 -0.630733 -0.275012
1.610909 -0.628067 0.212296
1.631253 -0.635999 -0.214978
1.639722 -0.639630 0.278766
1.605583 -0.626314 -0.150779
1.614917 -0.630279 0.336969
1.629864 -0.636113 -0.091693
1.637329 -0.639356 -0.030681
1.635319 -0.639887 -0.470533
1.621985 -0.634669 0.030402
1.611395 -0.630850 -0.399513
1.608739 -0.629810 0.090541
1.605006 -0.628672 -0.335061
1.623259 -0.635821 0.152523
1.624112 -0.636156 -0.276263
1.620899 -0.635223 0.213759
1.628292 -0.638121 -0.214734
1.631246 -0.639607 0.277515
1.615617 -0.633479 -0.151825
1.624892 -0.637115 0.339258
1.628751 -0.638957 -0.091693
1.626904 -0.638559 -0.030507
1.625211 -0.639205 -0.467945
1.624596 -0.638963 0.030472
1.617656 -0.636233 -0.401313
1.607638 -0.632617 0.090541
1.607670 -0.632630 -0.335824
1.605572 -0.631804 0.150954
1.626676 -0.640437 -0.276889
1.614358 -0.635587 0.213028
1.641952 -0.646782 -0.216684
1.626564 -0.640721 0.276889
1.607205 -0.633095 -0.151128
1.625604 -0.640670 0.339640
1.633320 -0.643711 -0.092007
1.616597 -0.637446 -0.030332
1.617018 -0.638917 -0.465874
1.612432 -0.637105 0.030262
1.618356 -0.639772 -0.401763
1.606642 -0.635142 0.090541
1.597435 -0.631824 -0.333916
1.615583 -0.639002 0.152000
1.614535 -0.638914 -0.275012
1.622476 -0.642056 0.214246
1.628013 -0.644247 -0.214978
1.629116 -0.645013 0.277515
1.598688 -0.632965 -0.150431
1.611706 -0.638445 0.336969
1.628480 -0.645090 -0.091797
1.619200 -0.641741 -0.030402
1.612309 -0.640312 -0.464839
1.609459 -0.639180 0.030228
1.613614 -0.641157 -0.400863
1.612955 -0.640895 0.090960
1.612749 -0.641139 -0.337350
1.605208 -0.638141 0.151128
1.613417 -0.641730 -0.275012
1.613974 -0.641952 0.213271
1.639798 -0.652223 -0.216684
1.631659 -0.649316 0.278141
1.604985 -0.638701 -0.151128
1.614237 -0.642709 0.337732
1.631063 -0.649409 -0.092007
1.614362 -0.643086 -0.030332
1.621954 -0.647422 -0.467945
1.612056 -0.643471 0.030297
1.601634 -0.639636 -0.398163
1.604415 -0.640746 0.090541
1.613451 -0.644681 -0.337732
1.604092 -0.640942 0.151128
1.612295 -0.644545 -0.275012
1.605478 -0.641821 0.212296
1.625754 -0.649926 -0.214978
1.634191 -0.653630 0.278766
1.603868 -0.641501 -0.151128
1.613113 -0.645526 0.337732
1.618802 -0.647802 -0.091379
1.628089 -0.651848 -0.030612
1.624408 -0.651691 -0.468980
1.614642 -0.647773 0.030367
1.607750 -0.645334 -0.399963
1.599587 -0.642057 0.090332
1.603214 -0.643838 -0.335824
1.601122 -0.642998 0.150954
1.614833 -0.648831 -0.275638
1.604356 -0.644622 0.212296
1.626459 -0.653503 -0.215221
1.629383 -0.655008 0.278141
1.610140 -0.647272 -0.151825
1.611984 -0.648340 0.337732
1.623227 -0.652862 -0.091693
1.613963 -0.649463 -0.030367
1.616101 -0.651635 -0.466910
1.615364 -0.651338 0.030402
1.608428 -0.648868 -0.400413
1.598464 -0.644848 0.090332
1.602088 -0.646635 -0.335824
1.603692 -0.647283 0.151302
1.613698 -0.651649 -0.275638
1.603228 -0.647421 0.212296
1.623476 -0.655597 -0.214978
1.613585 -0.651930 0.275638
1.594230 -0.644111 -0.150431
1.616310 -0.653360 0.338877
1.625789 -0.657191 -0.091902
1.601704 -0.647781 -0.030158
1.606009 -0.650827 -0.464321
1.610518 -0.652654 0.030332
1.609099 -0.652406 -0.400863
1.601038 -0.649138 0.090541
1.602776 -0.650168 -0.336205
1.591483 -0.645587 0.150256
1.605237 -0.651493 -0.274386
1.605775 -0.651711 0.212784
1.620490 -0.657683 -0.214734
1.623426 -0.659205 0.277515
1.593103 -0.646892 -0.150431
1.604254 -0.651746 0.336587
1.624639 -0.660028 -0.091902
