# This PCD file was generated using the MATLAB® pcwrite function
# from Computer Vision System Toolbox®.
# .PCD v.7 - Point Cloud Data file format
VERSION .7
FIELDS x y z
SIZE 4 4 4
TYPE F F F
COUNT 1 1 1
WIDTH 1704
HEIGHT 1
VIEWPOINT 0 0 0 1 0 0 0
POINTS 1704
DATA ascii
-0.381621 1.839677 0.032276
-0.378598 1.841233 0.031999
-0.375390 1.841815 0.031895
-0.372181 1.842392 0.031793
-0.368794 1.841995 0.031863
-0.365936 1.844499 0.031418
-0.363069 1.846999 0.030973
-0.360539 1.851434 0.030185
-0.357653 1.853926 0.029741
-0.354929 1.857384 0.029126
-0.352026 1.859867 0.028685
-0.348785 1.860404 0.028589
-0.345706 1.861907 0.028322
-0.342462 1.862433 0.028229
-0.339696 1.865869 0.027617
-0.336761 1.868329 0.027180
-0.333661 1.869812 0.026916
-0.330557 1.871290 0.026653
-0.327143 1.870817 0.026737
-0.324034 1.872284 0.026476
-0.320921 1.873746 0.026216
-0.317803 1.875203 0.025957
-0.314681 1.876655 0.025699
-0.311699 1.879076 0.025268
-0.308995 1.883442 0.024492
-0.305994 1.885854 0.024063
-0.302986 1.888262 0.023635
-0.299832 1.889689 0.023381
-0.296674 1.891112 0.023128
-0.293378 1.891554 0.023049
-0.290477 1.894917 0.022451
-0.287305 1.896324 0.022201
-0.284128 1.897726 0.021952
-0.281202 1.901076 0.021356
-0.278139 1.903445 0.020935
-0.275068 1.905809 0.020514
-0.271867 1.907190 0.020268
-0.268422 1.906612 0.020371
-0.265454 1.909938 0.019780
-0.262008 1.909348 0.019885
-0.258794 1.910708 0.019643
-0.256029 1.915976 0.018706
-0.253135 1.920261 0.017944
-0.249458 1.917692 0.018401
-0.246007 1.917074 0.018511
-0.243302 1.923302 0.017403
-0.240054 1.924631 0.017166
-0.236801 1.925955 0.016931
-0.233544 1.927273 0.016697
-0.230283 1.928586 0.016463
-0.227116 1.930873 0.016056
-0.223749 1.931195 0.015999
-0.221041 1.938373 0.014722
-0.661944 1.683931 0.062375
-0.657974 1.682230 0.062675
-0.652976 1.677747 0.063466
-0.650402 1.679727 0.063116
-0.646454 1.678001 0.063421
-0.643195 1.678118 0.063400
-0.640615 1.680082 0.063054
-0.637018 1.679261 0.063199
-0.635104 1.683071 0.062526
-0.632510 1.685023 0.062182
-0.629579 1.686043 0.062002
-0.626646 1.687057 0.061823
-0.625027 1.691786 0.060989
-0.622084 1.692793 0.060812
-0.619465 1.694725 0.060471
-0.616517 1.695722 0.060295
-0.613244 1.695782 0.060284
-0.610615 1.697701 0.059946
-0.607023 1.696816 0.060102
-0.604389 1.698725 0.059765
-0.602381 1.702499 0.059099
-0.599733 1.704402 0.058764
-0.597392 1.707236 0.058264
-0.595043 1.710067 0.057764
-0.592686 1.712895 0.057265
-0.589398 1.712909 0.057263
-0.586723 1.714792 0.056931
-0.584043 1.716670 0.056599
-0.581963 1.720422 0.055938
-0.578669 1.720416 0.055939
-0.575376 1.720403 0.055941
-0.572085 1.720383 0.055944
-0.570274 1.725062 0.055119
-0.567273 1.725974 0.054958
-0.564854 1.728765 0.054466
-0.561845 1.729668 0.054307
-0.559413 1.732451 0.053816
-0.556111 1.732401 0.053824
-0.553382 1.734233 0.053501
-0.549796 1.733228 0.053679
-0.548473 1.739773 0.052524
-0.543761 1.734977 0.053370
-0.541579 1.738680 0.052717
-0.538553 1.739543 0.052565
-0.536628 1.744188 0.051745
-0.533592 1.745042 0.051595
-0.530827 1.746839 0.051278
-0.527516 1.746735 0.051296
-0.526090 1.753265 0.050144
-0.522770 1.753153 0.050164
-0.520250 1.755882 0.049682
-0.517193 1.756708 0.049537
-0.514922 1.760380 0.048889
-0.511337 1.759296 0.049080
-0.508792 1.762009 0.048602
-0.505725 1.762816 0.048459
-0.502911 1.764569 0.048150
-0.499839 1.765366 0.048009
-0.497270 1.768063 0.047534
-0.494443 1.769803 0.047227
-0.491610 1.771539 0.046921
-0.488526 1.772316 0.046783
-0.485441 1.773088 0.046647
-0.483085 1.776719 0.046007
-0.480475 1.779393 0.045535
-0.477617 1.781107 0.045233
-0.474516 1.781860 0.045100
-0.472361 1.786434 0.044293
-0.468780 1.785264 0.044499
-0.466139 1.787917 0.044031
-0.463026 1.788650 0.043902
-0.461292 1.795128 0.042759
-0.457937 1.794894 0.042801
-0.454812 1.795613 0.042674
-0.451685 1.796327 0.042548
-0.448557 1.797035 0.042423
-0.445649 1.798699 0.042129
-0.442957 1.801318 0.041667
-0.440256 1.803934 0.041206
-0.437115 1.804622 0.041085
-0.434831 1.809153 0.040285
-0.431467 1.808870 0.040335
-0.428951 1.812431 0.039707
-0.425585 1.812137 0.039759
-0.423260 1.816654 0.038962
-0.419890 1.816350 0.039016
-0.417340 1.819896 0.038390
-0.414170 1.820545 0.038276
-0.411402 1.823118 0.037822
-0.408426 1.824722 0.037539
-0.406038 1.829218 0.036746
-0.403048 1.830813 0.036464
-0.399664 1.830472 0.036525
-0.396861 1.833023 0.036075
-0.393668 1.833637 0.035966
-0.391041 1.837147 0.035347
-0.387841 1.837751 0.035241
-0.385011 1.840285 0.034794
-0.381989 1.841847 0.034518
-0.378780 1.842435 0.034414
-0.375571 1.843018 0.034311
-0.372718 1.845533 0.033868
-0.369503 1.846106 0.033767
-0.366637 1.848612 0.033325
-0.363590 1.850144 0.033054
-0.360195 1.849731 0.033127
-0.357483 1.853193 0.032517
-0.354592 1.855681 0.032078
-0.352192 1.861077 0.031126
-0.348950 1.861614 0.031031
-0.345216 1.859231 0.031451
-0.343108 1.866560 0.030159
-0.339696 1.866109 0.030238
-0.336286 1.865653 0.030319
-0.333035 1.866162 0.030229
-0.330093 1.868613 0.029796
-0.327296 1.872031 0.029193
-0.324185 1.873499 0.028934
-0.321519 1.877883 0.028161
-0.318394 1.879342 0.027904
-0.315120 1.879821 0.027819
-0.312132 1.882243 0.027392
-0.309423 1.886611 0.026622
-0.306276 1.888049 0.026368
-0.303125 1.889483 0.026115
-0.299694 1.888960 0.026207
-0.296945 1.893310 0.025440
-0.293646 1.893752 0.025362
-0.290477 1.895165 0.025113
-0.287436 1.897549 0.024692
-0.284000 1.896998 0.024789
-0.281329 1.902302 0.023854
-0.278264 1.904672 0.023436
-0.275068 1.906059 0.023191
-0.271745 1.906463 0.023120
-0.268422 1.906862 0.023049
-0.265336 1.909211 0.022635
-0.262125 1.910577 0.022394
-0.259139 1.913895 0.021809
-0.256029 1.916229 0.021397
-0.252689 1.916600 0.021331
-0.249897 1.921861 0.020403
-0.246763 1.924180 0.019994
-0.243515 1.925515 0.019759
-0.240158 1.925866 0.019697
-0.236904 1.927190 0.019463
-0.233544 1.927529 0.019404
-0.230780 1.933742 0.018308
-0.227408 1.934070 0.018250
-0.224037 1.934393 0.018193
-0.647051 1.697859 0.062045
-0.642075 1.693339 0.062836
-0.639129 1.694375 0.062655
-0.635180 1.692620 0.062962
-0.631572 1.691786 0.063108
-0.627968 1.690945 0.063256
-0.626014 1.694747 0.062590
-0.622411 1.693894 0.062739
-0.619139 1.693965 0.062727
-0.615221 1.692166 0.063042
-0.613244 1.695953 0.062379
-0.610294 1.696939 0.062206
-0.607661 1.698854 0.061871
-0.604389 1.698897 0.061863
-0.601749 1.700803 0.061529
-0.599419 1.703640 0.061032
-0.596455 1.704602 0.060864
-0.593489 1.705560 0.060696
-0.590522 1.706512 0.060529
-0.589398 1.713084 0.059379
-0.586723 1.714967 0.059049
-0.583739 1.715908 0.058884
-0.581963 1.720599 0.058062
-0.578669 1.720592 0.058064
-0.575376 1.720579 0.058066
-0.572680 1.722441 0.057740
-0.570570 1.726180 0.057085
-0.567861 1.728035 0.056760
-0.564854 1.728943 0.056601
-0.561845 1.729846 0.056443
-0.558835 1.730744 0.056286
-0.555536 1.730694 0.056295
-0.552525 1.731581 0.056139
-0.549228 1.731518 0.056150
-0.547062 1.735229 0.055500
-0.544603 1.737993 0.055016
-0.542416 1.741699 0.054367
-0.539108 1.741617 0.054382
-0.537179 1.746263 0.053568
-0.533866 1.746171 0.053584
-0.531644 1.749865 0.052937
-0.528599 1.750711 0.052789
-0.525552 1.751552 0.052642
-0.521969 1.750489 0.052828
-0.519719 1.754167 0.052184
-0.517193 1.756893 0.051706
-0.514660 1.759615 0.051230
-0.511337 1.759481 0.051253
-0.508533 1.761243 0.050944
-0.505467 1.762050 0.050803
-0.502400 1.762851 0.050663
-0.499839 1.765552 0.050190
-0.497018 1.767297 0.049884
-0.494443 1.769990 0.049413
-0.492108 1.773635 0.048774
-0.489267 1.775367 0.048471
-0.486177 1.776140 0.048336
-0.483085 1.776908 0.048201
-0.480233 1.778626 0.047900
-0.478338 1.784165 0.046930
-0.475232 1.784919 0.046798
-0.472124 1.785668 0.046667
-0.469251 1.787369 0.046369
-0.466139 1.788108 0.046240
-0.463026 1.788841 0.046111
-0.460371 1.791487 0.045648
-0.457252 1.792210 0.045521
-0.454132 1.792928 0.045396
-0.450560 1.791721 0.045607
-0.448334 1.796268 0.044811
-0.445649 1.798892 0.044351
-0.442737 1.800551 0.044060
-0.440038 1.803167 0.043602
-0.437115 1.804817 0.043313
-0.434401 1.807425 0.042857
-0.431467 1.809066 0.042569
-0.429162 1.813590 0.041777
-0.425585 1.812334 0.041997
-0.422845 1.814925 0.041543
-0.419272 1.813656 0.041765
-0.416318 1.815273 0.041482
-0.413359 1.816885 0.041200
-0.411201 1.822352 0.040243
-0.408027 1.822991 0.040131
-0.405050 1.824590 0.039851
-0.401872 1.825218 0.039741
-0.399082 1.827773 0.039293
-0.396283 1.830325 0.038846
-0.393096 1.830938 0.038739
-0.389907 1.831546 0.038632
-0.387091 1.834083 0.038188
-0.384268 1.836616 0.037744
-0.381069 1.837209 0.037641
-0.378052 1.838764 0.037368
-0.375210 1.841284 0.036927
-0.372360 1.843799 0.036487
-0.369326 1.845341 0.036217
-0.366111 1.845907 0.036117
-0.363243 1.848409 0.035679
-0.360023 1.848965 0.035582
-0.357313 1.852428 0.034975
-0.354255 1.853945 0.034710
-0.351859 1.859342 0.033765
-0.348455 1.858907 0.033841
-0.345379 1.860410 0.033577
-0.342138 1.860936 0.033485
-0.339216 1.863400 0.033054
-0.335812 1.862943 0.033134
-0.332566 1.863452 0.033045
-0.329629 1.865902 0.032616
-0.327296 1.872241 0.031506
-0.324185 1.873709 0.031248
-0.321369 1.877120 0.030651
-0.318099 1.877605 0.030566
-0.315120 1.880032 0.030141
-0.311844 1.880506 0.030058
-0.308710 1.881949 0.029805
-0.305712 1.884362 0.029383
-0.302846 1.887745 0.028790
-0.299694 1.889174 0.028540
-0.296674 1.891572 0.028120
-0.293646 1.893966 0.027701
-0.290213 1.893427 0.027795
-0.287436 1.897764 0.027036
-0.284128 1.898190 0.026961
-0.280948 1.899587 0.026716
-0.277637 1.900002 0.026644
-0.274450 1.901388 0.026401
-0.271258 1.902770 0.026159
-0.268062 1.904146 0.025918
-0.264980 1.906495 0.025507
-0.262008 1.909817 0.024925
-0.259024 1.913134 0.024344
-0.256029 1.916448 0.023764
-0.252912 1.918777 0.023356
-0.249787 1.921102 0.022949
-0.246655 1.923422 0.022542
-0.243302 1.923778 0.022480
-0.240054 1.925107 0.022247
-0.237315 1.931331 0.021157
-0.233443 1.926771 0.021956
-0.230084 1.927104 0.021897
-0.226725 1.927431 0.021840
-0.224899 1.943440 0.019036
-0.638215 1.710397 0.060205
-0.635901 1.713285 0.059699
-0.632591 1.713380 0.059683
-0.628628 1.711608 0.059993
-0.623046 1.705170 0.061119
-0.618460 1.701513 0.061758
-0.615178 1.701576 0.061747
-0.612218 1.702566 0.061574
-0.609256 1.703551 0.061402
-0.606293 1.704530 0.061231
-0.603012 1.704570 0.061224
-0.600361 1.706474 0.060891
-0.597392 1.707438 0.060722
-0.594422 1.708397 0.060554
-0.591140 1.708415 0.060551
-0.589090 1.712175 0.059894
-0.586723 1.714996 0.059400
-0.583739 1.715937 0.059236
-0.581056 1.717811 0.058908
-0.578368 1.719682 0.058580
-0.575376 1.720608 0.058418
-0.573275 1.724351 0.057764
-0.570866 1.727151 0.057274
-0.567567 1.727123 0.057279
-0.564854 1.728973 0.056955
-0.561845 1.729876 0.056797
-0.559124 1.731717 0.056475
-0.555824 1.731667 0.056484
-0.553096 1.733498 0.056164
-0.550080 1.734381 0.056009
-0.547344 1.736204 0.055690
-0.545165 1.739913 0.055042
-0.542695 1.742675 0.054559
-0.540217 1.745432 0.054076
-0.536904 1.745346 0.054091
-0.533866 1.746202 0.053942
-0.531100 1.747999 0.053627
-0.528599 1.750741 0.053148
-0.525821 1.752531 0.052835
-0.522770 1.753367 0.052688
-0.519984 1.755147 0.052377
-0.517193 1.756923 0.052066
-0.513873 1.756794 0.052089
-0.511076 1.758560 0.051780
-0.508015 1.759371 0.051638
-0.505210 1.761129 0.051331
-0.503422 1.766691 0.050358
-0.500601 1.768441 0.050052
-0.497775 1.770187 0.049746
-0.494944 1.771929 0.049442
-0.491859 1.772712 0.049305
-0.489020 1.774444 0.049002
-0.485195 1.772352 0.049368
-0.483085 1.776939 0.048565
-0.480717 1.780569 0.047930
-0.477858 1.782284 0.047630
-0.475232 1.784950 0.047164
-0.472124 1.785699 0.047033
-0.469251 1.787401 0.046735
-0.466372 1.789097 0.046438
-0.463257 1.789831 0.046310
-0.460371 1.791518 0.046015
-0.457709 1.794160 0.045553
-0.454812 1.795838 0.045259
-0.451910 1.797512 0.044967
-0.449227 1.800141 0.044507
-0.445871 1.799885 0.044552
-0.442517 1.799622 0.044597
-0.439384 1.800315 0.044476
-0.436682 1.802926 0.044020
-0.433542 1.803608 0.043900
-0.430828 1.806211 0.043445
-0.429585 1.815549 0.041812
-0.425794 1.813330 0.042200
-0.422429 1.813030 0.042252
-0.419478 1.814652 0.041968
-0.416931 1.818198 0.041348
-0.413765 1.818847 0.041235
-0.411201 1.822385 0.040616
-0.408027 1.823024 0.040504
-0.404852 1.823657 0.040393
-0.401284 1.822353 0.040621
-0.398111 1.822975 0.040513
-0.395706 1.827458 0.039729
-0.393096 1.830971 0.039114
-0.390474 1.834480 0.038500
-0.387654 1.837019 0.038056
-0.384268 1.836649 0.038121
-0.381069 1.837242 0.038017
-0.378234 1.839766 0.037576
-0.375390 1.842286 0.037135
-0.372181 1.842863 0.037034
-0.369148 1.844404 0.036764
-0.366462 1.847880 0.036156
-0.363590 1.850383 0.035719
-0.360883 1.853851 0.035112
-0.356973 1.850520 0.035695
-0.354423 1.854950 0.034920
-0.350858 1.853549 0.035165
-0.348124 1.856998 0.034561
-0.345216 1.859472 0.034129
-0.342300 1.861942 0.033697
-0.339536 1.865379 0.033095
-0.336128 1.864922 0.033175
-0.333505 1.869324 0.032405
-0.330712 1.872748 0.031806
-0.327602 1.874222 0.031549
-0.324185 1.873744 0.031632
-0.320921 1.874233 0.031547
-0.317803 1.875691 0.031292
-0.314827 1.878118 0.030867
-0.311699 1.879566 0.030614
-0.308710 1.881983 0.030191
-0.305571 1.883421 0.029940
-0.302568 1.885829 0.029518
-0.299694 1.889209 0.028927
-0.296810 1.892583 0.028337
-0.293378 1.892049 0.028430
-0.290213 1.893462 0.028183
-0.287044 1.894869 0.027937
-0.284257 1.899202 0.027179
-0.281329 1.902554 0.026593
-0.278139 1.903947 0.026349
-0.274820 1.904356 0.026278
-0.271380 1.903783 0.026378
-0.268302 1.906137 0.025966
-0.265217 1.908487 0.025555
-0.262125 1.910831 0.025145
-0.259024 1.913170 0.024736
-0.255916 1.915505 0.024327
-0.253135 1.920771 0.023406
-0.249787 1.921138 0.023342
-0.246547 1.922479 0.023108
-0.243196 1.922835 0.023045
-0.239949 1.924164 0.022813
-0.236904 1.927448 0.022238
-0.233645 1.928767 0.022008
-0.230084 1.927140 0.022292
-0.227311 1.933349 0.021206
-0.224132 1.935633 0.020807
-0.222076 1.949679 0.018350
-0.613908 1.727242 0.060893
-0.609956 1.725425 0.061207
-0.605070 1.720792 0.062008
-0.600515 1.717085 0.062648
-0.596596 1.715240 0.062967
-0.593304 1.715261 0.062963
-0.590012 1.715275 0.062961
-0.587335 1.717160 0.062635
-0.584043 1.717164 0.062635
-0.580452 1.716222 0.062797
-0.577466 1.717152 0.062637
-0.574180 1.717137 0.062639
-0.571193 1.718057 0.062480
-0.569979 1.724619 0.061346
-0.566684 1.724589 0.061352
-0.563977 1.726439 0.061032
-0.560973 1.727341 0.060876
-0.557968 1.728238 0.060721
-0.554962 1.729129 0.060567
-0.552810 1.732849 0.059925
-0.550080 1.734676 0.059609
-0.547344 1.736500 0.059294
-0.544042 1.736427 0.059306
-0.541579 1.739187 0.058829
-0.538553 1.740051 0.058680
-0.536628 1.744698 0.057877
-0.533866 1.746501 0.057566
-0.530827 1.747351 0.057419
-0.527787 1.748196 0.057273
-0.525821 1.752832 0.056472
-0.522236 1.751769 0.056655
-0.519453 1.753550 0.056348
-0.516402 1.754375 0.056205
-0.513873 1.757097 0.055735
-0.511076 1.758864 0.055430
-0.507757 1.758723 0.055454
-0.505210 1.761433 0.054986
-0.501890 1.761281 0.055012
-0.500093 1.766842 0.054051
-0.496514 1.765727 0.054244
-0.494693 1.771283 0.053284
-0.491113 1.770157 0.053478
-0.489267 1.775708 0.052519
-0.484950 1.771705 0.053211
-0.482841 1.776294 0.052418
-0.479507 1.776100 0.052452
-0.477377 1.780683 0.051660
-0.474278 1.781436 0.051530
-0.472361 1.786970 0.050573
-0.468780 1.785799 0.050776
-0.465905 1.787496 0.050483
-0.463026 1.789188 0.050190
-0.460141 1.790875 0.049899
-0.457937 1.795436 0.049111
-0.454132 1.793276 0.049484
-0.451235 1.794949 0.049195
-0.448110 1.795657 0.049073
-0.445428 1.798282 0.048619
-0.442737 1.800902 0.048166
-0.439820 1.802557 0.047880
-0.436898 1.804208 0.047595
-0.434401 1.807778 0.046978
-0.431041 1.807495 0.047027
-0.428317 1.810094 0.046578
-0.424956 1.809799 0.046629
-0.421805 1.810462 0.046515
-0.419272 1.814012 0.045901
-0.416113 1.814665 0.045788
-0.413157 1.816277 0.045510
-0.410396 1.818850 0.045065
-0.408027 1.823351 0.044288
-0.404654 1.823018 0.044345
-0.401676 1.824612 0.044070
-0.398499 1.825235 0.043962
-0.396283 1.830687 0.043020
-0.393477 1.833235 0.042580
-0.390474 1.834812 0.042307
-0.387279 1.835415 0.042203
-0.383897 1.835045 0.042267
-0.380701 1.835637 0.042165
-0.377869 1.838161 0.041729
-0.375210 1.841651 0.041126
-0.372181 1.843197 0.040858
-0.369326 1.845709 0.040425
-0.366462 1.848216 0.039991
-0.363764 1.851690 0.039391
-0.360711 1.853218 0.039127
-0.357653 1.854741 0.038864
-0.354255 1.854317 0.038937
-0.351358 1.856801 0.038508
-0.348124 1.857337 0.038415
-0.345216 1.859812 0.037988
-0.341977 1.860338 0.037897
-0.339536 1.865722 0.036967
-0.336128 1.865264 0.037046
-0.333348 1.868694 0.036453
-0.329939 1.868226 0.036534
-0.326990 1.870673 0.036111
-0.323883 1.872141 0.035858
-0.320921 1.874578 0.035436
-0.317803 1.876037 0.035185
-0.314827 1.878465 0.034765
-0.311844 1.880888 0.034346
-0.308995 1.884282 0.033760
-0.305853 1.885721 0.033511
-0.302707 1.887155 0.033264
-0.299420 1.887607 0.033185
-0.296538 1.890983 0.032602
-0.293244 1.891425 0.032526
-0.290081 1.892838 0.032282
-0.287044 1.895222 0.031870
-0.283871 1.896625 0.031627
-0.281075 1.900955 0.030879
-0.277888 1.902347 0.030639
-0.274697 1.903735 0.030399
-0.271258 1.903161 0.030498
-0.268422 1.907472 0.029753
-0.265691 1.912758 0.028840
-0.262358 1.913147 0.028773
-0.258909 1.912551 0.028876
-0.255577 1.912928 0.028810
-0.252801 1.918196 0.027900
-0.249897 1.922480 0.027160
-0.246655 1.923821 0.026928
-0.243408 1.925157 0.026697
-0.240054 1.925508 0.026637
-0.236698 1.925852 0.026577
-0.233342 1.926191 0.026519
-0.229489 1.921622 0.027308
-0.226335 1.923909 0.026913
-0.223078 1.925211 0.026688
-0.220947 1.938280 0.024430
-0.218492 1.948404 0.022681
-0.590086 1.725670 0.061995
-0.586476 1.724739 0.062156
-0.582871 1.723801 0.062317
-0.579872 1.724736 0.062156
-0.575974 1.722844 0.062482
-0.572085 1.720944 0.062809
-0.569387 1.722802 0.062489
-0.566684 1.724655 0.062170
-0.563977 1.726504 0.061851
-0.560683 1.726463 0.061859
-0.557679 1.727360 0.061704
-0.554674 1.728251 0.061551
-0.552525 1.731970 0.060910
-0.549796 1.733798 0.060595
-0.546779 1.734676 0.060444
-0.543761 1.735548 0.060293
-0.541300 1.738308 0.059818
-0.537721 1.737277 0.059995
-0.535801 1.741923 0.059195
-0.533044 1.743725 0.058885
-0.530555 1.746470 0.058412
-0.527516 1.747315 0.058266
-0.525283 1.751002 0.057631
-0.522503 1.752787 0.057323
-0.519984 1.755518 0.056853
-0.517193 1.757295 0.056547
-0.514398 1.759067 0.056241
-0.511858 1.761787 0.055773
-0.508533 1.761647 0.055797
-0.505982 1.764359 0.055329
-0.502911 1.765161 0.055191
-0.500093 1.766911 0.054890
-0.497018 1.767703 0.054753
-0.494192 1.769444 0.054453
-0.491362 1.771181 0.054154
-0.488773 1.773868 0.053691
-0.485441 1.773685 0.053723
-0.482841 1.776364 0.053261
-0.479266 1.775214 0.053459
-0.476416 1.776927 0.053164
-0.473801 1.779592 0.052705
-0.471887 1.785126 0.051751
-0.469016 1.786828 0.051458
-0.465672 1.786608 0.051496
-0.462794 1.788300 0.051205
-0.460141 1.790946 0.050749
-0.457481 1.793588 0.050294
-0.454132 1.793347 0.050335
-0.451685 1.796941 0.049716
-0.448334 1.796689 0.049759
-0.445871 1.800275 0.049141
-0.442737 1.800974 0.049021
-0.440038 1.803591 0.048570
-0.437331 1.806204 0.048120
-0.434401 1.807851 0.047836
-0.431893 1.811418 0.047222
-0.428951 1.813056 0.046939
-0.425794 1.813726 0.046824
-0.422637 1.814390 0.046709
-0.419272 1.814085 0.046762
-0.416318 1.815703 0.046483
-0.413968 1.820210 0.045707
-0.411201 1.822785 0.045263
-0.408027 1.823424 0.045153
-0.404457 1.822126 0.045377
-0.401284 1.822754 0.045269
-0.398499 1.825309 0.044828
-0.395513 1.826893 0.044555
-0.392905 1.830408 0.043950
-0.390096 1.832951 0.043512
-0.387466 1.836458 0.042907
-0.384454 1.838025 0.042638
-0.381621 1.840555 0.042202
-0.379145 1.845019 0.041432
-0.375932 1.845603 0.041332
-0.372539 1.845212 0.041399
-0.369326 1.845785 0.041301
-0.366111 1.846352 0.041203
-0.363243 1.848854 0.040772
-0.360539 1.852323 0.040174
-0.357483 1.853846 0.039912
-0.354760 1.857307 0.039315
-0.351859 1.859793 0.038887
-0.349115 1.863246 0.038292
-0.346033 1.864750 0.038033
-0.342138 1.861387 0.038612
-0.338896 1.861908 0.038523
-0.335970 1.864368 0.038099
-0.333035 1.866825 0.037675
-0.330093 1.869277 0.037253
-0.327602 1.874646 0.036328
-0.324639 1.877089 0.035907
-0.321669 1.879528 0.035487
-0.318099 1.878064 0.035739
-0.314827 1.878543 0.035657
-0.311699 1.879992 0.035407
-0.308567 1.881435 0.035158
-0.305712 1.884824 0.034574
-0.302707 1.887234 0.034159
-0.299420 1.887686 0.034081
-0.296402 1.890086 0.033668
-0.293244 1.891504 0.033423
-0.290213 1.893894 0.033012
-0.287175 1.896279 0.032601
-0.283871 1.896705 0.032527
-0.280820 1.899080 0.032118
-0.277637 1.900472 0.031878
-0.274573 1.902837 0.031471
-0.271624 1.906176 0.030896
-0.268543 1.908532 0.030490
-0.265691 1.912839 0.029748
-0.262125 1.911271 0.030018
-0.259139 1.914590 0.029446
-0.255803 1.914968 0.029381
-0.253247 1.922195 0.028136
-0.249897 1.922562 0.028072
-0.246547 1.922924 0.028010
-0.242983 1.921320 0.028286
-0.239426 1.919709 0.028564
-0.235773 1.917112 0.029011
-0.232938 1.922351 0.028109
-0.229588 1.922684 0.028051
-0.227994 1.940665 0.024954
-0.225283 1.947855 0.023715
-0.222923 1.958966 0.021800
-0.573447 1.746541 0.061195
-0.568362 1.740860 0.062165
-0.564752 1.739884 0.062331
-0.560569 1.737013 0.062821
-0.557261 1.736965 0.062829
-0.553667 1.735967 0.063000
-0.551500 1.739687 0.062365
-0.547344 1.736785 0.062860
-0.544884 1.739551 0.062388
-0.541021 1.737581 0.062724
-0.538553 1.740337 0.062254
-0.536077 1.743091 0.061784
-0.533318 1.744894 0.061476
-0.530283 1.745743 0.061331
-0.527787 1.748485 0.060863
-0.524745 1.749325 0.060720
-0.522236 1.752060 0.060253
-0.519188 1.752891 0.060111
-0.516930 1.756568 0.059484
-0.514660 1.760243 0.058857
-0.511858 1.762012 0.058555
-0.508533 1.761873 0.058578
-0.505467 1.762680 0.058441
-0.502656 1.764434 0.058141
-0.499332 1.764278 0.058168
-0.496262 1.765069 0.058033
-0.493692 1.767763 0.057573
-0.491113 1.770454 0.057114
-0.487785 1.770276 0.057144
-0.484950 1.772003 0.056850
-0.482841 1.776593 0.056066
-0.479749 1.777356 0.055936
-0.477617 1.781941 0.055154
-0.474993 1.784609 0.054698
-0.471887 1.785358 0.054570
-0.468780 1.786102 0.054443
-0.465905 1.787799 0.054154
-0.463026 1.789491 0.053865
-0.459911 1.790220 0.053741
-0.457024 1.791903 0.053453
-0.453905 1.792621 0.053331
-0.451460 1.796216 0.052717
-0.448110 1.795963 0.052760
-0.444763 1.795705 0.052804
-0.442077 1.798325 0.052357
-0.439602 1.801904 0.051747
-0.436898 1.804517 0.051301
-0.434616 1.809051 0.050527
-0.431680 1.810694 0.050246
-0.428951 1.813296 0.049802
-0.425794 1.813966 0.049688
-0.422637 1.814630 0.049575
-0.419684 1.816254 0.049298
-0.416522 1.816908 0.049186
-0.413562 1.818521 0.048910
-0.410597 1.820130 0.048636
-0.408226 1.824633 0.047868
-0.405247 1.826233 0.047594
-0.401480 1.823962 0.047982
-0.398499 1.825552 0.047711
-0.395321 1.826169 0.047605
-0.392905 1.830652 0.046840
-0.389718 1.831260 0.046736
-0.387279 1.835735 0.045973
-0.384083 1.836333 0.045871
-0.381253 1.838864 0.045439
-0.378052 1.839452 0.045338
-0.374849 1.840034 0.045239
-0.372181 1.843520 0.044644
-0.368617 1.842152 0.044877
-0.366462 1.848541 0.043787
-0.363069 1.848133 0.043857
-0.360539 1.852574 0.043099
-0.357313 1.853126 0.043005
-0.354423 1.855615 0.042580
-0.351692 1.859073 0.041990
-0.348455 1.859610 0.041898
-0.345216 1.860141 0.041807
-0.341815 1.859694 0.041884
-0.339216 1.864106 0.041131
-0.336286 1.866569 0.040710
-0.333348 1.869026 0.040291
-0.330093 1.869531 0.040205
-0.327143 1.871979 0.039787
-0.324488 1.876372 0.039037
-0.321369 1.877836 0.038787
-0.318099 1.878321 0.038705
-0.314535 1.876850 0.038956
-0.311266 1.877323 0.038875
-0.308424 1.880717 0.038296
-0.305290 1.882156 0.038050
-0.302707 1.887493 0.037139
-0.299557 1.888922 0.036895
-0.296267 1.889369 0.036819
-0.292976 1.889811 0.036744
-0.290081 1.893178 0.036169
-0.287044 1.895564 0.035762
-0.283742 1.895989 0.035689
-0.281075 1.901298 0.034783
-0.277888 1.902691 0.034546
-0.274697 1.904079 0.034309
-0.271502 1.905462 0.034073
-0.268302 1.906840 0.033838
-0.265336 1.910169 0.033269
-0.262125 1.911537 0.033036
-0.258679 1.910940 0.033138
-0.255463 1.912296 0.032906
-0.252243 1.913647 0.032676
-0.249458 1.918912 0.031777
-0.246115 1.919273 0.031716
-0.242665 1.918648 0.031822
-0.239426 1.919978 0.031595
-0.236595 1.925224 0.030700
-0.232837 1.921640 0.031312
-0.228694 1.914125 0.032594
-0.227213 1.933090 0.029358
-0.227775 1.973642 0.022437
-0.224334 1.973966 0.022381
-0.558600 1.763733 0.063634
-0.550450 1.747597 0.066338
-0.547129 1.747530 0.066349
-0.542137 1.741774 0.067314
-0.539662 1.744534 0.066851
-0.536352 1.744447 0.066866
-0.534414 1.749096 0.066086
-0.531372 1.749948 0.065944
-0.528328 1.750795 0.065802
-0.524745 1.749736 0.065979
-0.522236 1.752472 0.065521
-0.518922 1.752352 0.065541
-0.516138 1.754129 0.065243
-0.513349 1.755901 0.064946
-0.510816 1.758621 0.064490
-0.507757 1.759432 0.064354
-0.504953 1.761191 0.064060
-0.501379 1.760085 0.064245
-0.499332 1.764696 0.063472
-0.496262 1.765488 0.063340
-0.493942 1.769138 0.062728
-0.491362 1.771831 0.062277
-0.488526 1.773564 0.061986
-0.485931 1.776250 0.061536
-0.483572 1.779887 0.060927
-0.480233 1.779695 0.060959
-0.477377 1.781411 0.060671
-0.474755 1.784080 0.060224
-0.471887 1.785787 0.059938
-0.468310 1.784614 0.060135
-0.465205 1.785352 0.060011
-0.463489 1.791841 0.058923
-0.460601 1.793531 0.058640
-0.456339 1.789455 0.059323
-0.453452 1.791133 0.059042
-0.450335 1.791845 0.058923
-0.447441 1.793514 0.058643
-0.444542 1.795178 0.058364
-0.442517 1.800685 0.057441
-0.440038 1.804266 0.056841
-0.436898 1.804956 0.056726
-0.433972 1.806603 0.056450
-0.430402 1.805354 0.056659
-0.427683 1.807955 0.056223
-0.424117 1.806695 0.056434
-0.421805 1.811215 0.055677
-0.419478 1.815733 0.054920
-0.416727 1.818318 0.054487
-0.413968 1.820899 0.054054
-0.410798 1.821543 0.053946
-0.407828 1.823149 0.053677
-0.404852 1.824749 0.053409
-0.402068 1.827312 0.052979
-0.399276 1.829871 0.052551
-0.396091 1.830490 0.052447
-0.393286 1.833040 0.052020
-0.389907 1.832681 0.052080
-0.387654 1.838128 0.051167
-0.384083 1.836788 0.051392
-0.381069 1.838351 0.051130
-0.377869 1.838939 0.051031
-0.375210 1.842431 0.050446
-0.372003 1.843009 0.050349
-0.368794 1.843581 0.050253
-0.365936 1.846089 0.049833
-0.363243 1.849565 0.049251
-0.360367 1.852065 0.048832
-0.357143 1.852617 0.048739
-0.354086 1.854136 0.048485
-0.351192 1.856622 0.048068
-0.348290 1.859104 0.047652
-0.344563 1.856716 0.048052
-0.341330 1.857241 0.047964
-0.338737 1.861655 0.047225
-0.335653 1.863143 0.046975
-0.332723 1.865601 0.046563
-0.329629 1.867080 0.046315
-0.326837 1.870503 0.045742
-0.324034 1.873922 0.045169
-0.320921 1.875387 0.044923
-0.317803 1.876847 0.044679
-0.314973 1.880253 0.044108
-0.311844 1.881702 0.043865
-0.308710 1.883147 0.043623
-0.305008 1.880681 0.044036
-0.302290 1.885045 0.043305
-0.299420 1.888427 0.042738
-0.296267 1.889851 0.042500
-0.292976 1.890293 0.042426
-0.289948 1.892684 0.042025
-0.287175 1.897027 0.041297
-0.284257 1.900387 0.040734
-0.280948 1.900808 0.040664
-0.277763 1.902202 0.040430
-0.274450 1.902611 0.040361
-0.271745 1.907910 0.039473
-0.268182 1.906351 0.039735
-0.265099 1.908703 0.039340
-0.261891 1.910071 0.039111
-0.258679 1.911433 0.038883
-0.255463 1.912790 0.038656
-0.252689 1.918062 0.037772
-0.249568 1.920389 0.037382
-0.246331 1.921731 0.037157
-0.242665 1.919145 0.037591
-0.239322 1.919494 0.037532
-0.235053 1.911009 0.038954
-0.231725 1.911345 0.038898
-0.227899 1.906769 0.039665
-0.227506 1.936539 0.034676
-0.538723 1.775571 0.061650
-0.531846 1.763138 0.063733
-0.527703 1.760185 0.064228
-0.524107 1.759125 0.064406
-0.520781 1.759008 0.064425
-0.516930 1.756983 0.064765
-0.512825 1.753998 0.065265
-0.509513 1.753860 0.065288
-0.507757 1.759432 0.064354
-0.505210 1.762144 0.063900
-0.502911 1.765807 0.063286
-0.498824 1.762788 0.063792
-0.496262 1.765488 0.063340
-0.492690 1.764364 0.063528
-0.490367 1.768010 0.062917
-0.487538 1.769742 0.062627
-0.485195 1.773381 0.062017
-0.482354 1.775105 0.061728
-0.479266 1.775867 0.061600
-0.475696 1.774709 0.061794
-0.474039 1.781207 0.060706
-0.471414 1.783871 0.060259
-0.469016 1.787490 0.059653
-0.465438 1.786311 0.059850
-0.462794 1.788963 0.059406
-0.458761 1.785853 0.059927
-0.456339 1.789455 0.059323
-0.453452 1.791133 0.059042
-0.450785 1.793767 0.058601
-0.448110 1.796398 0.058160
-0.444985 1.797101 0.058042
-0.442737 1.801647 0.057280
-0.439384 1.801379 0.057325
-0.436898 1.804956 0.056726
-0.433757 1.805640 0.056611
-0.431041 1.808245 0.056175
-0.427683 1.807955 0.056223
-0.424746 1.809588 0.055950
-0.421389 1.809286 0.056000
-0.418859 1.812838 0.055405
-0.416113 1.815422 0.054972
-0.413562 1.818967 0.054378
-0.411201 1.823475 0.053622
-0.407828 1.823149 0.053677
-0.405247 1.826683 0.053085
-0.401676 1.825378 0.053304
-0.399082 1.828904 0.052713
-0.395898 1.829523 0.052609
-0.392905 1.831104 0.052344
-0.390096 1.833649 0.051918
-0.386904 1.834252 0.051817
-0.383897 1.835819 0.051554
-0.380517 1.835443 0.051617
-0.378416 1.841848 0.050544
-0.375210 1.842431 0.050446
-0.372181 1.843979 0.050187
-0.368617 1.842610 0.050416
-0.366287 1.848031 0.049508
-0.363243 1.849565 0.049251
-0.360023 1.850122 0.049157
-0.356802 1.850674 0.049065
-0.354086 1.854136 0.048485
-0.352026 1.861484 0.047253
-0.348124 1.858131 0.047815
-0.345216 1.860608 0.047400
-0.341654 1.859188 0.047638
-0.339056 1.863602 0.046898
-0.335970 1.865091 0.046649
-0.332879 1.866575 0.046400
-0.329784 1.868055 0.046152
-0.326837 1.870503 0.045742
-0.324034 1.873922 0.045169
-0.320921 1.875387 0.044923
-0.317655 1.875871 0.044842
-0.314389 1.876350 0.044762
-0.311555 1.879751 0.044192
-0.308567 1.882171 0.043787
-0.304867 1.879705 0.044200
-0.301594 1.880161 0.044123
-0.299282 1.887450 0.042902
-0.296131 1.888874 0.042663
-0.292976 1.890293 0.042426
-0.289684 1.890729 0.042352
-0.286783 1.894093 0.041789
-0.283227 1.892563 0.042045
-0.280693 1.898851 0.040991
-0.277512 1.900245 0.040758
-0.274202 1.900654 0.040689
-0.271014 1.902037 0.040458
-0.268062 1.905372 0.039899
-0.264862 1.906745 0.039669
-0.261775 1.909091 0.039275
-0.258679 1.911433 0.038883
-0.255577 1.913770 0.038491
-0.252355 1.915122 0.038265
-0.249019 1.915488 0.038204
-0.245467 1.913887 0.038472
-0.241602 1.909338 0.039234
-0.239113 1.917533 0.037861
-0.234951 1.910028 0.039119
-0.232736 1.921157 0.037254
-0.228297 1.910694 0.039007
-0.225457 1.915927 0.038130
-0.222120 1.916246 0.038076
-0.218876 1.917542 0.037859
-0.518631 1.787408 0.062557
-0.510604 1.770128 0.065424
-0.507524 1.770939 0.065289
-0.503678 1.768884 0.065630
-0.500093 1.767774 0.065815
-0.497775 1.771432 0.065208
-0.495444 1.775086 0.064601
-0.491610 1.773004 0.064947
-0.488526 1.773782 0.064818
-0.484950 1.772643 0.065007
-0.481867 1.773410 0.064879
-0.478782 1.774171 0.064753
-0.475936 1.775885 0.064469
-0.473562 1.779511 0.063867
-0.470466 1.780258 0.063743
-0.467605 1.781959 0.063461
-0.464972 1.784614 0.063020
-0.462099 1.786307 0.062739
-0.459681 1.789914 0.062141
-0.456567 1.790637 0.062021
-0.453679 1.792316 0.061742
-0.451460 1.796874 0.060986
-0.448334 1.797583 0.060868
-0.445649 1.800211 0.060432
-0.442957 1.802835 0.059997
-0.440474 1.806418 0.059402
-0.437548 1.808071 0.059128
-0.434401 1.808757 0.059014
-0.431254 1.809436 0.058901
-0.427472 1.807218 0.059269
-0.424327 1.807886 0.059159
-0.422221 1.813373 0.058248
-0.419684 1.816928 0.057658
-0.416318 1.816617 0.057710
-0.413157 1.817266 0.057602
-0.409994 1.817909 0.057496
-0.407628 1.822413 0.056748
-0.404852 1.824981 0.056322
-0.401676 1.825610 0.056218
-0.399082 1.829137 0.055632
-0.395898 1.829756 0.055530
-0.392714 1.830369 0.055428
-0.389528 1.830977 0.055327
-0.386529 1.832549 0.055066
-0.383711 1.835085 0.054646
-0.380885 1.837616 0.054225
-0.378416 1.842084 0.053484
-0.375029 1.841697 0.053548
-0.372539 1.846157 0.052808
-0.369326 1.846730 0.052713
-0.366637 1.850212 0.052135
-0.363590 1.851746 0.051881
-0.360711 1.854248 0.051466
-0.357313 1.853829 0.051535
-0.354086 1.854376 0.051445
-0.351358 1.857835 0.050870
-0.348290 1.859345 0.050620
-0.345216 1.860849 0.050370
-0.341815 1.860402 0.050445
-0.338896 1.862870 0.050035
-0.335653 1.863385 0.049949
-0.332566 1.864869 0.049703
-0.330093 1.870247 0.048811
-0.327449 1.874647 0.048081
-0.324034 1.874167 0.048160
-0.320622 1.873681 0.048241
-0.317360 1.874165 0.048161
-0.314243 1.875619 0.047919
-0.310978 1.876092 0.047841
-0.308282 1.880465 0.047115
-0.305290 1.882881 0.046715
-0.302011 1.883338 0.046639
-0.299007 1.885744 0.046239
-0.295995 1.888146 0.045841
-0.292976 1.890542 0.045443
-0.289948 1.892934 0.045046
-0.286652 1.893365 0.044975
-0.283742 1.896725 0.044417
-0.280566 1.898124 0.044185
-0.277261 1.898539 0.044116
-0.274202 1.900906 0.043724
-0.271014 1.902289 0.043494
-0.268302 1.907584 0.042615
-0.264980 1.907978 0.042550
-0.261541 1.907386 0.042648
-0.258564 1.910708 0.042097
-0.255350 1.912065 0.041872
-0.252243 1.914397 0.041485
-0.248690 1.912802 0.041750
-0.244711 1.907277 0.042666
-0.240539 1.899783 0.043910
-0.232634 1.920433 0.040483
-0.229687 1.924692 0.039777
-0.226628 1.927964 0.039234
-0.222886 1.924358 0.039832
-0.497828 1.797023 0.062686
-0.492478 1.789207 0.063976
-0.486913 1.780422 0.065425
-0.484303 1.783106 0.064982
-0.480233 1.780043 0.065488
-0.476656 1.778886 0.065678
-0.473324 1.778681 0.065712
-0.470230 1.779428 0.065589
-0.466899 1.779210 0.065625
-0.464505 1.782825 0.065029
-0.461867 1.785476 0.064591
-0.458991 1.787163 0.064313
-0.456110 1.788846 0.064035
-0.453452 1.791486 0.063600
-0.450785 1.794121 0.063165
-0.448110 1.796753 0.062731
-0.444985 1.797456 0.062615
-0.441857 1.798154 0.062500
-0.438947 1.799810 0.062227
-0.436032 1.801461 0.061954
-0.433328 1.804071 0.061524
-0.430828 1.807641 0.060935
-0.428106 1.810244 0.060506
-0.424956 1.810913 0.060395
-0.421389 1.809646 0.060604
-0.418653 1.812235 0.060177
-0.416522 1.817717 0.059273
-0.413157 1.817400 0.059325
-0.410396 1.819976 0.058900
-0.407628 1.822548 0.058476
-0.404654 1.824149 0.058212
-0.401872 1.826713 0.057789
-0.398499 1.826369 0.057846
-0.395513 1.827955 0.057584
-0.392714 1.830505 0.057163
-0.389528 1.831113 0.057063
-0.386342 1.831716 0.056964
-0.383154 1.832313 0.056865
-0.380333 1.834844 0.056448
-0.377505 1.837371 0.056031
-0.374668 1.839894 0.055614
-0.372003 1.843384 0.055039
-0.368971 1.844927 0.054784
-0.366287 1.848408 0.054210
-0.362896 1.847999 0.054278
-0.359851 1.849528 0.054025
-0.356802 1.851052 0.053774
-0.354255 1.855488 0.053042
-0.351025 1.856030 0.052953
-0.347959 1.857539 0.052704
-0.344726 1.858070 0.052616
-0.341654 1.859569 0.052369
-0.338417 1.860090 0.052283
-0.335337 1.861578 0.052038
-0.332410 1.864037 0.051632
-0.329939 1.869415 0.050745
-0.326990 1.871865 0.050341
-0.323732 1.872360 0.050259
-0.320323 1.871873 0.050339
-0.317655 1.876260 0.049616
-0.314827 1.879667 0.049054
-0.311555 1.880141 0.048975
-0.308282 1.880609 0.048898
-0.305008 1.881072 0.048822
-0.302011 1.883483 0.048424
-0.299145 1.886867 0.047866
-0.295995 1.888291 0.047631
-0.293512 1.894599 0.046590
-0.289948 1.893080 0.046841
-0.286522 1.892533 0.046931
-0.283227 1.892958 0.046861
-0.279931 1.893378 0.046792
-0.277386 1.899665 0.045755
-0.274326 1.902032 0.045364
-0.271258 1.904395 0.044975
-0.268182 1.906753 0.044586
-0.264862 1.907147 0.044521
-0.261658 1.908514 0.044295
-0.258449 1.909877 0.044070
-0.255350 1.912214 0.043685
-0.252243 1.914547 0.043300
-0.248800 1.913932 0.043401
-0.244171 1.902521 0.045284
-0.240539 1.899930 0.045711
-0.234539 1.906505 0.044626
-0.231927 1.913712 0.043438
-0.228893 1.916988 0.042897
-0.225945 1.921242 0.042195
-0.223366 1.929420 0.040846
-0.480414 1.820721 0.059743
-0.473718 1.807094 0.061983
-0.468473 1.799206 0.063280
-0.463953 1.794186 0.064106
-0.458761 1.786274 0.065406
-0.456567 1.790839 0.064656
-0.453905 1.793479 0.064222
-0.451010 1.795154 0.063946
-0.448334 1.797786 0.063514
-0.445206 1.798490 0.063398
-0.442737 1.802077 0.062808
-0.439384 1.801808 0.062852
-0.436249 1.802497 0.062739
-0.433113 1.803180 0.062627
-0.430189 1.804822 0.062357
-0.427472 1.807423 0.061929
-0.424327 1.808091 0.061819
-0.421181 1.808754 0.061710
-0.418034 1.809411 0.061602
-0.415091 1.811029 0.061336
-0.412548 1.814574 0.060753
-0.410195 1.819083 0.060012
-0.407229 1.820688 0.059748
-0.404654 1.824223 0.059167
-0.401676 1.825820 0.058904
-0.398305 1.825475 0.058961
-0.395321 1.827061 0.058700
-0.391951 1.826705 0.058759
-0.389339 1.830219 0.058181
-0.386717 1.833729 0.057604
-0.383526 1.834327 0.057505
-0.380333 1.834919 0.057408
-0.377869 1.839387 0.056673
-0.375029 1.841911 0.056259
-0.371824 1.842488 0.056164
-0.369148 1.845974 0.055590
-0.366462 1.849456 0.055018
-0.363069 1.849047 0.055085
-0.359851 1.849604 0.054994
-0.356802 1.851128 0.054743
-0.353749 1.852647 0.054493
-0.350691 1.854161 0.054244
-0.347794 1.856643 0.053836
-0.344889 1.859121 0.053429
-0.341977 1.861594 0.053022
-0.338896 1.863089 0.052776
-0.335812 1.864579 0.052531
-0.332566 1.865089 0.052448
-0.329939 1.869493 0.051723
-0.326684 1.869992 0.051641
-0.323429 1.870487 0.051560
-0.320024 1.870000 0.051640
-0.317064 1.872435 0.051240
-0.314389 1.876817 0.050519
-0.311411 1.879243 0.050120
-0.308424 1.881665 0.049722
-0.305290 1.883104 0.049485
-0.302290 1.885516 0.049089
-0.299282 1.887923 0.048693
-0.295995 1.888371 0.048620
-0.292976 1.890768 0.048225
-0.289684 1.891204 0.048154
-0.286783 1.894570 0.047600
-0.283484 1.894995 0.047530
-0.280439 1.897373 0.047139
-0.277261 1.898766 0.046910
-0.274450 1.903092 0.046199
-0.271258 1.904476 0.045971
-0.267942 1.904875 0.045906
-0.264980 1.908208 0.045358
-0.262008 1.911536 0.044811
-0.258794 1.912899 0.044587
-0.255577 1.914257 0.044363
-0.251909 1.911687 0.044786
-0.248361 1.910090 0.045048
-0.234437 1.905605 0.045786
-0.231624 1.910848 0.044924
-0.228893 1.917070 0.043901
-0.225750 1.919360 0.043524
-0.222791 1.923610 0.042825
-0.220570 1.935714 0.040835
-0.457084 1.821418 0.063687
-0.450566 1.807704 0.065910
-0.446979 1.806487 0.066108
-0.443836 1.807189 0.065994
-0.440038 1.804996 0.066350
-0.437331 1.807613 0.065925
-0.433542 1.805406 0.066283
-0.430402 1.806085 0.066173
-0.427049 1.805793 0.066220
-0.424956 1.811287 0.065329
-0.421597 1.810985 0.065378
-0.418859 1.813575 0.064958
-0.415295 1.812296 0.065166
-0.412954 1.816810 0.064434
-0.409190 1.814552 0.064800
-0.406831 1.819058 0.064069
-0.403468 1.818723 0.064124
-0.400892 1.822254 0.063551
-0.398305 1.825781 0.062979
-0.395706 1.829305 0.062408
-0.392714 1.830888 0.062151
-0.389718 1.832465 0.061895
-0.386342 1.832099 0.061955
-0.383340 1.833666 0.061700
-0.380333 1.835229 0.061447
-0.377687 1.838727 0.060880
-0.375210 1.843193 0.060155
-0.372181 1.844743 0.059904
-0.368971 1.845316 0.059811
-0.365760 1.845883 0.059719
-0.362896 1.848389 0.059313
-0.360195 1.851864 0.058749
-0.356802 1.851443 0.058818
-0.353412 1.851017 0.058887
-0.350358 1.852531 0.058641
-0.347299 1.854039 0.058397
-0.344400 1.856517 0.057995
-0.341007 1.856068 0.058068
-0.338577 1.861459 0.057193
-0.335653 1.863924 0.056794
-0.332879 1.867359 0.056237
-0.329784 1.868839 0.055997
-0.326378 1.868364 0.056074
-0.323429 1.870809 0.055677
-0.320173 1.871298 0.055598
-0.317064 1.872758 0.055361
-0.314097 1.875189 0.054967
-0.311411 1.879569 0.054257
-0.308282 1.881014 0.054022
-0.305149 1.882454 0.053789
-0.301872 1.882911 0.053715
-0.298732 1.884341 0.053483
-0.295995 1.888699 0.052776
-0.292842 1.890119 0.052546
-0.289684 1.891534 0.052316
-0.286391 1.891964 0.052247
-0.283227 1.893368 0.052019
-0.280058 1.894767 0.051792
-0.277637 1.902037 0.050613
-0.274326 1.902447 0.050547
-0.271136 1.903831 0.050322
-0.268062 1.906189 0.049940
-0.265099 1.909523 0.049399
-0.262008 1.911873 0.049018
-0.258449 1.910294 0.049274
-0.255237 1.911652 0.049054
-0.251129 1.905157 0.050107
-0.247154 1.899634 0.051003
-0.240858 1.903288 0.050410
-0.236184 1.922631 0.047274
-0.232533 1.920024 0.047696
-0.229786 1.926249 0.046687
-0.226237 1.924612 0.046952
-0.223078 1.926899 0.046582
-0.436793 1.835049 0.061893
-0.430219 1.820296 0.064282
-0.426423 1.818073 0.064642
-0.422429 1.814878 0.065159
-0.419272 1.815537 0.065053
-0.416318 1.817158 0.064790
-0.413157 1.817807 0.064685
-0.409793 1.817483 0.064737
-0.406432 1.817154 0.064791
-0.403864 1.820689 0.064218
-0.400696 1.821316 0.064117
-0.397722 1.822907 0.063859
-0.394936 1.825461 0.063446
-0.392332 1.828981 0.062876
-0.389339 1.830558 0.062620
-0.386155 1.831160 0.062523
-0.382969 1.831757 0.062426
-0.379966 1.833319 0.062173
-0.377687 1.838759 0.061292
-0.375029 1.842254 0.060726
-0.372360 1.845745 0.060161
-0.369326 1.847290 0.059911
-0.365936 1.846887 0.059976
-0.362722 1.847449 0.059885
-0.360023 1.850923 0.059323
-0.356802 1.851475 0.059233
-0.353749 1.852994 0.058987
-0.351025 1.856456 0.058427
-0.347959 1.857966 0.058182
-0.344726 1.858497 0.058096
-0.341815 1.860971 0.057695
-0.338737 1.862466 0.057453
-0.335495 1.862981 0.057370
-0.332566 1.865441 0.056972
-0.329629 1.867896 0.056574
-0.326684 1.870347 0.056177
-0.323278 1.869866 0.056255
-0.320024 1.870355 0.056176
-0.317212 1.873766 0.055623
-0.314243 1.876198 0.055230
-0.311555 1.880578 0.054520
-0.308282 1.881047 0.054445
-0.305149 1.882487 0.054211
-0.302011 1.883922 0.053979
-0.299420 1.889263 0.053114
-0.295860 1.887754 0.053358
-0.292842 1.890152 0.052970
-0.289684 1.891567 0.052741
-0.286913 1.895912 0.052037
-0.283613 1.896338 0.051968
-0.280058 1.894800 0.052217
-0.276885 1.896194 0.051992
-0.273955 1.899541 0.051450
-0.271014 1.902884 0.050908
-0.268182 1.907203 0.050209
-0.264862 1.907597 0.050145
-0.261541 1.907985 0.050082
-0.257875 1.905425 0.050497
-0.254445 1.904820 0.050595
-0.249568 1.891456 0.052759
-0.236918 1.897778 0.051735
-0.235156 1.912846 0.049295
-0.232634 1.921040 0.047968
-0.229886 1.927266 0.046960
-0.226823 1.930541 0.046430
-0.223366 1.929881 0.046537
-0.220006 1.930197 0.046486
-0.417635 1.855357 0.060771
-0.410419 1.836659 0.063777
-0.406631 1.834394 0.064141
-0.402852 1.832122 0.064506
-0.398693 1.827905 0.065184
-0.395706 1.829493 0.064929
-0.392332 1.829138 0.064986
-0.390096 1.834593 0.064109
-0.387279 1.837137 0.063700
-0.383340 1.833855 0.064227
-0.379598 1.831536 0.064600
-0.377323 1.836976 0.063726
-0.374849 1.841442 0.063008
-0.371824 1.842991 0.062759
-0.368794 1.844535 0.062511
-0.365410 1.844131 0.062576
-0.362548 1.846637 0.062173
-0.359336 1.847193 0.062083
-0.356802 1.851636 0.061369
-0.353749 1.853156 0.061125
-0.351192 1.857591 0.060412
-0.347629 1.856180 0.060639
-0.344400 1.856711 0.060553
-0.341492 1.859185 0.060156
-0.338417 1.860680 0.059915
-0.335812 1.865094 0.059206
-0.332097 1.862679 0.059594
-0.329320 1.866110 0.059043
-0.326072 1.866609 0.058962
-0.323429 1.871006 0.058256
-0.320173 1.871495 0.058177
-0.316916 1.871979 0.058099
-0.314243 1.876364 0.057394
-0.311266 1.878791 0.057004
-0.307997 1.879259 0.056929
-0.304726 1.879721 0.056855
-0.301594 1.881156 0.056624
-0.299420 1.889431 0.055294
-0.296131 1.889878 0.055222
-0.292976 1.891299 0.054994
-0.289816 1.892714 0.054766
-0.286652 1.894124 0.054539
-0.283871 1.898466 0.053841
-0.280058 1.894970 0.054403
-0.277512 1.901261 0.053392
-0.274450 1.903630 0.053011
-0.271380 1.905995 0.052631
-0.267942 1.905414 0.052725
-0.264507 1.904827 0.052819
-0.261191 1.905215 0.052757
-0.257875 1.905596 0.052695
-0.254784 1.907934 0.052319
-0.250794 1.902418 0.053206
-0.237649 1.904821 0.052820
-0.235053 1.912037 0.051660
-0.232837 1.923178 0.049869
-0.229489 1.923512 0.049815
-0.226335 1.925804 0.049447
-0.222982 1.926125 0.049395
-0.397281 1.871632 0.060814
-0.389715 1.849937 0.064270
-0.385568 1.845688 0.064947
-0.381805 1.843372 0.065316
-0.378416 1.842991 0.065376
-0.375210 1.843575 0.065283
-0.372003 1.844154 0.065191
-0.368440 1.842783 0.065409
-0.365410 1.844322 0.065164
-0.362201 1.844883 0.065075
-0.358820 1.844467 0.065141
-0.355951 1.846963 0.064744
-0.353075 1.849455 0.064346
-0.350358 1.852917 0.063795
-0.347134 1.853452 0.063710
-0.344236 1.855931 0.063315
-0.341330 1.858405 0.062921
-0.338097 1.858925 0.062838
-0.335179 1.861390 0.062445
-0.332097 1.862875 0.062209
-0.329165 1.865330 0.061818
-0.326225 1.867781 0.061427
-0.323127 1.869251 0.061193
-0.320323 1.872669 0.060648
-0.317360 1.875106 0.060260
-0.314243 1.876562 0.060028
-0.310978 1.877035 0.059953
-0.307854 1.878480 0.059723
-0.304585 1.878943 0.059649
-0.302290 1.886245 0.058486
-0.298732 1.884741 0.058725
-0.295588 1.886166 0.058498
-0.292306 1.886607 0.058428
-0.289287 1.889001 0.058047
-0.286391 1.892368 0.057510
-0.283484 1.895731 0.056974
-0.280439 1.898111 0.056595
-0.277136 1.898526 0.056529
-0.274450 1.903835 0.055683
-0.270892 1.902279 0.055931
-0.267822 1.904639 0.055555
-0.264388 1.904051 0.055649
-0.261541 1.908362 0.054962
-0.257990 1.906782 0.055214
-0.254671 1.907159 0.055154
-0.250683 1.901641 0.056033
-0.246056 1.890226 0.057851
-0.240433 1.899769 0.056331
-0.238799 1.915829 0.053773
-0.235670 1.918137 0.053405
-0.232837 1.923387 0.052569
-0.229786 1.926668 0.052046
-0.226237 1.925030 0.052307
-0.222695 1.923386 0.052569
-0.220006 1.930583 0.051422
-0.375169 1.879717 0.059526
-0.367514 1.855989 0.063306
-0.364111 1.855581 0.063371
-0.360883 1.856141 0.063281
-0.357653 1.856694 0.063193
-0.354255 1.856269 0.063261
-0.350691 1.854864 0.063485
-0.347299 1.854426 0.063555
-0.344073 1.854957 0.063470
-0.340846 1.855481 0.063386
-0.337777 1.856975 0.063148
-0.334863 1.859439 0.062756
-0.332410 1.864825 0.061898
-0.329165 1.865330 0.061818
-0.326072 1.866805 0.061583
-0.322824 1.867299 0.061504
-0.320024 1.870716 0.060959
-0.317064 1.873153 0.060571
-0.314097 1.875585 0.060184
-0.310545 1.874104 0.060420
-0.307997 1.879458 0.059567
-0.305008 1.881876 0.059182
-0.301733 1.882333 0.059109
-0.298045 1.879850 0.059504
-0.295317 1.884209 0.058810
-0.292440 1.887586 0.058272
-0.289287 1.889001 0.058047
-0.286261 1.891389 0.057666
-0.283227 1.893773 0.057286
-0.280185 1.896152 0.056907
-0.276885 1.896566 0.056841
-0.274079 1.900895 0.056152
-0.270892 1.902279 0.055931
-0.267702 1.903658 0.055712
-0.264388 1.904051 0.055649
-0.261308 1.906400 0.055275
-0.258105 1.907763 0.055058
-0.254671 1.907159 0.055154
-0.250348 1.898697 0.056502
-0.246605 1.895133 0.057070
-0.240646 1.901733 0.056018
-0.238799 1.915829 0.053773
-0.235670 1.918137 0.053405
-0.232432 1.919457 0.053195
-0.229489 1.923720 0.052515
-0.226140 1.924047 0.052463
-0.223462 1.931250 0.051316
-0.346849 1.871807 0.064756
-0.342623 1.866488 0.065592
-0.338257 1.860184 0.066583
-0.335337 1.862649 0.066195
-0.332097 1.863159 0.066115
-0.329320 1.866592 0.065576
-0.325766 1.865139 0.065804
-0.322824 1.867585 0.065419
-0.319874 1.870027 0.065036
-0.316916 1.872464 0.064653
-0.313805 1.873919 0.064424
-0.310978 1.877325 0.063889
-0.307854 1.878770 0.063662
-0.304585 1.879233 0.063589
-0.301455 1.880668 0.063363
-0.298732 1.885033 0.062677
-0.295724 1.887437 0.062299
-0.292440 1.887879 0.062230
-0.289287 1.889294 0.062008
-0.285869 1.888745 0.062094
-0.282840 1.891129 0.061719
-0.279804 1.893508 0.061345
-0.276509 1.893922 0.061280
-0.273708 1.898251 0.060600
-0.270770 1.901597 0.060074
-0.267822 1.904937 0.059549
-0.264388 1.904350 0.059642
-0.260958 1.903756 0.059735
-0.257300 1.901194 0.060138
-0.254331 1.904514 0.059616
-0.250683 1.901939 0.060020
-0.247593 1.904266 0.059655
-0.245035 1.911499 0.058518
-0.242133 1.915783 0.057845
-0.239322 1.921044 0.057018
-0.235876 1.920406 0.057118
-0.233039 1.925658 0.056293
-0.229389 1.923042 0.056704
-0.225945 1.922386 0.056807
-0.222695 1.923691 0.056602
-0.347210 1.914899 0.059430
-0.339607 1.889089 0.063466
-0.335225 1.882775 0.064454
-0.330867 1.876452 0.065443
-0.327602 1.876955 0.065364
-0.324185 1.876474 0.065439
-0.321220 1.878919 0.065057
-0.318099 1.880382 0.064828
-0.314827 1.880862 0.064753
-0.311699 1.882314 0.064526
-0.308424 1.882783 0.064452
-0.305008 1.882268 0.064533
-0.301594 1.881748 0.064614
-0.298320 1.882199 0.064544
-0.295452 1.885582 0.064015
-0.292306 1.887002 0.063793
-0.289023 1.887438 0.063724
-0.285869 1.888847 0.063504
