# This PCD file was generated using the MATLAB® pcwrite function
# from Computer Vision System Toolbox®.
# .PCD v.7 - Point Cloud Data file format
VERSION .7
FIELDS x y z
SIZE 4 4 4
TYPE F F F
COUNT 1 1 1
WIDTH 1678
HEIGHT 1
VIEWPOINT 0 0 0 1 0 0 0
POINTS 1678
DATA ascii
-0.166026 1.299051 -0.304144
-0.163617 1.299247 -0.304247
-0.160674 1.294147 -0.301572
-0.158101 1.292571 -0.300745
-0.156046 1.296284 -0.302693
-0.153978 1.299994 -0.304639
-0.151157 1.295758 -0.302417
-0.148434 1.292401 -0.300656
-0.145724 1.289038 -0.298892
-0.144409 1.301564 -0.305463
-0.142820 1.311440 -0.310643
-0.141046 1.319549 -0.314897
-0.138311 1.316173 -0.313126
-0.135450 1.311026 -0.310426
-0.132337 1.302340 -0.305869
-0.129325 1.294531 -0.301773
-0.127571 1.303508 -0.306482
-0.124714 1.297458 -0.303308
-0.122735 1.303777 -0.306623
-0.120317 1.303906 -0.306691
-0.118129 1.307568 -0.308612
-0.115815 1.309458 -0.309604
-0.113332 1.308692 -0.309202
-0.110904 1.308807 -0.309262
-0.108172 1.303611 -0.306536
-0.105950 1.307256 -0.308448
-0.103761 1.311782 -0.310822
-0.101327 1.311882 -0.310875
-0.098675 1.307554 -0.308605
-0.096249 1.307646 -0.308653
-0.093823 1.307734 -0.308699
-0.091474 1.309588 -0.309672
-0.089155 1.312324 -0.311107
-0.086650 1.310631 -0.310219
-0.084152 1.308934 -0.309329
-0.081755 1.309889 -0.309829
-0.079325 1.309955 -0.309864
-0.076979 1.312672 -0.311289
-0.074543 1.312731 -0.311320
-0.072156 1.314556 -0.312277
-0.069694 1.313721 -0.311840
-0.067257 1.313768 -0.311864
-0.064819 1.313812 -0.311887
-0.062346 1.312080 -0.310979
-0.059959 1.314772 -0.312391
-0.057533 1.315690 -0.312873
-0.055092 1.315718 -0.312887
-0.052650 1.315743 -0.312900
-0.050217 1.316649 -0.313376
-0.047781 1.317552 -0.313849
-0.045336 1.317565 -0.313856
-0.042890 1.317574 -0.313861
-0.040449 1.319351 -0.314793
-0.038000 1.320239 -0.315259
-0.035548 1.321122 -0.315722
-0.033092 1.322002 -0.316184
-0.030633 1.322878 -0.316643
-0.028177 1.322865 -0.316636
-0.025696 1.325504 -0.318021
-0.023256 1.323712 -0.317081
-0.020798 1.323688 -0.317068
-0.018355 1.322774 -0.316588
-0.015900 1.322742 -0.316571
-0.013462 1.321820 -0.316088
-0.010970 1.323551 -0.316996
-0.008618 1.319081 -0.314651
-0.006102 1.321689 -0.316019
-0.004015 1.308359 -0.309027
-0.001378 1.315386 -0.312713
0.001342 1.324180 -0.317326
0.003918 1.327658 -0.319150
0.006478 1.330247 -0.320508
0.009047 1.332831 -0.321864
0.011767 1.338952 -0.325075
0.014254 1.338873 -0.325033
0.016779 1.339675 -0.325454
0.018746 1.328085 -0.319375
0.021505 1.334189 -0.322576
0.023809 1.330557 -0.320671
0.026461 1.333998 -0.322476
0.028891 1.333012 -0.321959
0.031318 1.332022 -0.321440
0.033791 1.331913 -0.321382
0.036369 1.333569 -0.322251
0.039170 1.338757 -0.324973
0.041601 1.337752 -0.324445
0.043856 1.334091 -0.322525
0.045622 1.323354 -0.316893
0.048567 1.330294 -0.320533
0.051414 1.335461 -0.323244
0.053765 1.333554 -0.322243
0.056241 1.333410 -0.322168
0.058650 1.332379 -0.321627
0.060915 1.329577 -0.320157
0.063669 1.332956 -0.321930
0.066511 1.337213 -0.324163
0.069070 1.337932 -0.324540
0.071555 1.337765 -0.324452
0.074118 1.338477 -0.324825
0.076684 1.339184 -0.325197
0.079418 1.341653 -0.326491
0.081827 1.340587 -0.325932
0.084317 1.340400 -0.325834
0.086633 1.338444 -0.324809
0.089208 1.339132 -0.325169
0.091605 1.338051 -0.324602
0.094182 1.338731 -0.324959
0.097045 1.342051 -0.326700
0.099634 1.342722 -0.327052
0.102031 1.341626 -0.326477
0.104325 1.339645 -0.325439
0.106915 1.340304 -0.325784
0.109507 1.340959 -0.326128
0.112103 1.341610 -0.326469
0.114914 1.344018 -0.327732
0.117411 1.343780 -0.327607
0.120127 1.345298 -0.328404
0.122627 1.345052 -0.328274
0.125013 1.343922 -0.327682
0.127509 1.343668 -0.327549
0.130356 1.346048 -0.328797
0.133449 1.350183 -0.330966
0.135958 1.349916 -0.330826
0.138467 1.349645 -0.330684
0.141593 1.353764 -0.332845
0.144986 1.359635 -0.335924
0.147387 1.358472 -0.335314
0.147852 1.344132 -0.327792
0.151785 1.353501 -0.332707
0.155227 1.359350 -0.335775
0.158558 1.364315 -0.338379
0.162452 1.372783 -0.342821
0.163219 1.361068 -0.336676
0.165471 1.359001 -0.335592
0.166448 1.349041 -0.330367
0.168812 1.347846 -0.329740
0.171750 1.350154 -0.330951
0.175427 1.356836 -0.334456
0.177950 1.356504 -0.334282
0.181368 1.361422 -0.336862
0.182841 1.354953 -0.333469
0.188878 1.374738 -0.343847
0.190352 1.368261 -0.340449
0.192115 1.363533 -0.337969
0.192436 1.350934 -0.331360
0.195267 1.352324 -0.332089
0.198588 1.356331 -0.334191
0.201762 1.359458 -0.335832
0.203465 1.354719 -0.333345
0.206483 1.356963 -0.334523
0.209342 1.358329 -0.335239
0.213059 1.364053 -0.338242
0.215767 1.364535 -0.338495
0.218478 1.365013 -0.338746
0.221543 1.367230 -0.339909
0.224085 1.366827 -0.339697
0.226627 1.366420 -0.339484
0.229349 1.366880 -0.339725
0.232073 1.367336 -0.339964
0.234800 1.367787 -0.340201
0.237529 1.368233 -0.340435
0.240074 1.367806 -0.340210
0.242050 1.364765 -0.338615
0.245351 1.367808 -0.340211
0.248473 1.369975 -0.341348
0.250826 1.368661 -0.340659
0.253372 1.368213 -0.340424
0.256114 1.368629 -0.340642
0.259058 1.369907 -0.341313
0.262008 1.371181 -0.341981
0.264559 1.370716 -0.341737
0.267313 1.371113 -0.341945
0.270275 1.372372 -0.342606
0.273036 1.372760 -0.342809
0.275799 1.373143 -0.343010
0.278353 1.372656 -0.342755
0.280693 1.371300 -0.342043
0.283888 1.373400 -0.343145
0.286876 1.374630 -0.343790
0.289433 1.374126 -0.343526
0.292429 1.375345 -0.344166
0.294987 1.374833 -0.343897
0.297768 1.375179 -0.344078
0.300551 1.375521 -0.344258
0.303337 1.375859 -0.344435
0.305896 1.375329 -0.344157
0.308455 1.374795 -0.343877
0.311939 1.377704 -0.345403
0.314736 1.378022 -0.345570
0.317535 1.378336 -0.345734
0.320810 1.380365 -0.346799
0.323378 1.379809 -0.346507
0.326426 1.380967 -0.347115
0.329237 1.381261 -0.347269
0.332051 1.381551 -0.347421
0.334131 1.379260 -0.346219
0.336450 1.377825 -0.345466
0.339760 1.379817 -0.346511
0.342828 1.380946 -0.347103
0.345650 1.381212 -0.347243
0.348727 1.382330 -0.347830
0.351810 1.383443 -0.348413
0.354899 1.384550 -0.348994
0.358252 1.386507 -0.350020
0.360832 1.385893 -0.349698
0.363936 1.386983 -0.350270
0.366253 1.385506 -0.349495
0.368566 1.384025 -0.348719
0.370875 1.382542 -0.347940
0.379095 1.399819 -0.357004
0.381701 1.399173 -0.356664
0.381856 1.390853 -0.352300
0.380610 1.378279 -0.345704
0.382898 1.376778 -0.344917
0.389619 1.388888 -0.351270
0.394436 1.395028 -0.354490
0.400401 1.404558 -0.359489
0.401606 1.399630 -0.356905
0.402224 1.393005 -0.353429
0.405103 1.393172 -0.353516
0.409420 1.397574 -0.355826
0.409999 1.390946 -0.352349
0.412588 1.390252 -0.351985
0.417515 1.396328 -0.355172
0.420997 1.398161 -0.356134
0.425375 1.402526 -0.358423
0.428581 1.403498 -0.358934
0.433288 1.408690 -0.361657
0.436814 1.410494 -0.362603
0.438837 1.408070 -0.361331
0.441764 1.408174 -0.361386
0.439802 1.394783 -0.354362
0.443628 1.397413 -0.355742
0.448084 1.401720 -0.358001
0.451937 1.404334 -0.359372
0.454552 1.403575 -0.358974
0.458108 1.405334 -0.359896
0.460725 1.404565 -0.359493
0.464293 1.406311 -0.360409
0.467232 1.406372 -0.360441
0.470813 1.408106 -0.361350
0.475369 1.412347 -0.363575
0.478972 1.414065 -0.364477
0.481932 1.414102 -0.364496
0.484240 1.412459 -0.363634
0.487529 1.413323 -0.364087
0.490162 1.412508 -0.363660
0.493458 1.413360 -0.364107
0.496759 1.414207 -0.364551
0.499729 1.414212 -0.364554
0.502364 1.413379 -0.364117
0.506013 1.415041 -0.364989
0.508990 1.415031 -0.364983
0.512994 1.417512 -0.366285
0.515292 1.415827 -0.365401
0.518621 1.416632 -0.365823
0.520566 1.414109 -0.364499
0.523898 1.414903 -0.364916
0.528285 1.418180 -0.366635
0.537965 1.433882 -0.374871
-0.319707 1.301835 -0.309476
-0.312941 1.283195 -0.299640
-0.310169 1.281883 -0.298947
-0.307597 1.281434 -0.298710
-0.305028 1.280980 -0.298471
-0.302652 1.281391 -0.298687
-0.301032 1.285271 -0.300735
-0.298460 1.284807 -0.300490
-0.296262 1.286076 -0.301160
-0.293141 1.282995 -0.299534
-0.290943 1.284257 -0.300200
-0.288922 1.286385 -0.301323
-0.287071 1.289381 -0.302904
-0.284502 1.288893 -0.302647
-0.282286 1.290143 -0.303306
-0.279892 1.290518 -0.303504
-0.277325 1.290018 -0.303240
-0.275102 1.291257 -0.303894
-0.271526 1.285519 -0.300866
-0.269141 1.285878 -0.301055
-0.266756 1.286233 -0.301243
-0.264206 1.285712 -0.300967
-0.261660 1.285186 -0.300690
-0.259116 1.284656 -0.300411
-0.256733 1.284996 -0.300590
-0.254505 1.286205 -0.301228
-0.252429 1.288285 -0.302326
-0.249273 1.284244 -0.300193
-0.246891 1.284569 -0.300364
-0.244508 1.284889 -0.300533
-0.242125 1.285206 -0.300701
-0.240033 1.287269 -0.301789
-0.238078 1.290205 -0.303338
-0.235113 1.287010 -0.301653
-0.232866 1.288188 -0.302274
-0.230616 1.289363 -0.302894
-0.228361 1.290534 -0.303513
-0.225830 1.289950 -0.303204
-0.223035 1.287609 -0.301969
-0.220778 1.288769 -0.302581
-0.218648 1.290803 -0.303654
-0.216253 1.291080 -0.303801
-0.214239 1.293985 -0.305334
-0.211712 1.293378 -0.305013
-0.209064 1.291889 -0.304227
-0.206180 1.288640 -0.302513
-0.203669 1.288020 -0.302186
-0.202226 1.295299 -0.306027
-0.199822 1.295551 -0.306160
-0.197648 1.297556 -0.307218
-0.194673 1.293407 -0.305028
-0.192162 1.292768 -0.304691
-0.189982 1.294762 -0.305744
-0.187795 1.296753 -0.306794
-0.185495 1.297862 -0.307379
-0.182667 1.294570 -0.305642
-0.180265 1.294791 -0.305759
-0.177862 1.295009 -0.305874
-0.175558 1.296103 -0.306451
-0.173543 1.299834 -0.308420
-0.170938 1.298281 -0.307600
-0.168716 1.300245 -0.308637
-0.165749 1.295161 -0.305954
-0.163254 1.294476 -0.305593
-0.161563 1.301715 -0.309412
-0.159321 1.303666 -0.310442
-0.157413 1.309138 -0.313330
-0.154898 1.308439 -0.312961
-0.152550 1.309499 -0.313521
-0.149637 1.304385 -0.310822
-0.147058 1.302792 -0.309981
-0.145100 1.308249 -0.312861
-0.142520 1.306649 -0.312016
-0.139508 1.299752 -0.308377
-0.137524 1.305200 -0.311252
-0.134962 1.303587 -0.310400
-0.132677 1.305499 -0.311410
-0.130320 1.306526 -0.311952
-0.127958 1.307549 -0.312492
-0.125907 1.312982 -0.315359
-0.123590 1.314882 -0.316361
-0.121088 1.314129 -0.315964
-0.118359 1.309841 -0.313701
-0.115927 1.309963 -0.313765
-0.113602 1.311847 -0.314760
-0.111584 1.319028 -0.318549
-0.108729 1.312073 -0.314879
-0.105852 1.304230 -0.310740
-0.103666 1.308750 -0.313125
-0.101644 1.316801 -0.317374
-0.098893 1.310713 -0.314161
-0.096584 1.313456 -0.315609
-0.093944 1.309126 -0.313323
-0.091474 1.308327 -0.312902
-0.088971 1.306640 -0.312011
-0.086545 1.306716 -0.312052
-0.084252 1.310325 -0.313956
-0.081818 1.310395 -0.313993
-0.079414 1.311345 -0.314494
-0.077034 1.313175 -0.315460
-0.074543 1.311465 -0.314558
-0.072083 1.310635 -0.314120
-0.069649 1.310686 -0.314147
-0.067236 1.311617 -0.314638
-0.064800 1.311660 -0.314661
-0.062364 1.311700 -0.314682
-0.059927 1.311736 -0.314701
-0.057505 1.312652 -0.315184
-0.055092 1.314449 -0.316132
-0.052661 1.315358 -0.316612
-0.050226 1.316263 -0.317090
-0.047767 1.314511 -0.316165
-0.045325 1.314524 -0.316172
-0.042887 1.315418 -0.316644
-0.040443 1.315424 -0.316647
-0.038000 1.317194 -0.317581
-0.035557 1.315424 -0.316647
-0.033113 1.315418 -0.316644
-0.030670 1.315408 -0.316639
-0.028198 1.318933 -0.318499
-0.025731 1.320685 -0.319423
-0.023277 1.320664 -0.319412
-0.020823 1.320639 -0.319399
-0.018369 1.320611 -0.319384
-0.015884 1.322347 -0.320301
-0.013427 1.322311 -0.320282
-0.010855 1.327577 -0.323060
-0.008429 1.325764 -0.322104
-0.005852 1.330138 -0.324412
-0.003404 1.329202 -0.323918
-0.001064 1.324726 -0.321556
0.001453 1.326436 -0.322458
0.003859 1.324605 -0.321492
0.006446 1.328074 -0.323323
0.008815 1.325352 -0.321886
0.011278 1.325278 -0.321847
0.013778 1.326083 -0.322272
0.016396 1.329537 -0.324095
0.019228 1.337404 -0.328246
0.021547 1.333779 -0.326334
0.023634 1.325733 -0.322087
0.026007 1.323869 -0.321104
0.028797 1.329953 -0.324314
0.031318 1.330731 -0.324725
0.033690 1.328856 -0.323735
0.036108 1.327860 -0.323210
0.038467 1.325977 -0.322216
0.041099 1.328506 -0.323551
0.043683 1.330148 -0.324417
0.046689 1.337966 -0.328543
0.049177 1.337833 -0.328473
0.051728 1.338580 -0.328867
0.053442 1.327848 -0.323204
0.055645 1.324175 -0.321265
0.058446 1.328441 -0.323516
0.061473 1.335348 -0.327161
0.063955 1.335192 -0.327079
0.066731 1.338561 -0.328857
0.069220 1.338398 -0.328771
0.071785 1.339112 -0.329148
0.074118 1.337177 -0.328127
0.076444 1.335239 -0.327104
0.079172 1.337705 -0.328405
0.081827 1.339285 -0.329239
0.084488 1.340860 -0.330070
0.086720 1.338026 -0.328575
0.089385 1.339594 -0.329402
0.091967 1.340276 -0.329762
0.094552 1.340954 -0.330120
0.097234 1.342508 -0.330940
0.099347 1.338776 -0.328970
0.101934 1.339442 -0.329322
0.104524 1.340105 -0.329671
0.107218 1.341642 -0.330483
0.110124 1.344935 -0.332221
0.112207 1.341187 -0.330242
0.114808 1.341832 -0.330583
0.117735 1.345111 -0.332314
0.120237 1.344869 -0.332186
0.123073 1.347260 -0.333447
0.125465 1.346130 -0.332851
0.128544 1.350269 -0.335035
0.131406 1.352645 -0.336289
0.134041 1.353259 -0.336613
0.136559 1.352992 -0.336472
0.139198 1.353598 -0.336792
0.140975 1.348057 -0.333868
0.144234 1.353044 -0.336500
0.146371 1.350129 -0.334961
0.148882 1.349842 -0.334810
0.151132 1.347798 -0.333731
0.154169 1.351011 -0.335427
0.157352 1.355094 -0.337582
0.160416 1.358296 -0.339271
0.162669 1.356236 -0.338184
0.164636 1.352421 -0.336171
0.167575 1.354733 -0.337391
0.170666 1.357915 -0.339070
0.173337 1.358466 -0.339361
0.176158 1.359887 -0.340111
0.179280 1.363054 -0.341782
0.181966 1.363591 -0.342065
0.183446 1.357130 -0.338656
0.187195 1.363778 -0.342164
0.188496 1.356438 -0.338291
0.192741 1.365695 -0.343176
0.193860 1.357478 -0.338840
0.197505 1.363229 -0.341875
0.199719 1.361118 -0.340761
0.202416 1.361622 -0.341026
0.205115 1.362121 -0.341290
0.208651 1.366976 -0.343852
0.210353 1.362234 -0.341350
0.213059 1.362721 -0.341606
0.215595 1.362331 -0.341401
0.218305 1.362809 -0.341653
0.221367 1.365023 -0.342821
0.224085 1.365491 -0.343068
0.226806 1.365955 -0.343313
0.229168 1.364674 -0.342637
0.231891 1.365130 -0.342877
0.234432 1.364711 -0.342657
0.238458 1.371241 -0.346102
0.241198 1.371681 -0.346335
0.243941 1.372116 -0.346565
0.245924 1.369075 -0.344959
0.248858 1.370370 -0.345643
0.252380 1.374263 -0.347697
0.256115 1.379017 -0.350206
0.258684 1.378561 -0.349965
0.261052 1.377234 -0.349265
0.263416 1.375904 -0.348563
0.265573 1.373705 -0.347403
0.268335 1.374100 -0.347611
0.271512 1.376222 -0.348731
0.274491 1.377472 -0.349391
0.275799 1.371799 -0.346397
0.277719 1.368719 -0.344772
0.279841 1.366502 -0.343602
0.282815 1.367737 -0.344253
0.287525 1.375874 -0.348547
0.289651 1.373643 -0.347370
0.292869 1.375724 -0.348468
0.295209 1.374349 -0.347743
0.299108 1.379005 -0.350200
0.300776 1.375036 -0.348105
0.304017 1.377095 -0.349192
0.306581 1.376565 -0.348912
0.309605 1.377753 -0.349539
0.312171 1.377214 -0.349255
0.314502 1.375812 -0.348514
0.317535 1.376985 -0.349134
0.320573 1.378152 -0.349750
0.323378 1.378456 -0.349910
0.327147 1.382189 -0.351880
0.329237 1.379907 -0.350676
0.332051 1.380196 -0.350828
0.334377 1.378765 -0.350073
0.338179 1.382473 -0.352030
0.341003 1.382747 -0.352175
0.343329 1.381304 -0.351413
0.346406 1.382425 -0.352005
0.348981 1.381830 -0.351690
0.351810 1.382086 -0.351825
0.354899 1.383191 -0.352409
0.357993 1.384291 -0.352989
0.360832 1.384532 -0.353116
0.363674 1.384768 -0.353241
0.366781 1.385852 -0.353813
0.369098 1.384372 -0.353032
0.370340 1.379481 -0.350451
0.371027 1.372886 -0.346970
0.377101 1.383321 -0.352477
0.383218 1.393741 -0.357976
0.385541 1.392238 -0.357183
0.386757 1.387332 -0.354594
0.389065 1.385824 -0.353798
0.395273 1.396204 -0.359276
0.398998 1.398929 -0.360714
0.401888 1.399100 -0.360804
0.403360 1.395027 -0.358655
0.405960 1.394344 -0.358294
0.409708 1.397045 -0.359720
0.412312 1.396352 -0.359354
0.415786 1.398194 -0.360326
0.418392 1.397491 -0.359955
0.423937 1.405238 -0.364043
0.428036 1.408747 -0.365895
0.427689 1.399582 -0.361058
0.425812 1.386202 -0.353997
0.429898 1.389701 -0.355844
0.433999 1.393192 -0.357686
0.436900 1.393304 -0.357745
0.441330 1.397621 -0.360024
0.445472 1.401088 -0.361853
0.449011 1.402863 -0.362790
0.451937 1.402949 -0.362835
0.454864 1.403031 -0.362879
0.458108 1.403948 -0.363362
0.460725 1.403180 -0.362957
0.464611 1.405763 -0.364320
0.467551 1.405823 -0.364352
0.470813 1.406716 -0.364823
0.474080 1.407604 -0.365292
0.477677 1.409321 -0.366198
0.480630 1.409359 -0.366218
0.483913 1.410228 -0.366677
0.486542 1.409421 -0.366250
0.489501 1.409444 -0.366263
0.494786 1.415301 -0.369354
0.497092 1.413643 -0.368479
0.500735 1.415314 -0.369361
0.503038 1.413648 -0.368481
0.506352 1.414475 -0.368918
0.508650 1.412801 -0.368034
0.511968 1.413618 -0.368465
0.516323 1.416919 -0.370208
0.519657 1.417722 -0.370631
0.523689 1.420177 -0.371927
0.527384 1.421795 -0.372780
0.530036 1.420920 -0.372319
-0.313534 1.285565 -0.301605
-0.310757 1.284254 -0.300912
-0.307597 1.281204 -0.299301
-0.305221 1.281618 -0.299520
-0.303415 1.284632 -0.301112
-0.301410 1.286777 -0.302245
-0.298460 1.284576 -0.301082
-0.295148 1.280632 -0.298999
-0.293141 1.282765 -0.300126
-0.290578 1.282287 -0.299873
-0.288741 1.285284 -0.301457
-0.285999 1.283929 -0.300741
-0.283617 1.284310 -0.300942
-0.281409 1.285558 -0.301601
-0.279545 1.288544 -0.303179
-0.277153 1.288915 -0.303375
-0.274081 1.285797 -0.301728
-0.271526 1.285288 -0.301459
-0.269642 1.288262 -0.303030
-0.267251 1.288618 -0.303218
-0.265023 1.289842 -0.303865
-0.261983 1.286700 -0.302205
-0.258956 1.283553 -0.300542
-0.256733 1.284765 -0.301182
-0.254818 1.287721 -0.302744
-0.252893 1.290674 -0.304304
-0.250038 1.288382 -0.303093
-0.247194 1.286086 -0.301880
-0.244807 1.286407 -0.302050
-0.242864 1.289348 -0.303603
-0.240471 1.289662 -0.303769
-0.237789 1.288222 -0.303009
-0.235256 1.287654 -0.302709
-0.233007 1.288832 -0.303331
-0.230894 1.290882 -0.304414
-0.228773 1.292929 -0.305496
-0.226373 1.293222 -0.305650
-0.223571 1.290882 -0.304414
-0.221043 1.290290 -0.304101
-0.218909 1.292324 -0.305176
-0.216511 1.292601 -0.305322
-0.214112 1.292875 -0.305467
-0.211461 1.291391 -0.304683
-0.209312 1.293411 -0.305750
-0.206911 1.293674 -0.305889
-0.204510 1.293933 -0.306026
-0.201990 1.293310 -0.305697
-0.199472 1.292683 -0.305365
-0.197073 1.292930 -0.305496
-0.194673 1.293174 -0.305625
-0.192384 1.294292 -0.306216
-0.189872 1.293650 -0.305876
-0.187147 1.291245 -0.304606
-0.184644 1.290594 -0.304262
-0.182458 1.292578 -0.305310
-0.180573 1.297196 -0.307750
-0.178266 1.298294 -0.308330
-0.175657 1.296749 -0.307514
-0.173055 1.295200 -0.306695
-0.170938 1.298047 -0.308199
-0.168622 1.299130 -0.308772
-0.166210 1.299330 -0.308877
-0.163707 1.298645 -0.308515
-0.160941 1.295315 -0.306756
-0.158188 1.291979 -0.304994
-0.155619 1.290401 -0.304160
-0.153978 1.298510 -0.308444
-0.151649 1.299569 -0.309003
-0.149477 1.302386 -0.310492
-0.146274 1.293742 -0.305925
-0.144870 1.305368 -0.312067
-0.142445 1.305531 -0.312153
-0.140094 1.306572 -0.312703
-0.136809 1.296144 -0.307194
-0.134543 1.298059 -0.308206
-0.132949 1.308792 -0.313876
-0.130585 1.309819 -0.314418
-0.127764 1.304666 -0.311696
-0.125467 1.306567 -0.312701
-0.123285 1.310230 -0.314636
-0.121088 1.313891 -0.316570
-0.118244 1.307838 -0.313372
-0.115201 1.298249 -0.308306
-0.112575 1.294835 -0.306502
-0.110381 1.298480 -0.308428
-0.108527 1.308304 -0.313618
-0.106292 1.311943 -0.315541
-0.102960 1.295265 -0.306730
-0.100828 1.300664 -0.309582
-0.098326 1.298992 -0.308699
-0.096040 1.301733 -0.310147
-0.093221 1.292986 -0.305526
-0.091321 1.304556 -0.311638
-0.089191 1.311705 -0.315415
-0.086755 1.311782 -0.315456
-0.084285 1.310972 -0.315027
-0.081881 1.311925 -0.315531
-0.079473 1.312875 -0.316033
-0.077062 1.313821 -0.316533
-0.074543 1.311227 -0.315163
-0.072083 1.310398 -0.314724
-0.069626 1.309565 -0.314284
-0.067236 1.311380 -0.315243
-0.064800 1.311423 -0.315266
-0.062364 1.311462 -0.315287
-0.059959 1.313266 -0.316240
-0.057589 1.317719 -0.318592
-0.055153 1.318631 -0.319074
-0.052661 1.315119 -0.317219
-0.050217 1.315140 -0.317230
-0.047774 1.315157 -0.317239
-0.045346 1.317823 -0.318647
-0.042904 1.319600 -0.319586
-0.040456 1.321375 -0.320523
-0.038000 1.321376 -0.320524
-0.035544 1.321375 -0.320523
-0.033096 1.319600 -0.319586
-0.030643 1.319591 -0.319581
-0.028205 1.317809 -0.318640
-0.025739 1.319561 -0.319565
-0.023277 1.320424 -0.320021
-0.020774 1.323936 -0.321876
-0.018313 1.323907 -0.321861
-0.015837 1.324759 -0.322311
-0.013444 1.321187 -0.320424
-0.011008 1.320263 -0.319936
-0.008681 1.314916 -0.317111
-0.006215 1.315753 -0.317553
-0.003600 1.321889 -0.320795
-0.001038 1.325369 -0.322634
0.001649 1.332381 -0.326338
0.004156 1.333202 -0.326772
0.006572 1.331368 -0.325803
0.008981 1.329530 -0.324832
0.011278 1.325037 -0.322458
0.013374 1.316123 -0.317749
0.015705 1.313391 -0.316306
0.018586 1.323025 -0.321395
0.020877 1.319402 -0.319481
0.023809 1.329026 -0.324566
0.026279 1.328929 -0.324514
0.028891 1.331477 -0.325861
0.031660 1.336671 -0.328604
0.034095 1.335678 -0.328080
0.036317 1.331150 -0.325688
0.038792 1.331034 -0.325626
0.041769 1.338859 -0.329760
0.044777 1.346678 -0.333891
0.047579 1.350962 -0.336154
0.049727 1.345532 -0.333286
0.051539 1.335688 -0.328085
0.053894 1.333783 -0.327079
0.056772 1.338933 -0.329800
0.058990 1.335256 -0.327857
0.061473 1.335105 -0.327777
0.064098 1.336713 -0.328627
0.066657 1.337435 -0.329008
0.069220 1.338154 -0.329388
0.071938 1.340631 -0.330697
0.074196 1.337815 -0.329209
0.076684 1.337640 -0.329116
0.079254 1.338342 -0.329488
0.081743 1.338160 -0.329391
0.084232 1.337973 -0.329292
0.086720 1.337782 -0.329192
0.089208 1.337588 -0.329089
0.091786 1.338270 -0.329449
0.094459 1.339829 -0.330273
0.097140 1.341383 -0.331094
0.099826 1.342933 -0.331913
0.102324 1.342718 -0.331799
0.104921 1.343380 -0.332149
0.107420 1.343157 -0.332031
0.110124 1.344690 -0.332841
0.112730 1.345339 -0.333184
0.115233 1.345104 -0.333060
0.118167 1.348382 -0.334791
0.120676 1.348139 -0.334663
0.122961 1.346135 -0.333604
0.125352 1.345006 -0.333008
0.128429 1.349143 -0.335194
0.131173 1.350641 -0.335985
0.134041 1.353012 -0.337237
0.136919 1.355378 -0.338487
0.139320 1.354228 -0.337880
0.141964 1.354830 -0.338198
0.143984 1.351042 -0.336197
0.148277 1.363037 -0.342534
0.150042 1.357487 -0.339602
0.152829 1.358948 -0.340373
0.155491 1.359528 -0.340680
0.157888 1.358351 -0.340058
0.160280 1.357171 -0.339435
0.162944 1.357739 -0.339735
0.166584 1.364431 -0.343270
0.170111 1.370241 -0.346340
0.171665 1.363792 -0.342933
0.173915 1.361717 -0.341836
0.176158 1.359638 -0.340738
0.178689 1.359306 -0.340563
0.180770 1.356347 -0.338999
0.183295 1.356007 -0.338820
0.186583 1.360033 -0.340947
0.189115 1.359684 -0.340762
0.191959 1.361078 -0.341499
0.194809 1.362468 -0.342233
0.196865 1.359488 -0.340659
0.199719 1.360869 -0.341388
0.203069 1.364861 -0.343498
0.205940 1.366232 -0.344221
0.208984 1.368469 -0.345403
0.211027 1.365471 -0.343820
0.213399 1.364213 -0.343155
0.215423 1.361210 -0.341569
0.219173 1.366913 -0.344581
0.221893 1.367384 -0.344830
0.222315 1.356539 -0.339101
0.223945 1.351785 -0.336589
0.227544 1.356597 -0.339131
0.232620 1.368357 -0.345344
0.235904 1.371414 -0.346959
0.238086 1.369251 -0.345817
0.241948 1.374903 -0.348803
0.242618 1.365787 -0.343986
0.245542 1.367087 -0.344674
0.248665 1.369251 -0.345817
0.252575 1.374878 -0.348789
0.255919 1.377896 -0.350384
0.256905 1.370506 -0.346480
0.260055 1.372648 -0.347611
0.262813 1.373053 -0.347825
0.265370 1.372587 -0.347579
0.266904 1.367789 -0.345044
0.268419 1.362990 -0.342509
0.271996 1.366840 -0.344543
0.274961 1.368089 -0.345203
0.277931 1.369332 -0.345859
0.277924 1.358476 -0.340124
0.281526 1.362304 -0.342147
0.285361 1.366989 -0.344621
0.289651 1.373391 -0.348004
0.292869 1.375471 -0.349103
0.295209 1.374096 -0.348376
0.297768 1.373580 -0.348104
0.301001 1.375644 -0.349194
0.304470 1.378564 -0.350737
0.307038 1.378034 -0.350456
0.309605 1.377499 -0.350174
0.312171 1.376961 -0.349890
0.315203 1.378138 -0.350512
0.318475 1.380169 -0.351585
0.321283 1.380476 -0.351747
0.323855 1.379919 -0.351453
0.326906 1.381076 -0.352064
0.330205 1.383084 -0.353125
0.333513 1.385087 -0.354183
0.335603 1.382797 -0.352973
0.338427 1.383075 -0.353120
0.340506 1.380780 -0.351907
0.343829 1.382762 -0.352954
0.346658 1.383026 -0.353094
0.349235 1.382431 -0.352779
0.352321 1.383541 -0.353366
0.356442 1.388063 -0.355755
0.359546 1.389161 -0.356335
0.361874 1.387691 -0.355559
0.364985 1.388779 -0.356133
0.367309 1.387302 -0.355353
0.370956 1.390084 -0.356823
0.373814 1.390303 -0.356939
0.376405 1.389666 -0.356602
0.374936 1.376256 -0.349517
0.378044 1.377319 -0.350079
0.383623 1.386029 -0.354680
0.388962 1.393875 -0.358826
0.391283 1.392365 -0.358028
0.393599 1.390851 -0.357228
0.392823 1.379999 -0.351495
0.398218 1.387815 -0.355624
0.401656 1.389683 -0.356611
0.406817 1.396629 -0.360280
0.409708 1.396787 -0.360364
0.414335 1.402019 -0.363128
0.414623 1.394551 -0.359183
0.419269 1.399770 -0.361940
0.423055 1.402442 -0.363352
0.427444 1.406797 -0.365652
0.429176 1.403544 -0.363934
0.430896 1.400290 -0.362214
0.434108 1.401251 -0.362722
0.438535 1.405577 -0.365008
0.440852 1.403997 -0.364173
0.444081 1.404940 -0.364671
0.446394 1.403352 -0.363833
0.449938 1.405126 -0.364769
0.452247 1.403530 -0.363926
0.455489 1.404452 -0.364413
0.458422 1.404527 -0.364453
0.461988 1.406276 -0.365377
0.464611 1.405503 -0.364968
0.467551 1.405563 -0.365000
0.471133 1.407293 -0.365915
0.475369 1.410691 -0.367709
0.479296 1.413243 -0.369058
0.482258 1.413278 -0.369076
0.484567 1.411638 -0.368210
0.487200 1.410829 -0.367783
0.491153 1.413355 -0.369117
0.494454 1.414204 -0.369566
0.498094 1.415881 -0.370451
0.500735 1.415052 -0.370013
0.504049 1.415883 -0.370452
0.507029 1.415877 -0.370449
0.510011 1.415865 -0.370443
0.511968 1.413355 -0.369117
0.516323 1.416656 -0.370861
0.519657 1.417458 -0.371285
0.524383 1.421571 -0.373458
0.527732 1.422359 -0.373874
0.531787 1.424797 -0.375161
-0.312744 1.280492 -0.303873
-0.309777 1.278317 -0.302715
-0.307792 1.280466 -0.303859
-0.306953 1.287809 -0.307768
-0.304560 1.288221 -0.307988
-0.301599 1.286030 -0.306821
-0.299022 1.285567 -0.306575
-0.296634 1.285967 -0.306788
-0.294428 1.287232 -0.307461
-0.291854 1.286757 -0.307208
-0.289102 1.285410 -0.306491
-0.286535 1.284926 -0.306233
-0.283971 1.284439 -0.305974
-0.281409 1.283947 -0.305712
-0.280587 1.292143 -0.310076
-0.278357 1.293385 -0.310737
-0.275783 1.292884 -0.310470
-0.272874 1.290638 -0.309274
-0.269475 1.285776 -0.306686
-0.267251 1.287001 -0.307338
-0.264860 1.287353 -0.307525
-0.262791 1.289442 -0.308638
-0.259755 1.286301 -0.306965
-0.257523 1.287513 -0.307610
-0.255287 1.288721 -0.308254
-0.253047 1.289926 -0.308895
-0.250803 1.291128 -0.309535
-0.247950 1.288836 -0.308315
-0.245106 1.286539 -0.307092
-0.242568 1.285984 -0.306796
-0.240325 1.287170 -0.307428
-0.238511 1.290974 -0.309453
-0.236112 1.291281 -0.309617
-0.233430 1.289836 -0.308848
-0.230755 1.288387 -0.308076
-0.228223 1.287808 -0.307768
-0.225966 1.288974 -0.308388
-0.223571 1.289262 -0.308542
-0.221440 1.291296 -0.309624
-0.219431 1.294202 -0.311172
-0.216897 1.293604 -0.310853
-0.214493 1.293878 -0.310999
-0.212088 1.294148 -0.311143
-0.209682 1.294414 -0.311285
-0.207155 1.293801 -0.310958
-0.204750 1.294060 -0.311096
-0.202345 1.294315 -0.311232
-0.200056 1.295443 -0.311832
-0.197648 1.295690 -0.311964
-0.195126 1.295058 -0.311627
-0.192719 1.295298 -0.311755
-0.190311 1.295534 -0.311881
-0.187687 1.294012 -0.311071
-0.185176 1.293363 -0.310725
-0.182876 1.294466 -0.311312
-0.180984 1.299077 -0.313767
-0.178468 1.298417 -0.313416
-0.175757 1.295997 -0.312127
-0.173348 1.296207 -0.312239
-0.171034 1.297293 -0.312817
-0.168716 1.298375 -0.313393
-0.166672 1.302090 -0.315371
-0.164523 1.304923 -0.316880
-0.162452 1.308633 -0.318855
-0.160802 1.316737 -0.323169
-0.157840 1.311647 -0.320460
-0.154982 1.307432 -0.318216
-0.152386 1.305851 -0.317374
-0.150038 1.306905 -0.317935
-0.147529 1.306196 -0.317557
-0.145100 1.306363 -0.317646
-0.141996 1.298604 -0.313515
-0.139508 1.297882 -0.313131
-0.136809 1.294515 -0.311338
-0.134892 1.300829 -0.314700
-0.132813 1.305380 -0.317123
-0.130717 1.309928 -0.319544
-0.127571 1.300379 -0.314461
-0.125028 1.298754 -0.313595
-0.123163 1.306815 -0.317887
-0.121563 1.319281 -0.324524
-0.118935 1.316764 -0.323184
-0.116262 1.313361 -0.321372
-0.113332 1.305547 -0.317212
-0.111061 1.308306 -0.318681
-0.108729 1.310180 -0.319678
-0.106487 1.313813 -0.321613
-0.103996 1.313035 -0.321199
-0.101554 1.313135 -0.321252
-0.098893 1.308822 -0.318955
-0.096458 1.308914 -0.319004
-0.093743 1.302828 -0.315764
-0.091513 1.307322 -0.318157
-0.089081 1.307403 -0.318200
-0.086859 1.312773 -0.321059
-0.084318 1.310199 -0.319689
-0.081912 1.311151 -0.320196
-0.079355 1.307688 -0.318352
-0.077007 1.310397 -0.319794
-0.074569 1.310455 -0.319825
-0.072132 1.310509 -0.319854
-0.069672 1.309678 -0.319411
-0.067236 1.309724 -0.319436
-0.064838 1.311533 -0.320399
-0.062416 1.312455 -0.320890
-0.059990 1.313373 -0.321378
-0.057533 1.312522 -0.320926
-0.055104 1.313433 -0.321411
-0.052671 1.314340 -0.321894
-0.050243 1.316126 -0.322844
-0.047788 1.315261 -0.322383
-0.045325 1.312626 -0.320981
-0.042876 1.310870 -0.320046
-0.040454 1.318820 -0.324278
-0.038000 1.318822 -0.324279
-0.035546 1.318820 -0.324278
-0.033099 1.317049 -0.323335
-0.030654 1.316157 -0.322860
-0.028191 1.317909 -0.323793
-0.025696 1.322305 -0.326134
-0.023235 1.322284 -0.326123
-0.020774 1.322259 -0.326110
-0.018341 1.320466 -0.325155
-0.015931 1.317786 -0.323728
-0.013479 1.317750 -0.323709
-0.010989 1.319475 -0.324627
-0.008408 1.324727 -0.327423
-0.005897 1.326444 -0.328338
-0.003282 1.331688 -0.331129
-0.000750 1.333397 -0.332039
0.001453 1.324514 -0.327310
0.003889 1.323569 -0.326807
0.006289 1.321738 -0.325832
0.008915 1.326079 -0.328143
0.011243 1.322476 -0.326225
0.013668 1.321516 -0.325714
0.016242 1.324081 -0.327079
0.018586 1.321350 -0.325625
0.021128 1.323024 -0.326517
0.023809 1.327341 -0.328815
0.026688 1.335180 -0.332988
0.029504 1.341250 -0.336220
0.031513 1.332328 -0.331470
0.034196 1.335745 -0.333289
0.036055 1.325054 -0.327598
0.039333 1.338159 -0.334575
0.042104 1.342445 -0.336856
0.044604 1.342319 -0.336790
0.046986 1.340428 -0.335783
0.049483 1.340295 -0.335712
0.051979 1.340158 -0.335639
0.054088 1.334733 -0.332750
0.056772 1.337231 -0.334081
0.058718 1.330038 -0.330251
0.061682 1.336051 -0.333452
0.063955 1.333254 -0.331963
0.066511 1.333976 -0.332347
0.069070 1.334693 -0.332729
0.071862 1.338046 -0.334515
0.074432 1.338755 -0.334892
0.076925 1.338580 -0.334799
0.079336 1.337521 -0.334235
0.081910 1.338218 -0.334606
0.084402 1.338031 -0.334507
0.087068 1.339600 -0.335342
0.089741 1.341164 -0.336174
0.092148 1.340086 -0.335600
0.094829 1.341641 -0.336428
0.097328 1.341435 -0.336318
0.099826 1.341224 -0.336206
0.102422 1.341888 -0.336560
0.105616 1.347818 -0.339717
0.108431 1.350230 -0.341001
0.110638 1.347368 -0.339478
0.112835 1.344504 -0.337952
0.115445 1.345147 -0.338295
0.118167 1.346664 -0.339103
0.120676 1.346421 -0.338973
0.123296 1.347052 -0.339309
0.125918 1.347679 -0.339643
0.128429 1.347424 -0.339507
0.131406 1.350673 -0.341237
0.133804 1.349533 -0.340630
0.136679 1.351895 -0.341888
0.138954 1.349872 -0.340811
0.142211 1.354853 -0.343463
0.144610 1.353698 -0.342847
0.147006 1.352539 -0.342231
0.149140 1.349626 -0.340680
0.152307 1.353711 -0.342855
0.155359 1.356916 -0.344561
0.158022 1.357491 -0.344867
0.160280 1.355438 -0.343774
0.162806 1.355131 -0.343610
0.165889 1.358316 -0.345306
0.168702 1.359747 -0.346068
0.171379 1.360301 -0.346363
0.173626 1.358229 -0.345260
0.176158 1.357901 -0.345085
0.178689 1.357569 -0.344909
0.180920 1.355488 -0.343801
0.183900 1.357767 -0.345014
0.186736 1.359167 -0.345759
0.189579 1.360563 -0.346503
0.192115 1.360211 -0.346315
0.194967 1.361598 -0.347053
0.197505 1.361237 -0.346861
0.200689 1.364356 -0.348522
0.203069 1.363116 -0.347862
0.205775 1.363613 -0.348126
0.208151 1.362365 -0.347462
0.211196 1.364594 -0.348649
0.214250 1.366818 -0.349833
0.216283 1.363818 -0.348236
0.219694 1.367771 -0.350340
0.221893 1.365634 -0.349202
0.226033 1.373051 -0.353151
0.227521 1.367431 -0.350159
0.230251 1.367888 -0.350402
0.232620 1.366605 -0.349719
0.235904 1.369657 -0.351344
0.237901 1.366631 -0.349733
0.241760 1.372273 -0.352737
0.243563 1.368373 -0.350661
0.244779 1.361872 -0.347199
0.248280 1.365765 -0.349272
0.251021 1.366188 -0.349497
0.254548 1.370069 -0.351563
0.256905 1.368751 -0.350862
0.259457 1.368295 -0.350619
0.263215 1.373022 -0.353136
0.265775 1.372556 -0.352888
0.268949 1.374678 -0.354018
0.271100 1.372476 -0.352845
0.275115 1.378042 -0.355808
0.276847 1.374105 -0.353712
0.279832 1.375344 -0.354372
0.281546 1.371402 -0.352273
0.284318 1.371770 -0.352469
0.286227 1.368686 -0.350827
0.290960 1.376799 -0.355147
0.293308 1.375429 -0.354417
0.296095 1.375778 -0.354603
0.298661 1.375261 -0.354328
0.301451 1.375600 -0.354508
0.304697 1.377655 -0.355602
0.307267 1.377125 -0.355320
0.310065 1.377450 -0.355493
0.313098 1.378629 -0.356121
0.315903 1.378944 -0.356289
0.318711 1.379255 -0.356454
0.321283 1.378704 -0.356161
0.324094 1.379005 -0.356321
0.327867 1.382730 -0.358304
0.330205 1.381308 -0.357547
0.333026 1.381594 -0.357700
0.335848 1.381877 -0.357850
0.339167 1.383865 -0.358908
0.342247 1.384992 -0.359508
0.345081 1.385258 -0.359650
0.347918 1.385520 -0.359790
0.350757 1.385778 -0.359927
0.353598 1.386030 -0.360061
0.356442 1.386278 -0.360193
0.360064 1.389079 -0.361684
0.362656 1.388463 -0.361357
0.365509 1.388696 -0.361481
0.368364 1.388924 -0.361602
0.369894 1.384892 -0.359455
0.372478 1.384261 -0.359120
0.375330 1.384477 -0.359234
0.381701 1.395735 -0.365228
0.384034 1.394237 -0.364431
0.391020 1.407168 -0.371315
0.396956 1.416687 -0.376383
0.399048 1.414318 -0.375122
0.395273 1.394147 -0.364383
0.395069 1.385006 -0.359516
0.397653 1.384336 -0.359160
0.402792 1.391280 -0.362857
0.406817 1.394829 -0.364746
0.408846 1.392451 -0.363480
0.413468 1.397675 -0.366261
0.416658 1.398667 -0.366789
0.418977 1.397120 -0.365966
0.422173 1.398102 -0.366488
0.426262 1.401607 -0.368354
0.431258 1.407632 -0.371562
0.432989 1.404380 -0.369831
0.434108 1.399443 -0.367202
0.436721 1.398714 -0.366814
0.439636 1.398821 -0.366871
0.444387 1.403966 -0.369611
0.447623 1.404901 -0.370108
0.450556 1.404991 -0.370156
0.454111 1.406753 -0.371094
0.456426 1.405154 -0.370243
0.459678 1.406067 -0.370729
0.461988 1.404460 -0.369874
0.465880 1.407036 -0.371245
0.469783 1.409604 -0.372612
0.474340 1.413837 -0.374866
0.476981 1.413045 -0.374444
0.478972 1.410580 -0.373131
0.482258 1.411450 -0.373595
0.486203 1.413983 -0.374944
0.489831 1.415674 -0.375844
0.492806 1.415692 -0.375853
0.495451 1.414872 -0.375417
0.498428 1.414881 -0.375421
0.500400 1.412389 -0.374095
0.505398 1.417375 -0.376749
0.508384 1.417366 -0.376745
0.511373 1.417352 -0.376737
0.514021 1.416504 -0.376286
0.516667 1.415651 -0.375832
0.520347 1.417280 -0.376699
0.523342 1.417246 -0.376681
0.526687 1.418034 -0.377100
0.531087 1.421296 -0.378837
-0.313139 1.281975 -0.305422
-0.310561 1.281532 -0.305186
-0.308180 1.281950 -0.305409
-0.305798 1.282364 -0.305629
-0.303606 1.283641 -0.306310
-0.301410 1.284915 -0.306989
-0.299022 1.285319 -0.307204
-0.295891 1.282251 -0.305569
-0.294060 1.285248 -0.307167
-0.291672 1.285640 -0.307376
-0.289644 1.287765 -0.308508
-0.287071 1.287283 -0.308251
-0.284679 1.287665 -0.308455
-0.282110 1.287174 -0.308193
-0.279718 1.287548 -0.308393
-0.276981 1.286180 -0.307663
-0.274761 1.287416 -0.308322
-0.272200 1.286909 -0.308052
-0.269308 1.284657 -0.306852
-0.266591 1.283271 -0.306113
-0.264370 1.284492 -0.306764
-0.261983 1.284839 -0.306948
-0.259435 1.284311 -0.306667
-0.257049 1.284650 -0.306848
-0.254505 1.284114 -0.306562
-0.252429 1.286189 -0.307668
-0.249885 1.285645 -0.307378
-0.247345 1.285098 -0.307086
-0.244807 1.284546 -0.306792
-0.242568 1.285735 -0.307426
-0.240617 1.288667 -0.308989
-0.238222 1.288978 -0.309155
-0.235541 1.287537 -0.308387
-0.232866 1.286092 -0.307617
-0.230755 1.288138 -0.308707
-0.228498 1.289307 -0.309330
-0.226238 1.290473 -0.309952
-0.223839 1.290761 -0.310105
-0.221440 1.291046 -0.310257
-0.219170 1.292201 -0.310873
-0.216897 1.293354 -0.311487
-0.214620 1.294503 -0.312100
-0.212088 1.293897 -0.311777
-0.209312 1.291537 -0.310519
-0.207033 1.292674 -0.311125
-0.204630 1.292933 -0.311263
-0.202345 1.294064 -0.311866
-0.199939 1.294315 -0.312000
-0.197533 1.294563 -0.312132
-0.194900 1.293053 -0.311327
-0.192273 1.291539 -0.310520
-0.189763 1.290898 -0.310178
-0.187687 1.293761 -0.311705
-0.185707 1.297500 -0.313697
-0.183295 1.297726 -0.313818
-0.180573 1.295314 -0.312532
-0.178064 1.294654 -0.312180
-0.175657 1.294868 -0.312294
-0.173445 1.296835 -0.313343
-0.171034 1.297041 -0.313453
-0.168905 1.299880 -0.314966
-0.166488 1.300080 -0.315072
-0.164161 1.301154 -0.315645
-0.161652 1.300468 -0.315279
-0.158711 1.295382 -0.312568
-0.156900 1.301721 -0.315947
-0.154312 1.300143 -0.315106
-0.151485 1.295923 -0.312857
-0.148594 1.290818 -0.310136
-0.146587 1.295385 -0.312570
-0.144102 1.294671 -0.312189
-0.141846 1.296592 -0.313214
-0.139288 1.294990 -0.312360
-0.137024 1.296905 -0.313380
-0.134682 1.297936 -0.313930
-0.132473 1.300724 -0.315416
-0.130518 1.307032 -0.318778
-0.127958 1.305411 -0.317914
-0.125404 1.303786 -0.317048
-0.123529 1.311846 -0.321344
-0.121800 1.322547 -0.327048
-0.119050 1.318269 -0.324768
-0.116373 1.314868 -0.322955
-0.113115 1.301769 -0.315973
-0.110747 1.302764 -0.316503
-0.108172 1.300230 -0.315153
-0.105950 1.303862 -0.317088
-0.103666 1.306609 -0.318553
-0.101191 1.305827 -0.318136
-0.099067 1.312094 -0.321476
-0.096793 1.315713 -0.323405
-0.094465 1.318447 -0.324863
-0.091551 1.307950 -0.319268
-0.089191 1.309795 -0.320251
-0.086824 1.311635 -0.321232
-0.084417 1.312591 -0.321741
-0.081912 1.310896 -0.320838
-0.079444 1.310080 -0.320403
-0.077062 1.311906 -0.321376
-0.074648 1.312847 -0.321877
-0.072205 1.312901 -0.321906
-0.069762 1.312952 -0.321934
-0.067319 1.312999 -0.321959
-0.064915 1.314807 -0.322922
-0.062503 1.316611 -0.323884
-0.060053 1.316647 -0.323903
-0.057589 1.315796 -0.323450
-0.055140 1.315825 -0.323465
-0.052702 1.316732 -0.323948
-0.050261 1.317635 -0.324430
-0.047816 1.318534 -0.324909
-0.045357 1.317665 -0.324446
-0.042922 1.322087 -0.326803
-0.040459 1.321210 -0.326336
-0.038000 1.320330 -0.325866
-0.035544 1.319445 -0.325395
-0.033085 1.320322 -0.325862
-0.030628 1.320312 -0.325857
-0.028170 1.320299 -0.325850
-0.025713 1.320282 -0.325841
-0.023266 1.319379 -0.325359
-0.020811 1.319354 -0.325346
-0.018299 1.322856 -0.327213
-0.015821 1.323706 -0.327666
-0.013392 1.321905 -0.326706
-0.011008 1.318336 -0.324803
-0.008576 1.317410 -0.324310
-0.005875 1.327068 -0.329458
-0.003135 1.336720 -0.334603
-0.000803 1.331372 -0.331752
0.001872 1.337487 -0.335012
0.004067 1.328603 -0.330276
0.006729 1.333829 -0.333062
0.008649 1.318764 -0.325032
0.011208 1.321337 -0.326403
0.013704 1.322141 -0.326832
0.016626 1.332641 -0.332428
0.019067 1.331673 -0.331913
0.021463 1.329820 -0.330925
0.023852 1.327963 -0.329935
0.026733 1.335800 -0.334112
0.029927 1.348921 -0.341106
0.032148 1.343526 -0.338230
0.033741 1.327552 -0.329716
0.035898 1.322152 -0.326837
0.038630 1.326442 -0.329124
0.041434 1.331608 -0.331878
0.044259 1.336770 -0.334630
0.046927 1.339284 -0.335970
0.049055 1.333867 -0.333082
0.051476 1.332850 -0.332540
0.053829 1.330949 -0.331527
0.055910 1.325523 -0.328634
0.058786 1.330658 -0.331372
0.061403 1.332268 -0.332230
0.064027 1.333874 -0.333086
0.066731 1.336355 -0.334408
0.069145 1.335312 -0.333852
0.071862 1.337784 -0.335170
0.074432 1.338493 -0.335548
0.077085 1.340077 -0.336392
0.079664 1.340777 -0.336765
0.082161 1.340594 -0.336668
0.084830 1.342166 -0.337505
0.087330 1.341974 -0.337404
0.089919 1.342659 -0.337768
0.092330 1.341581 -0.337194
0.095014 1.343136 -0.338022
0.097422 1.342050 -0.337444
0.100114 1.343596 -0.338268
0.102519 1.342504 -0.337686
0.105219 1.344041 -0.338505
0.107622 1.342941 -0.337919
0.109918 1.340959 -0.336862
0.113044 1.345995 -0.339547
0.115870 1.348393 -0.340825
0.118383 1.348154 -0.340697
0.120895 1.347911 -0.340568
0.123407 1.347665 -0.340437
0.126371 1.350921 -0.342173
0.128889 1.350666 -0.342037
0.131406 1.350407 -0.341899
0.134159 1.351897 -0.342692
0.136679 1.351630 -0.342550
0.139198 1.351359 -0.342406
0.141469 1.349333 -0.341326
0.144360 1.351681 -0.342577
0.147641 1.356650 -0.345226
0.150299 1.357237 -0.345539
0.152438 1.354320 -0.343984
0.154433 1.350526 -0.341962
0.157218 1.351977 -0.342735
0.160009 1.353423 -0.343506
0.162806 1.354864 -0.344274
0.165610 1.356301 -0.345040
0.168279 1.356859 -0.345337
0.171094 1.358286 -0.346098
0.174204 1.361455 -0.347787
0.176888 1.361999 -0.348077
0.179428 1.361666 -0.347900
0.182266 1.363074 -0.348651
0.184807 1.362733 -0.348469
0.187348 1.362388 -0.348285
0.189734 1.361167 -0.347634
0.192272 1.360814 -0.347446
0.194967 1.361329 -0.347720
0.197985 1.363582 -0.348921
0.200527 1.363216 -0.348726
0.203069 1.362847 -0.348529
0.206270 1.365955 -0.350186
0.208984 1.366447 -0.350448
0.212038 1.368674 -0.351635
0.214761 1.369157 -0.351893
0.217487 1.369635 -0.352147
0.221951 1.378799 -0.357032
0.223647 1.374053 -0.354502
0.225502 1.370174 -0.352435
0.227521 1.367161 -0.350829
0.231515 1.373694 -0.354311
0.234260 1.374145 -0.354551
0.234800 1.364182 -0.349241
0.238829 1.370697 -0.352713
0.243259 1.378937 -0.357106
0.246778 1.382834 -0.359183
0.246878 1.371132 -0.352946
0.247703 1.362898 -0.348556
0.250826 1.365053 -0.349705
0.256115 1.376721 -0.355925
0.260660 1.384917 -0.360293
0.262447 1.380996 -0.358203
0.262813 1.371022 -0.352887
0.264559 1.367100 -0.350796
0.268131 1.370952 -0.352849
0.273368 1.381704 -0.358580
0.275739 1.380359 -0.357864
0.278524 1.380737 -0.358065
0.279410 1.373347 -0.354126
0.282824 1.376305 -0.355703
0.286036 1.378394 -0.356816
0.288174 1.376170 -0.355631
0.290524 1.374805 -0.354903
0.292869 1.373436 -0.354173
0.295652 1.373785 -0.354359
0.298661 1.374989 -0.355001
0.301451 1.375329 -0.355182
0.304923 1.378242 -0.356735
0.307723 1.378571 -0.356911
0.310755 1.379754 -0.357541
0.313793 1.380932 -0.358169
0.316837 1.382104 -0.358794
0.319181 1.380698 -0.358044
0.321757 1.380146 -0.357750
0.324809 1.381304 -0.358367
0.327867 1.382456 -0.358981
0.330689 1.382747 -0.359137
0.333513 1.383033 -0.359289
0.335848 1.381603 -0.358527
0.338673 1.381881 -0.358675
0.341749 1.383008 -0.359276
0.344831 1.384130 -0.359874
0.347918 1.385246 -0.360469
0.350503 1.384650 -0.360151
0.353087 1.384049 -0.359831
0.355927 1.384298 -0.359963
0.359546 1.387099 -0.361456
0.362656 1.388188 -0.362037
0.364985 1.386718 -0.361253
0.366781 1.383541 -0.359560
0.369098 1.382065 -0.358773
0.372211 1.383137 -0.359344
0.377481 1.391003 -0.363537
0.380078 1.390361 -0.363195
0.383490 1.392262 -0.364208
0.386363 1.392460 -0.364314
0.391443 1.399439 -0.368034
0.393502 1.397079 -0.366776
0.396668 1.398108 -0.367324
0.398437 1.394895 -0.365612
0.400476 1.392528 -0.364350
0.404780 1.396927 -0.366695
0.410816 1.406392 -0.371740
0.412581 1.403162 -0.370019
0.416358 1.405846 -0.371449
0.418984 1.405144 -0.371075
0.423655 1.410345 -0.373847
0.421585 1.396137 -0.366274
0.424783 1.397113 -0.366794
0.427986 1.398084 -0.367311
0.432391 1.402416 -0.369621
0.436213 1.405056 -0.371028
0.439442 1.406006 -0.371534
0.442068 1.405269 -0.371141
0.443470 1.401167 -0.368955
0.446701 1.402102 -0.369454
0.450247 1.403872 -0.370397
0.453801 1.405634 -0.371336
0.457675 1.408228 -0.372719
0.460620 1.408300 -0.372757
0.463566 1.408368 -0.372793
0.466197 1.407593 -0.372380
0.470102 1.410160 -0.373749
0.473378 1.411047 -0.374221
0.476336 1.411093 -0.374246
0.478972 1.410299 -0.373822
0.482258 1.411169 -0.374287
0.485876 1.412867 -0.375192
0.488844 1.412892 -0.375205
0.491815 1.412911 -0.375215
0.496779 1.417920 -0.377885
0.500097 1.418758 -0.378331
0.503419 1.419590 -0.378775
0.505735 1.417923 -0.377886
0.509062 1.418744 -0.378324
0.512734 1.420389 -0.379201
0.515047 1.418709 -0.378306
0.518041 1.418684 -0.378292
0.521038 1.418654 -0.378276
0.524036 1.418618 -0.378257
0.527732 1.420232 -0.379117
0.538441 1.438370 -0.388785
-0.316302 1.294623 -0.315806
-0.311737 1.285542 -0.310938
-0.308763 1.283367 -0.309773
-0.306376 1.283782 -0.309995
-0.303797 1.283328 -0.309752
-0.301221 1.282869 -0.309506
-0.298835 1.283272 -0.309722
-0.296448 1.283672 -0.309936
-0.294428 1.285800 -0.311077
-0.292219 1.287059 -0.311752
-0.290727 1.291783 -0.314284
-0.288144 1.291303 -0.314026
-0.285387 1.289951 -0.313302
-0.281935 1.285123 -0.310714
-0.281107 1.293308 -0.315101
-0.278701 1.293681 -0.315301
-0.276293 1.294049 -0.315498
-0.273380 1.291808 -0.314297
-0.270476 1.289561 -0.313092
-0.267416 1.286439 -0.311419
-0.264860 1.285921 -0.311141
-0.262306 1.285398 -0.310861
-0.260395 1.288352 -0.312444
-0.257840 1.287822 -0.312160
-0.255444 1.288158 -0.312340
-0.253047 1.288490 -0.312519
-0.250803 1.289690 -0.313162
-0.248253 1.289145 -0.312869
-0.245705 1.288595 -0.312575
-0.243307 1.288913 -0.312745
-0.240617 1.287483 -0.311979
-0.238366 1.288665 -0.312612
-0.236112 1.289843 -0.313244
-0.233853 1.291019 -0.313874
-0.231451 1.291318 -0.314035
-0.229048 1.291614 -0.314193
-0.226645 1.291906 -0.314350
-0.224241 1.292194 -0.314504
-0.221440 1.289858 -0.313252
-0.219301 1.291886 -0.314339
-0.217155 1.293911 -0.315424
-0.214493 1.292437 -0.314634
-0.211963 1.291832 -0.314310
-0.209559 1.292098 -0.314452
-0.207398 1.294109 -0.315530
-0.204870 1.293493 -0.315200
-0.202582 1.294623 -0.315806
-0.200056 1.293999 -0.315471
-0.197648 1.294246 -0.315604
-0.195126 1.293614 -0.315265
-0.192607 1.292978 -0.314924
-0.190311 1.294090 -0.315520
-0.187903 1.294323 -0.315645
-0.185920 1.298057 -0.317647
-0.183295 1.296530 -0.316828
-0.180676 1.294998 -0.316007
-0.178266 1.295215 -0.316124
-0.175856 1.295429 -0.316238
-0.173835 1.299148 -0.318232
-0.171417 1.299355 -0.318343
-0.168905 1.298681 -0.317981
-0.166488 1.298881 -0.318088
-0.163889 1.297321 -0.317252
-0.161741 1.300147 -0.318767
-0.160018 1.307359 -0.322633
-0.157157 1.303154 -0.320379
-0.154229 1.298066 -0.317651
-0.152140 1.301757 -0.319630
-0.149396 1.298416 -0.317839
-0.146980 1.298586 -0.317930
-0.145023 1.304024 -0.320845
-0.143270 1.312097 -0.325172
-0.141119 1.315773 -0.327143
-0.137882 1.306259 -0.322043
-0.136078 1.314324 -0.326366
-0.134038 1.319749 -0.329274
-0.131512 1.319016 -0.328881
-0.128345 1.309483 -0.323771
-0.125593 1.305222 -0.321487
-0.122796 1.300076 -0.318729
-0.120139 1.296685 -0.316911
-0.118244 1.304729 -0.321223
-0.115983 1.307491 -0.322703
-0.113332 1.304088 -0.320879
-0.110852 1.303322 -0.320469
-0.108628 1.306953 -0.322415
-0.106536 1.313222 -0.325775
-0.103290 1.298359 -0.317809
-0.100737 1.295817 -0.316446
-0.098631 1.302075 -0.319800
-0.096710 1.312733 -0.325513
-0.094265 1.312822 -0.325561
-0.091628 1.308503 -0.323246
-0.089375 1.312987 -0.325649
-0.086894 1.312184 -0.325219
-0.084484 1.313138 -0.325730
-0.081975 1.311446 -0.324823
-0.079503 1.310631 -0.324386
-0.077090 1.311574 -0.324892
-0.074648 1.311632 -0.324923
-0.072230 1.312567 -0.325424
-0.069830 1.314380 -0.326396
-0.067445 1.317071 -0.327838
-0.064992 1.317114 -0.327862
-0.062538 1.317154 -0.327883
-0.060006 1.312784 -0.325540
-0.057575 1.313697 -0.326030
-0.055153 1.315488 -0.326990
-0.052723 1.317275 -0.327948
-0.050261 1.316414 -0.327486
-0.047809 1.316431 -0.327495
-0.045346 1.314682 -0.326558
-0.042901 1.315573 -0.327035
-0.040463 1.321748 -0.330345
-0.038000 1.322631 -0.330819
-0.035537 1.321748 -0.330345
-0.033082 1.319979 -0.329397
-0.030623 1.319970 -0.329392
-0.028149 1.321719 -0.330330
-0.025687 1.321702 -0.330321
-0.023235 1.320800 -0.329837
-0.020798 1.319013 -0.328879
-0.018313 1.320747 -0.329809
-0.015806 1.323359 -0.331209
-0.013270 1.326848 -0.333079
-0.010912 1.321521 -0.330223
-0.008387 1.324121 -0.331617
-0.005784 1.329360 -0.334425
-0.003282 1.330189 -0.334870
-0.001012 1.323086 -0.331062
0.001565 1.326551 -0.332920
0.004007 1.325607 -0.332414
0.006666 1.330826 -0.335211
0.009080 1.328994 -0.334229
0.012011 1.340370 -0.340327
0.014181 1.332365 -0.336036
0.016818 1.335805 -0.337880
