# This PCD file was generated using the MATLAB® pcwrite function
# from Computer Vision System Toolbox®.
# .PCD v.7 - Point Cloud Data file format
VERSION .7
FIELDS x y z
SIZE 4 4 4
TYPE F F F
COUNT 1 1 1
WIDTH 1679
HEIGHT 1
VIEWPOINT 0 0 0 1 0 0 0
POINTS 1679
DATA ascii
-0.552117 1.167402 0.023667
-0.550885 1.170020 0.022904
-0.548045 1.169118 0.023167
-0.544411 1.166449 0.023944
-0.543569 1.169939 0.022928
-0.542716 1.173430 0.021912
-0.540670 1.174275 0.021666
-0.539014 1.175998 0.021164
-0.536573 1.175952 0.021177
-0.535690 1.179440 0.020162
-0.533245 1.179387 0.020178
-0.531188 1.180215 0.019936
-0.528745 1.180153 0.019954
-0.525156 1.177426 0.020748
-0.521959 1.175577 0.021287
-0.520668 1.178163 0.020534
-0.518236 1.178081 0.020558
-0.518062 1.183332 0.019029
-0.515249 1.182355 0.019314
-0.513186 1.183153 0.019081
-0.510380 1.182164 0.019369
-0.508688 1.183846 0.018879
-0.507359 1.186419 0.018130
-0.505656 1.188097 0.017642
-0.503218 1.187985 0.017675
-0.501145 1.188763 0.017448
-0.500156 1.192222 0.016441
-0.495916 1.187621 0.017781
-0.492411 1.184801 0.018601
-0.489630 1.183767 0.018902
-0.487921 1.185419 0.018421
-0.489034 1.194255 0.015849
-0.486950 1.195009 0.015630
-0.484865 1.195760 0.015411
-0.481732 1.193807 0.015980
-0.479302 1.193648 0.016026
-0.478255 1.197089 0.015024
-0.474448 1.193317 0.016122
-0.472024 1.193144 0.016172
-0.468240 1.189356 0.017275
-0.466165 1.190075 0.017066
-0.464088 1.190791 0.016858
-0.463688 1.196026 0.015334
-0.462269 1.198547 0.014600
-0.460509 1.200162 0.014129
-0.459075 1.202681 0.013396
-0.456976 1.203385 0.013191
-0.453567 1.200456 0.014044
-0.450820 1.199335 0.014370
-0.449051 1.200933 0.013905
-0.446633 1.200711 0.013970
-0.444537 1.201395 0.013771
-0.442440 1.202074 0.013573
-0.440342 1.202750 0.013376
-0.438874 1.205245 0.012650
-0.436456 1.205003 0.012720
-0.434978 1.207493 0.011995
-0.432559 1.207244 0.012068
-0.429834 1.206077 0.012407
-0.427421 1.205818 0.012483
-0.425927 1.208298 0.011761
-0.423514 1.208031 0.011839
-0.421405 1.208676 0.011651
-0.419295 1.209316 0.011465
-0.418081 1.212702 0.010479
-0.417153 1.217004 0.009227
-0.415323 1.218555 0.008775
-0.413195 1.219185 0.008591
-0.410482 1.217976 0.008944
-0.407483 1.215842 0.009565
-0.405648 1.217379 0.009117
-0.402661 1.215234 0.009742
-0.399967 1.214003 0.010100
-0.398131 1.215529 0.009656
-0.396009 1.216130 0.009481
-0.395289 1.221336 0.007965
-0.393435 1.222855 0.007523
-0.392408 1.227139 0.006276
-0.389989 1.226808 0.006372
-0.387572 1.226473 0.006470
-0.384885 1.225209 0.006838
-0.382745 1.225789 0.006669
-0.380066 1.224515 0.007040
-0.377927 1.225086 0.006874
-0.375522 1.224729 0.006978
-0.374438 1.228997 0.005735
-0.372029 1.228632 0.005841
-0.369622 1.228263 0.005949
-0.366959 1.226962 0.006327
-0.365073 1.228439 0.005897
-0.363182 1.229914 0.005468
-0.360780 1.229529 0.005580
-0.358380 1.229139 0.005694
-0.356233 1.229674 0.005538
-0.354334 1.231135 0.005113
-0.352677 1.233524 0.004417
-0.349540 1.230326 0.005348
-0.348122 1.233640 0.004383
-0.345725 1.233227 0.004504
-0.344051 1.235605 0.003812
-0.341653 1.235183 0.003934
-0.340205 1.238489 0.002972
-0.338041 1.238993 0.002825
-0.335876 1.239494 0.002679
-0.333015 1.237190 0.003350
-0.330623 1.236748 0.003479
-0.328691 1.238171 0.003064
-0.326074 1.236786 0.003468
-0.323913 1.237267 0.003328
-0.322197 1.239616 0.002644
-0.321139 1.244772 0.001143
-0.319403 1.247118 0.000460
-0.317223 1.247588 0.000323
-0.315476 1.249929 -0.000358
-0.312861 1.248516 0.000053
-0.310466 1.248037 0.000192
-0.307228 1.243799 0.001426
-0.305264 1.245188 0.001022
-0.303295 1.246573 0.000618
-0.301117 1.247016 0.000490
-0.299141 1.248394 0.000088
-0.296757 1.247890 0.000235
-0.294776 1.249262 -0.000164
-0.293789 1.255336 -0.001933
-0.291594 1.255763 -0.002057
-0.289203 1.255244 -0.001906
-0.286232 1.251896 -0.000931
-0.283851 1.251368 -0.000777
-0.282236 1.254606 -0.001720
-0.280609 1.257842 -0.002662
-0.279347 1.262962 -0.004153
-0.276953 1.262421 -0.003995
-0.274929 1.263763 -0.004386
-0.272173 1.261327 -0.003677
-0.269606 1.259828 -0.003240
-0.267761 1.262104 -0.003903
-0.265377 1.261542 -0.003739
-0.263697 1.264757 -0.004675
-0.261312 1.264188 -0.004510
-0.258929 1.263614 -0.004343
-0.256719 1.263983 -0.004450
-0.254340 1.263401 -0.004281
-0.252465 1.265655 -0.004937
-0.249756 1.263172 -0.004214
-0.248037 1.266367 -0.005144
-0.245499 1.264822 -0.004694
-0.243447 1.266115 -0.005071
-0.241075 1.265510 -0.004894
-0.239331 1.268693 -0.005821
-0.237112 1.269029 -0.005919
-0.234893 1.269360 -0.006015
-0.232975 1.271587 -0.006663
-0.230901 1.272861 -0.007034
-0.228970 1.275082 -0.007681
-0.227178 1.278249 -0.008603
-0.224364 1.274764 -0.007588
-0.222134 1.275074 -0.007679
-0.219622 1.273480 -0.007215
-0.217116 1.271881 -0.006749
-0.215029 1.273130 -0.007113
-0.212937 1.274376 -0.007476
-0.211378 1.279425 -0.008945
-0.209669 1.283520 -0.010138
-0.207554 1.284758 -0.010498
-0.205434 1.285992 -0.010857
-0.202295 1.279605 -0.008998
-0.200056 1.279878 -0.009077
-0.197940 1.281101 -0.009433
-0.195943 1.283273 -0.010065
-0.194178 1.287348 -0.011252
-0.191688 1.285701 -0.010773
-0.190255 1.292632 -0.012790
-0.187878 1.291932 -0.012586
-0.185843 1.294089 -0.013214
-0.183244 1.291472 -0.012452
-0.180545 1.287896 -0.011412
-0.178291 1.288133 -0.011480
-0.176250 1.290276 -0.012104
-0.174096 1.291461 -0.012449
-0.172350 1.296462 -0.013905
-0.169373 1.289999 -0.012024
-0.167116 1.290217 -0.012087
-0.164858 1.290431 -0.012149
-0.162887 1.293509 -0.013046
-0.160905 1.296584 -0.013941
-0.158636 1.296788 -0.014000
-0.156547 1.298901 -0.014615
-0.154185 1.298141 -0.014394
-0.152174 1.301203 -0.015285
-0.149896 1.301393 -0.015341
-0.147534 1.300622 -0.015116
-0.145339 1.301760 -0.015448
-0.143141 1.302895 -0.015778
-0.140703 1.301155 -0.015271
-0.138349 1.300368 -0.015042
-0.135997 1.299577 -0.014812
-0.133942 1.302612 -0.015696
-0.132162 1.309475 -0.017693
-0.129800 1.308673 -0.017460
-0.127372 1.306909 -0.016946
-0.124951 1.305141 -0.016432
-0.122602 1.304326 -0.016195
-0.120632 1.309257 -0.017630
-0.118340 1.309394 -0.017670
-0.116107 1.310485 -0.017987
-0.113927 1.312531 -0.018583
-0.111796 1.315532 -0.019457
-0.109492 1.315654 -0.019492
-0.107188 1.315772 -0.019527
-0.104732 1.313009 -0.018722
-0.102628 1.316955 -0.019871
-0.100181 1.314184 -0.019064
-0.097834 1.313327 -0.018815
-0.095534 1.313426 -0.018844
-0.093192 1.312561 -0.018592
-0.090894 1.312652 -0.018618
-0.088595 1.312738 -0.018643
-0.086480 1.317618 -0.020064
-0.084207 1.318657 -0.020367
-0.081931 1.319693 -0.020668
-0.079839 1.326482 -0.022644
-0.077515 1.326550 -0.022664
-0.075164 1.325655 -0.022404
-0.072868 1.326675 -0.022701
-0.070617 1.329611 -0.023555
-0.068310 1.330623 -0.023850
-0.065937 1.328752 -0.023305
-0.063590 1.327837 -0.023039
-0.061229 1.325958 -0.022492
-0.058906 1.325995 -0.022503
-0.056626 1.328908 -0.023351
-0.054334 1.331818 -0.024198
-0.052032 1.334724 -0.025044
-0.049711 1.336665 -0.025609
-0.047348 1.333803 -0.024776
-0.045011 1.333816 -0.024780
-0.042684 1.336707 -0.025621
-0.040344 1.337673 -0.025902
-0.038000 1.339595 -0.026462
-0.035654 1.338633 -0.026182
-0.033312 1.337667 -0.025901
-0.030973 1.336697 -0.025618
-0.028610 1.339563 -0.026453
-0.026184 1.348187 -0.028963
-0.023821 1.348165 -0.028957
-0.021532 1.342379 -0.027272
-0.019193 1.341389 -0.026984
-0.016827 1.342316 -0.027254
-0.014439 1.344198 -0.027802
-0.011968 1.349916 -0.029467
-0.009581 1.350831 -0.029733
-0.007213 1.350781 -0.029718
-0.004919 1.347848 -0.028864
-0.002583 1.346831 -0.028568
-0.000278 1.344850 -0.027992
0.002109 1.345744 -0.028252
0.004530 1.347594 -0.028791
0.006992 1.350400 -0.029607
0.009428 1.352242 -0.030144
0.011762 1.351201 -0.029841
0.014169 1.352075 -0.030095
0.016659 1.354864 -0.030907
0.019244 1.359567 -0.032276
0.021715 1.361387 -0.032806
0.023966 1.358408 -0.031939
0.026206 1.355425 -0.031070
0.028582 1.355315 -0.031038
0.031009 1.356160 -0.031284
0.033596 1.359878 -0.032367
0.036196 1.363591 -0.033448
0.038699 1.365382 -0.033969
-0.766628 1.085310 0.047015
-0.772550 1.097684 0.043406
-0.771754 1.100509 0.042582
-0.769840 1.101737 0.042224
-0.768477 1.103761 0.041634
-0.765453 1.103382 0.041744
-0.764084 1.105401 0.041156
-0.758318 1.100999 0.042439
-0.756403 1.102205 0.042088
-0.754486 1.103407 0.041737
-0.754745 1.107826 0.040448
-0.754447 1.111443 0.039393
-0.751971 1.111835 0.039279
-0.748416 1.110606 0.039637
-0.746484 1.111795 0.039291
-0.744012 1.112171 0.039181
-0.743684 1.115784 0.038127
-0.742811 1.118587 0.037310
-0.740864 1.119767 0.036966
-0.738915 1.120943 0.036623
-0.733254 1.116417 0.037943
-0.732368 1.119210 0.037128
-0.728839 1.117924 0.037503
-0.726368 1.118263 0.037404
-0.723374 1.117780 0.037545
-0.720383 1.117289 0.037688
-0.721044 1.122528 0.036161
-0.718051 1.122030 0.036306
-0.716097 1.123168 0.035974
-0.714659 1.125125 0.035403
-0.710640 1.122965 0.036033
-0.707658 1.122443 0.036185
-0.703656 1.120265 0.036821
-0.700174 1.118902 0.037218
-0.697718 1.119184 0.037136
-0.697800 1.123596 0.035849
-0.696856 1.126356 0.035044
-0.694895 1.127459 0.034723
-0.692429 1.127728 0.034644
-0.690465 1.128823 0.034325
-0.688000 1.129083 0.034249
-0.685536 1.129338 0.034174
-0.682078 1.127922 0.034587
-0.678628 1.126498 0.035003
-0.677161 1.128405 0.034447
-0.675196 1.129474 0.034135
-0.673720 1.131376 0.033580
-0.671750 1.132440 0.033270
-0.669778 1.133500 0.032961
-0.668291 1.135396 0.032408
-0.666313 1.136450 0.032100
-0.665301 1.139182 0.031303
-0.662353 1.138549 0.031488
-0.658929 1.137067 0.031920
-0.655991 1.136420 0.032109
-0.654012 1.137454 0.031807
-0.652031 1.138485 0.031507
-0.650522 1.140357 0.030961
-0.648536 1.141382 0.030662
-0.646076 1.141556 0.030611
-0.643149 1.140878 0.030809
-0.641162 1.141890 0.030514
-0.638240 1.141201 0.030715
-0.635322 1.140505 0.030918
-0.632872 1.140653 0.030874
-0.632732 1.145054 0.029591
-0.630737 1.146049 0.029301
-0.628282 1.146188 0.029260
-0.625371 1.145467 0.029470
-0.623375 1.146450 0.029184
-0.622286 1.149140 0.028399
-0.622093 1.153542 0.027116
-0.619181 1.152805 0.027330
-0.615824 1.151204 0.027797
-0.612027 1.148737 0.028517
-0.609133 1.147979 0.028738
-0.606688 1.148074 0.028710
-0.603802 1.147304 0.028935
-0.603569 1.151696 0.027654
-0.601562 1.152642 0.027378
-0.599553 1.153584 0.027103
-0.598417 1.156251 0.026325
-0.597707 1.159781 0.025296
-0.595686 1.160717 0.025023
-0.592798 1.159918 0.025256
-0.589915 1.159113 0.025491
-0.587895 1.160036 0.025221
-0.584163 1.157484 0.025966
-0.580443 1.154923 0.026713
-0.578854 1.156700 0.026195
-0.577684 1.159344 0.025423
-0.578189 1.165471 0.023636
-0.574060 1.162017 0.024644
-0.573288 1.165530 0.023619
-0.572088 1.168171 0.022849
-0.569637 1.168191 0.022843
-0.567600 1.169080 0.022584
-0.563915 1.166466 0.023346
-0.561882 1.167345 0.023090
-0.558621 1.165592 0.023601
-0.557403 1.168217 0.022836
-0.555771 1.169963 0.022326
-0.552924 1.169073 0.022586
-0.550885 1.169934 0.022335
-0.548445 1.169912 0.022341
-0.548399 1.175167 0.020809
-0.546349 1.176020 0.020560
-0.543903 1.175989 0.020569
-0.541064 1.175070 0.020837
-0.538622 1.175028 0.020849
-0.536182 1.174981 0.020863
-0.533355 1.174046 0.021136
-0.531307 1.174874 0.020894
-0.530030 1.177470 0.020137
-0.529514 1.181838 0.018863
-0.526304 1.179999 0.019399
-0.525008 1.182591 0.018644
-0.521807 1.180740 0.019183
-0.518613 1.178883 0.019725
-0.515429 1.177018 0.020269
-0.513376 1.177816 0.020036
-0.512440 1.181283 0.019025
-0.511865 1.185642 0.017754
-0.509057 1.184650 0.018043
-0.506991 1.185437 0.017813
-0.504923 1.186221 0.017585
-0.502853 1.187002 0.017357
-0.501509 1.189568 0.016609
-0.498710 1.188553 0.016905
-0.496276 1.188427 0.016941
-0.494202 1.189193 0.016718
-0.493198 1.192647 0.015711
-0.490051 1.190715 0.016274
-0.487620 1.190573 0.016316
-0.485543 1.191324 0.016096
-0.483464 1.192073 0.015878
-0.481384 1.192817 0.015661
-0.478608 1.191758 0.015970
-0.475493 1.189791 0.016544
-0.473417 1.190523 0.016330
-0.472024 1.193055 0.015592
-0.470282 1.194683 0.015117
-0.467858 1.194502 0.015170
-0.465774 1.195221 0.014960
-0.464024 1.196840 0.014488
-0.461935 1.197552 0.014280
-0.459180 1.196450 0.014602
-0.456431 1.195342 0.014925
-0.454674 1.196947 0.014456
-0.454548 1.203087 0.012666
-0.452123 1.202875 0.012728
-0.448403 1.199026 0.013850
-0.445988 1.198803 0.013915
-0.443896 1.199485 0.013716
-0.442440 1.201983 0.012988
-0.440660 1.203570 0.012525
-0.438243 1.203331 0.012595
-0.436456 1.204912 0.012134
-0.434041 1.204666 0.012205
-0.431938 1.205328 0.012012
-0.430452 1.207812 0.011288
-0.428650 1.209381 0.010830
-0.426844 1.210948 0.010373
-0.424730 1.211598 0.010184
-0.422010 1.210414 0.010529
-0.419896 1.211055 0.010342
-0.417782 1.211694 0.010156
-0.416261 1.214161 0.009436
-0.412958 1.211125 0.010322
-0.410255 1.209916 0.010674
-0.408143 1.210538 0.010493
-0.406901 1.213912 0.009509
-0.405648 1.217286 0.008525
-0.403523 1.217900 0.008346
-0.400539 1.215751 0.008973
-0.398984 1.218197 0.008259
-0.396574 1.217879 0.008352
-0.395850 1.223085 0.006833
-0.393714 1.223683 0.006659
-0.391022 1.222433 0.007024
-0.387784 1.219331 0.007928
-0.384558 1.216222 0.008835
-0.382435 1.216801 0.008666
-0.380580 1.218301 0.008229
-0.379797 1.223496 0.006714
-0.378194 1.225917 0.006008
-0.376319 1.227411 0.005572
-0.373910 1.227050 0.005677
-0.371767 1.227611 0.005514
-0.369622 1.228169 0.005351
-0.367218 1.227795 0.005460
-0.364816 1.227417 0.005570
-0.362161 1.226107 0.005952
-0.360273 1.227577 0.005524
-0.359136 1.231831 0.004283
-0.357735 1.235155 0.003313
-0.355577 1.235689 0.003158
-0.353665 1.237150 0.002732
-0.351258 1.236746 0.002849
-0.349340 1.238200 0.002425
-0.347902 1.241515 0.001459
-0.344051 1.235509 0.003210
-0.342369 1.237885 0.002517
-0.340442 1.239325 0.002097
-0.338512 1.240763 0.001678
-0.336343 1.241265 0.001531
-0.333942 1.240829 0.001659
-0.331774 1.241323 0.001514
-0.329832 1.242748 0.001099
-0.327207 1.241365 0.001502
-0.325712 1.244655 0.000543
-0.323090 1.243263 0.000949
-0.321582 1.246547 -0.000009
-0.318963 1.245148 0.000399
-0.317441 1.248427 -0.000557
-0.315476 1.249831 -0.000967
-0.313505 1.251232 -0.001375
-0.310892 1.249815 -0.000962
-0.308073 1.247456 -0.000274
-0.306521 1.250723 -0.001227
-0.304127 1.250232 -0.001084
-0.301941 1.250676 -0.001213
-0.299959 1.252056 -0.001616
-0.297568 1.251553 -0.001469
-0.295983 1.254807 -0.002418
-0.294188 1.257119 -0.003092
-0.292187 1.258488 -0.003491
-0.289203 1.255146 -0.002517
-0.287203 1.256507 -0.002914
-0.284813 1.255980 -0.002760
-0.282808 1.257335 -0.003155
-0.280799 1.258686 -0.003549
-0.278223 1.257205 -0.003117
-0.276396 1.259492 -0.003784
-0.274194 1.259889 -0.003900
-0.272355 1.262171 -0.004566
-0.269967 1.261618 -0.004404
-0.268118 1.263894 -0.005068
-0.266085 1.265222 -0.005456
-0.263697 1.264657 -0.005291
-0.260964 1.262197 -0.004573
-0.258585 1.261624 -0.004406
-0.256549 1.262937 -0.004789
-0.255014 1.267087 -0.005999
-0.252798 1.267448 -0.006105
-0.250911 1.269700 -0.006762
-0.247874 1.265319 -0.005484
-0.245499 1.264722 -0.005310
-0.243128 1.264120 -0.005134
-0.241391 1.267306 -0.006063
-0.239488 1.269541 -0.006715
-0.237422 1.270825 -0.007090
-0.235352 1.272106 -0.007463
-0.233126 1.272435 -0.007559
-0.230751 1.271811 -0.007377
-0.228970 1.274980 -0.008301
-0.226885 1.276248 -0.008671
-0.224941 1.278463 -0.009317
-0.222704 1.278774 -0.009408
-0.220185 1.277181 -0.008943
-0.217672 1.275583 -0.008477
-0.215578 1.276833 -0.008842
-0.213345 1.277128 -0.008928
-0.211110 1.277420 -0.009013
-0.209933 1.285321 -0.011317
-0.207945 1.287511 -0.011956
-0.205434 1.285890 -0.011483
-0.203057 1.285216 -0.011287
-0.200557 1.283586 -0.010811
-0.198311 1.283857 -0.010890
-0.195943 1.283170 -0.010690
-0.193697 1.283433 -0.010767
-0.191452 1.283692 -0.010842
-0.189322 1.284901 -0.011195
-0.187648 1.289921 -0.012659
-0.185617 1.292077 -0.013288
-0.182910 1.288507 -0.012246
-0.180216 1.284931 -0.011203
-0.178075 1.286121 -0.011551
-0.175931 1.287309 -0.011897
-0.174514 1.295176 -0.014191
-0.172144 1.294448 -0.013979
-0.170081 1.296581 -0.014601
-0.168407 1.302532 -0.016337
-0.166224 1.303704 -0.016679
-0.163941 1.303917 -0.016741
-0.161470 1.302215 -0.016244
-0.158913 1.299552 -0.015468
-0.156457 1.297840 -0.014968
-0.154363 1.299949 -0.015584
-0.152261 1.302055 -0.016198
-0.150067 1.303201 -0.016532
-0.147702 1.302430 -0.016307
-0.145339 1.301655 -0.016081
-0.142900 1.299919 -0.015575
-0.140703 1.301050 -0.015905
-0.138502 1.302178 -0.016233
-0.136222 1.302344 -0.016282
-0.134015 1.303464 -0.016609
-0.131805 1.304581 -0.016934
-0.129590 1.305694 -0.017259
-0.127780 1.312550 -0.019258
-0.125482 1.312698 -0.019302
-0.123183 1.312843 -0.019344
-0.120695 1.310109 -0.018547
-0.118584 1.313121 -0.019425
-0.116166 1.311337 -0.018905
-0.113927 1.312425 -0.019222
-0.111629 1.312550 -0.019258
-0.109384 1.313630 -0.019573
-0.107240 1.316624 -0.020447
-0.104884 1.315779 -0.020200
-0.102531 1.314930 -0.019953
-0.100228 1.315036 -0.019984
-0.097970 1.316098 -0.020293
-0.095883 1.320992 -0.021721
-0.093737 1.324924 -0.022867
-0.091295 1.322137 -0.022055
-0.088979 1.322225 -0.022080
-0.086626 1.321349 -0.021825
-0.084347 1.322388 -0.022128
-0.082030 1.322463 -0.022150
-0.079808 1.325414 -0.023010
-0.077486 1.325482 -0.023030
-0.075220 1.327465 -0.023608
-0.072868 1.326566 -0.023346
-0.070495 1.324703 -0.022803
-0.068129 1.322836 -0.022258
-0.065812 1.322885 -0.022273
-0.063552 1.325809 -0.023125
-0.061212 1.324890 -0.022857
-0.059001 1.331646 -0.024828
-0.056626 1.328799 -0.023998
-0.054346 1.332669 -0.025126
-0.052001 1.331734 -0.024853
-0.049685 1.333675 -0.025420
-0.047362 1.335613 -0.025985
-0.045032 1.337547 -0.026549
-0.042695 1.339477 -0.027112
-0.040349 1.340442 -0.027393
-0.038000 1.339484 -0.027114
-0.035653 1.339483 -0.027113
-0.033305 1.339477 -0.027112
-0.030963 1.338507 -0.026829
-0.028582 1.343293 -0.028225
-0.026202 1.346155 -0.029059
-0.023821 1.348053 -0.029613
-0.021458 1.348027 -0.029605
-0.019137 1.345118 -0.028757
-0.016795 1.344125 -0.028467
-0.014422 1.345047 -0.028736
-0.011987 1.348845 -0.029844
-0.009602 1.349759 -0.030110
-0.007213 1.350669 -0.030376
-0.004943 1.346777 -0.029241
-0.002583 1.346720 -0.029224
-0.000194 1.347618 -0.029486
0.002198 1.348512 -0.029747
0.004562 1.348443 -0.029726
0.007091 1.353167 -0.031104
0.009498 1.354048 -0.031361
0.011872 1.353967 -0.031338
0.014246 1.353881 -0.031313
0.016659 1.354751 -0.031566
0.019035 1.354658 -0.031539
0.021366 1.353601 -0.031231
0.023830 1.355418 -0.031761
0.026489 1.361066 -0.033408
0.029022 1.363832 -0.034215
0.031363 1.362759 -0.033902
0.033700 1.361682 -0.033588
0.035926 1.358684 -0.032713
-0.769984 1.089838 0.043891
-0.769204 1.092655 0.043065
-0.772866 1.101852 0.040367
-0.770949 1.103081 0.040006
-0.770690 1.106705 0.038943
-0.768213 1.107130 0.038819
-0.764084 1.105147 0.039400
-0.761612 1.105560 0.039279
-0.761879 1.109982 0.037982
-0.759401 1.110388 0.037863
-0.756924 1.110790 0.037745
-0.754447 1.111187 0.037628
-0.750346 1.109159 0.038223
-0.747876 1.109543 0.038111
-0.745945 1.110730 0.037762
-0.745624 1.114342 0.036703
-0.745291 1.117956 0.035643
-0.741208 1.115894 0.036247
-0.737667 1.114635 0.036617
-0.736789 1.117431 0.035797
-0.736434 1.121040 0.034738
-0.735010 1.123023 0.034156
-0.732528 1.123373 0.034053
-0.728995 1.122086 0.034431
-0.724422 1.119155 0.035291
-0.721428 1.118666 0.035434
-0.720523 1.121447 0.034618
-0.718570 1.122589 0.034283
-0.719724 1.128652 0.032505
-0.713626 1.123219 0.034099
-0.709610 1.121058 0.034732
-0.707144 1.121358 0.034644
-0.704168 1.120829 0.034800
-0.701195 1.120293 0.034957
-0.696700 1.117272 0.035843
-0.694755 1.118374 0.035520
-0.693820 1.121127 0.034712
-0.692372 1.123052 0.034147
-0.691926 1.126634 0.033097
-0.689462 1.126898 0.033019
-0.689500 1.131311 0.031725
-0.687530 1.132401 0.031405
-0.685557 1.133487 0.031086
-0.681601 1.131236 0.031747
-0.679631 1.132312 0.031431
-0.677658 1.133385 0.031116
-0.676666 1.136126 0.030312
-0.673708 1.135521 0.030490
-0.672218 1.137421 0.029932
-0.666345 1.131774 0.031589
-0.665828 1.135343 0.030542
-0.663851 1.136392 0.030234
-0.659944 1.134076 0.030914
-0.656528 1.132591 0.031349
-0.653598 1.131940 0.031540
-0.651626 1.132969 0.031238
-0.650604 1.135683 0.030442
-0.648152 1.135863 0.030389
-0.648063 1.140266 0.029098
-0.647489 1.143825 0.028053
-0.645496 1.144844 0.027754
-0.643501 1.145860 0.027456
-0.641038 1.146023 0.027408
-0.639041 1.147032 0.027113
-0.634725 1.143785 0.028065
-0.632732 1.144782 0.027773
-0.630277 1.144925 0.027731
-0.627823 1.145062 0.027690
-0.624914 1.144342 0.027902
-0.622464 1.144469 0.027865
-0.622740 1.149721 0.026324
-0.622093 1.153265 0.025284
-0.620985 1.155955 0.024495
-0.618071 1.155215 0.024712
-0.615161 1.154469 0.024931
-0.612703 1.154575 0.024900
-0.611579 1.157255 0.024113
-0.610005 1.159074 0.023580
-0.606218 1.156586 0.024310
-0.602442 1.154090 0.025042
-0.598238 1.150721 0.026030
-0.596669 1.152521 0.025502
-0.595096 1.154319 0.024975
-0.594385 1.157844 0.023941
-0.591934 1.157909 0.023922
-0.589915 1.158834 0.023650
-0.587037 1.158024 0.023888
-0.585018 1.158941 0.023619
-0.582572 1.158988 0.023605
-0.580551 1.159898 0.023338
-0.578106 1.159935 0.023327
-0.576084 1.160838 0.023062
-0.574060 1.161737 0.022798
-0.572452 1.163505 0.022280
-0.570007 1.163526 0.022274
-0.567563 1.163542 0.022269
-0.565121 1.163554 0.022266
-0.562681 1.163560 0.022264
-0.560652 1.164437 0.022006
-0.559030 1.166187 0.021493
-0.557403 1.167934 0.020980
-0.555771 1.169680 0.020468
-0.555749 1.174935 0.018927
-0.551689 1.171407 0.019962
-0.550046 1.173145 0.019452
-0.548399 1.174881 0.018943
-0.546349 1.175734 0.018692
-0.544298 1.176584 0.018443
-0.539488 1.171256 0.020006
-0.538622 1.174742 0.018983
-0.535401 1.172929 0.019515
-0.533744 1.174644 0.019012
-0.530532 1.172819 0.019547
-0.528872 1.174527 0.019046
-0.526439 1.174462 0.019065
-0.525921 1.178824 0.017786
-0.525389 1.183188 0.016505
-0.523324 1.184003 0.016266
-0.520881 1.183925 0.016289
-0.518438 1.183843 0.016313
-0.515998 1.183757 0.016339
-0.513186 1.182775 0.016627
-0.511123 1.183569 0.016394
-0.508318 1.182576 0.016685
-0.505518 1.181578 0.016978
-0.503090 1.181466 0.017011
-0.502488 1.185817 0.015734
-0.502235 1.191063 0.014195
-0.500156 1.191839 0.013968
-0.498076 1.192611 0.013741
-0.494202 1.188901 0.014829
-0.492127 1.189663 0.014606
-0.490051 1.190422 0.014383
-0.487973 1.191177 0.014162
-0.485543 1.191031 0.014205
-0.482763 1.189981 0.014513
-0.481384 1.192523 0.013767
-0.479996 1.195064 0.013021
-0.477910 1.195802 0.012805
-0.475479 1.195636 0.012854
-0.473734 1.197269 0.012375
-0.471984 1.198899 0.011896
-0.469891 1.199624 0.011684
-0.467796 1.200346 0.011472
-0.465701 1.201064 0.011261
-0.462602 1.199065 0.011848
-0.460509 1.199774 0.011640
-0.457423 1.197763 0.012230
-0.454674 1.196651 0.012556
-0.453567 1.200068 0.011554
-0.452448 1.203484 0.010551
-0.450347 1.204176 0.010348
-0.448244 1.204865 0.010146
-0.446782 1.207368 0.009412
-0.445630 1.210779 0.008411
-0.443198 1.210550 0.008478
-0.440768 1.210316 0.008547
-0.437712 1.208256 0.009151
-0.435290 1.208012 0.009223
-0.432248 1.205940 0.009831
-0.430143 1.206598 0.009638
-0.429572 1.211819 0.008106
-0.427456 1.212473 0.007914
-0.425034 1.212209 0.007992
-0.422614 1.211941 0.008070
-0.420498 1.212583 0.007882
-0.418679 1.214137 0.007426
-0.417450 1.217522 0.006433
-0.415323 1.218155 0.006247
-0.412019 1.215117 0.007139
-0.409897 1.215742 0.006955
-0.407773 1.216363 0.006773
-0.405070 1.215143 0.007131
-0.402086 1.212999 0.007760
-0.399110 1.210848 0.008391
-0.397563 1.213291 0.007674
-0.395727 1.214812 0.007228
-0.394447 1.218172 0.006242
-0.393714 1.223375 0.004716
-0.392963 1.228578 0.003189
-0.390816 1.229171 0.003015
-0.388942 1.230683 0.002572
-0.386519 1.230345 0.002671
-0.383286 1.227232 0.003584
-0.381142 1.227809 0.003415
-0.379531 1.230231 0.002705
-0.377381 1.230801 0.002537
-0.374966 1.230442 0.002643
-0.372553 1.230079 0.002749
-0.370664 1.231564 0.002314
-0.367477 1.228411 0.003238
-0.365587 1.229889 0.002805
-0.363438 1.230436 0.002644
-0.361795 1.232835 0.001941
-0.359641 1.233376 0.001782
-0.357986 1.235770 0.001079
-0.356074 1.237234 0.000650
-0.353171 1.234975 0.001313
-0.350767 1.234571 0.001431
-0.348609 1.235093 0.001278
-0.344999 1.230025 0.002765
-0.343090 1.231469 0.002341
-0.341653 1.234774 0.001372
-0.340916 1.240874 -0.000418
-0.338747 1.241380 -0.000566
-0.336577 1.241881 -0.000713
-0.334406 1.242380 -0.000860
-0.332464 1.243808 -0.001279
-0.330061 1.243365 -0.001149
-0.327660 1.242918 -0.001017
-0.324813 1.240596 -0.000336
-0.322867 1.242010 -0.000751
-0.320917 1.243421 -0.001165
-0.318084 1.241085 -0.000480
-0.316351 1.243425 -0.001166
-0.314610 1.245763 -0.001852
-0.313505 1.250910 -0.003362
-0.311744 1.253245 -0.004047
-0.309130 1.251826 -0.003631
-0.307569 1.255093 -0.004589
-0.304959 1.253665 -0.004170
-0.302354 1.252232 -0.003750
-0.299550 1.249856 -0.003053
-0.296959 1.248412 -0.002629
-0.295380 1.251664 -0.003583
-0.292992 1.251153 -0.003433
-0.291397 1.254400 -0.004386
-0.288811 1.252941 -0.003958
-0.287397 1.257124 -0.005185
-0.285391 1.258482 -0.005583
-0.283380 1.259836 -0.005981
-0.281366 1.261187 -0.006377
-0.278972 1.260651 -0.006220
-0.276582 1.260109 -0.006061
-0.274010 1.258621 -0.005624
-0.271444 1.257127 -0.005186
-0.269065 1.256572 -0.005023
-0.267224 1.258846 -0.005690
-0.265023 1.259228 -0.005802
-0.263346 1.262440 -0.006745
-0.262353 1.269431 -0.008796
-0.260132 1.269805 -0.008905
-0.257570 1.268284 -0.008459
-0.255014 1.266758 -0.008011
-0.253298 1.269958 -0.008950
-0.250581 1.267477 -0.008222
-0.248364 1.267832 -0.008326
-0.245338 1.263447 -0.007040
-0.243128 1.263793 -0.007141
-0.241233 1.266029 -0.007798
-0.239175 1.267316 -0.008175
-0.237731 1.272391 -0.009664
-0.235811 1.274620 -0.010318
-0.233883 1.276846 -0.010971
-0.231499 1.276224 -0.010788
-0.229265 1.276546 -0.010883
-0.227031 1.276864 -0.010976
-0.224508 1.275280 -0.010512
-0.222990 1.280339 -0.011996
-0.220326 1.277797 -0.011250
-0.218508 1.280951 -0.012175
-0.216128 1.280301 -0.011985
-0.214295 1.283450 -0.012908
-0.211914 1.282792 -0.012715
-0.209801 1.284033 -0.013079
-0.207292 1.282416 -0.012605
-0.204919 1.281746 -0.012408
-0.202676 1.282024 -0.012490
-0.200557 1.283250 -0.012850
-0.198558 1.285424 -0.013488
-0.196552 1.287596 -0.014125
-0.194658 1.290718 -0.015040
-0.192636 1.292884 -0.015676
-0.190372 1.293141 -0.015751
-0.187878 1.291488 -0.015266
-0.185277 1.288877 -0.014500
-0.183244 1.291028 -0.015132
-0.180545 1.287455 -0.014083
-0.178399 1.288646 -0.014433
-0.176143 1.288879 -0.014501
-0.173887 1.289108 -0.014568
-0.172247 1.295061 -0.016315
-0.169777 1.293375 -0.015820
-0.168109 1.299322 -0.017565
-0.165736 1.298583 -0.017348
-0.163366 1.297840 -0.017130
-0.161000 1.297093 -0.016911
-0.158821 1.298252 -0.017251
-0.157091 1.304186 -0.018992
-0.154540 1.301517 -0.018209
-0.152261 1.301710 -0.018265
-0.149896 1.300943 -0.018040
-0.147785 1.303041 -0.018656
-0.145421 1.302267 -0.018429
-0.143141 1.302445 -0.018481
-0.140938 1.303576 -0.018813
-0.138732 1.304703 -0.019143
-0.136447 1.304870 -0.019192
-0.134162 1.305033 -0.019240
-0.131948 1.306149 -0.019568
-0.129800 1.308219 -0.020175
-0.127168 1.303584 -0.018815
-0.125018 1.305646 -0.019420
-0.122731 1.305790 -0.019462
-0.120632 1.308803 -0.020346
-0.118340 1.308939 -0.020386
-0.116166 1.310988 -0.020987
-0.113812 1.310159 -0.020744
-0.111684 1.313158 -0.021624
-0.109492 1.315196 -0.022222
-0.107293 1.317230 -0.022818
-0.105238 1.322136 -0.024258
-0.102726 1.318413 -0.023165
-0.100369 1.317561 -0.022915
-0.098061 1.317664 -0.022946
-0.095839 1.319679 -0.023537
-0.093611 1.321692 -0.024127
-0.091295 1.321783 -0.024154
-0.088941 1.320911 -0.023898
-0.086700 1.322913 -0.024485
-0.084416 1.323951 -0.024790
-0.082229 1.327863 -0.025938
-0.079871 1.326976 -0.025678
-0.077486 1.325126 -0.025135
-0.075136 1.324231 -0.024872
-0.072815 1.324291 -0.024890
-0.070544 1.326266 -0.025469
-0.068310 1.330156 -0.026610
-0.066021 1.332124 -0.027188
-0.063725 1.334087 -0.027764
-0.061299 1.329331 -0.026369
-0.058922 1.326490 -0.025535
-0.056626 1.328442 -0.026108
-0.054346 1.332309 -0.027242
-0.052011 1.332335 -0.027250
-0.049702 1.335235 -0.028100
-0.047362 1.335252 -0.028106
-0.045027 1.336226 -0.028391
-0.042684 1.336236 -0.028394
-0.040344 1.337201 -0.028677
-0.038000 1.339122 -0.029241
-0.035651 1.340080 -0.029522
-0.033298 1.341033 -0.029802
-0.030947 1.341023 -0.029799
-0.028589 1.341969 -0.030076
-0.026237 1.341951 -0.030071
-0.023874 1.342889 -0.030346
-0.021507 1.343823 -0.030620
-0.019165 1.342834 -0.030330
-0.016795 1.343760 -0.030601
-0.014422 1.344682 -0.030872
-0.012026 1.346559 -0.031423
-0.009665 1.346514 -0.031409
-0.007259 1.348383 -0.031958
-0.004943 1.346411 -0.031379
-0.002426 1.352109 -0.033051
-0.000027 1.353007 -0.033314
0.002494 1.357737 -0.034702
0.004781 1.354790 -0.033837
0.007224 1.356634 -0.034378
0.009568 1.355597 -0.034074
0.012019 1.357434 -0.034613
0.014361 1.356389 -0.034306
0.016900 1.360134 -0.035405
0.019328 1.360999 -0.035659
0.021802 1.362819 -0.036193
0.024057 1.359841 -0.035319
0.026536 1.361652 -0.035850
0.028924 1.361542 -0.035818
0.031515 1.365261 -0.036909
0.033857 1.364184 -0.036593
0.036250 1.364062 -0.036557
-0.749683 1.064615 0.050065
-0.770641 1.098486 0.040087
-0.772614 1.105298 0.038080
-0.772904 1.109722 0.036777
-0.770420 1.110151 0.036651
-0.767937 1.110574 0.036526
-0.766004 1.111795 0.036167
-0.761879 1.109802 0.036754
-0.760493 1.111815 0.036161
-0.756924 1.110610 0.036516
-0.754990 1.111812 0.036162
-0.753597 1.113817 0.035571
-0.752198 1.115821 0.034981
-0.748639 1.114590 0.035343
-0.746161 1.114969 0.035231
-0.743684 1.115344 0.035121
-0.742276 1.117334 0.034535
-0.739265 1.116888 0.034666
-0.736789 1.117248 0.034560
-0.734844 1.118416 0.034216
-0.734482 1.122025 0.033153
-0.731474 1.121558 0.033291
-0.730046 1.123534 0.032709
-0.725993 1.121423 0.033330
-0.721428 1.118484 0.034196
-0.718960 1.118807 0.034101
-0.717012 1.119946 0.033766
-0.716615 1.123543 0.032706
-0.714142 1.123856 0.032614
-0.712700 1.125808 0.032039
-0.707658 1.121998 0.033161
-0.704168 1.120645 0.033559
-0.700685 1.119285 0.033960
-0.699754 1.122044 0.033148
-0.697800 1.123150 0.032822
-0.696856 1.125908 0.032009
-0.694895 1.127009 0.031685
-0.692932 1.128107 0.031361
-0.690967 1.129202 0.031039
-0.687000 1.126971 0.031696
-0.685037 1.128056 0.031377
-0.681581 1.126640 0.031794
-0.680114 1.128549 0.031231
-0.678149 1.129622 0.030915
-0.676181 1.130693 0.030600
-0.675193 1.133431 0.029793
-0.675665 1.138679 0.028247
-0.673681 1.139745 0.027933
-0.670236 1.138293 0.028361
-0.666798 1.136833 0.028791
-0.662884 1.134524 0.029471
-0.659462 1.133047 0.029906
-0.657969 1.134928 0.029352
-0.656470 1.136806 0.028799
-0.655921 1.140369 0.027750
-0.653458 1.140558 0.027694
-0.654315 1.146654 0.025898
-0.651843 1.146839 0.025844
-0.648431 1.145326 0.026289
-0.645027 1.143806 0.026737
-0.642565 1.143973 0.026688
-0.637307 1.139043 0.028140
-0.635322 1.140045 0.027845
-0.634725 1.143594 0.026800
-0.635041 1.148845 0.025253
-0.633959 1.151547 0.024457
-0.629199 1.147428 0.025670
-0.627199 1.148416 0.025379
-0.624742 1.148547 0.025340
-0.620470 1.145254 0.026310
-0.618474 1.146228 0.026024
-0.616025 1.146342 0.025990
-0.615824 1.150736 0.024696
-0.613370 1.150844 0.024664
-0.611364 1.151805 0.024381
-0.609356 1.152763 0.024098
-0.607790 1.154578 0.023564
-0.607543 1.158973 0.022269
-0.605522 1.159925 0.021989
-0.603060 1.160012 0.021963
-0.600601 1.160093 0.021939
-0.597272 1.158442 0.022426
-0.593951 1.156784 0.022914
-0.592366 1.158578 0.022386
-0.589054 1.156907 0.022878
-0.587466 1.158695 0.022351
-0.584163 1.157011 0.022847
-0.582998 1.159660 0.022067
-0.582248 1.163176 0.021031
-0.580219 1.164086 0.020763
-0.578610 1.165862 0.020240
-0.576576 1.166765 0.019974
-0.574541 1.167665 0.019709
-0.571256 1.165945 0.020215
-0.567563 1.163345 0.020981
-0.565534 1.164230 0.020721
-0.563915 1.165986 0.020204
-0.562292 1.167739 0.019687
-0.561888 1.172118 0.018397
-0.559843 1.172993 0.018139
-0.558202 1.174742 0.017624
-0.555345 1.173856 0.017885
-0.553699 1.175599 0.017372
-0.550046 1.172945 0.018154
-0.546804 1.171161 0.018679
-0.545555 1.173772 0.017910
-0.544694 1.177263 0.016882
-0.543034 1.178991 0.016372
-0.540976 1.179835 0.016124
-0.537354 1.177143 0.016917
-0.534911 1.177094 0.016931
-0.532857 1.177924 0.016687
-0.530416 1.177866 0.016704
-0.527208 1.176032 0.017244
-0.524773 1.175963 0.017264
-0.524246 1.180324 0.015980
-0.523704 1.184686 0.014695
-0.522014 1.186386 0.014194
-0.519943 1.187194 0.013956
-0.517871 1.188000 0.013719
-0.514305 1.185241 0.014531
-0.511865 1.185146 0.014559
-0.509427 1.185046 0.014589
-0.507727 1.186726 0.014094
-0.505656 1.187511 0.013863
-0.504313 1.190078 0.013107
-0.500782 1.187282 0.013930
-0.499071 1.188949 0.013439
-0.495916 1.187035 0.014003
-0.494561 1.189591 0.013250
-0.492484 1.190354 0.013025
-0.491116 1.192906 0.012273
-0.488327 1.191868 0.012579
-0.484487 1.188131 0.013680
-0.482763 1.189775 0.013196
-0.481732 1.193215 0.012182
-0.479649 1.193957 0.011964
-0.477219 1.193794 0.012012
-0.475479 1.195428 0.011531
-0.474076 1.197962 0.010784
-0.473345 1.202298 0.009507
-0.470907 1.202123 0.009559
-0.468471 1.201943 0.009612
-0.464359 1.197240 0.010997
-0.461267 1.195239 0.011586
-0.459180 1.195946 0.011378
-0.457092 1.196649 0.011171
-0.455332 1.198255 0.010698
-0.453240 1.198952 0.010493
-0.451146 1.199645 0.010288
-0.449051 1.200335 0.010085
-0.446633 1.200114 0.010150
-0.445179 1.202613 0.009414
-0.444673 1.207839 0.007875
-0.442563 1.208518 0.007675
-0.440453 1.209194 0.007476
-0.437712 1.208044 0.007814
-0.435602 1.208712 0.007618
-0.434112 1.211199 0.006885
-0.431379 1.210036 0.007228
-0.429265 1.210693 0.007034
-0.426233 1.208606 0.007649
-0.425034 1.211996 0.006650
-0.423522 1.214471 0.005921
-0.420197 1.211455 0.006810
-0.418081 1.212093 0.006622
-0.415666 1.211812 0.006704
-0.414732 1.216108 0.005439
-0.412019 1.214903 0.005794
-0.410189 1.216444 0.005340
-0.407773 1.216148 0.005427
-0.405648 1.216765 0.005245
-0.403523 1.217379 0.005064
-0.402253 1.220747 0.004072
-0.399836 1.220435 0.004164
-0.398268 1.222880 0.003444
-0.396131 1.223481 0.003267
-0.394272 1.225000 0.002820
-0.392408 1.226516 0.002373
-0.390265 1.227108 0.002199
-0.388120 1.227696 0.002025
-0.384613 1.223665 0.003213
-0.382204 1.223320 0.003314
-0.380604 1.225743 0.002601
-0.378462 1.226314 0.002432
-0.376319 1.226883 0.002265
-0.374702 1.229298 0.001554
-0.372029 1.228008 0.001933
-0.369883 1.228566 0.001769
-0.367994 1.230046 0.001333
-0.365844 1.230597 0.001171
-0.363438 1.230217 0.001283
-0.360780 1.228904 0.001670
-0.359641 1.233155 0.000417
-0.357986 1.235550 -0.000288
-0.356074 1.237013 -0.000719
-0.352924 1.233825 0.000220
-0.350522 1.233421 0.000339
-0.348609 1.234872 -0.000089
-0.346450 1.235391 -0.000241
-0.343810 1.234043 0.000156
-0.341653 1.234553 0.000005
-0.339969 1.236924 -0.000693
-0.338512 1.240224 -0.001665
-0.337044 1.243524 -0.002637
-0.334637 1.243090 -0.002509
-0.332464 1.243584 -0.002655
-0.330974 1.246877 -0.003625
-0.328114 1.244563 -0.002943
-0.325712 1.244112 -0.002810
-0.322867 1.241787 -0.002125
-0.320474 1.241327 -0.001990
-0.318524 1.242734 -0.002404
-0.317660 1.248818 -0.004197
-0.315692 1.250221 -0.004610
-0.313720 1.251621 -0.005022
-0.311957 1.253955 -0.005710
-0.310398 1.257225 -0.006673
-0.308198 1.257679 -0.006807
-0.305582 1.256253 -0.006387
-0.302766 1.253884 -0.005689
-0.299550 1.249630 -0.004436
-0.296757 1.247248 -0.003734
-0.294374 1.246740 -0.003584
-0.293390 1.252807 -0.005372
-0.291792 1.256054 -0.006328
-0.289987 1.258358 -0.007007
-0.287785 1.258778 -0.007131
-0.285776 1.260136 -0.007531
-0.283190 1.258666 -0.007097
-0.281555 1.261900 -0.008050
-0.279160 1.261364 -0.007892
-0.276953 1.261766 -0.008011
-0.274010 1.258392 -0.007017
-0.271079 1.255013 -0.006021
-0.269245 1.257288 -0.006692
-0.267403 1.259561 -0.007361
-0.265554 1.261832 -0.008030
-0.264223 1.266933 -0.009533
-0.262180 1.268254 -0.009922
-0.259789 1.267683 -0.009754
-0.257230 1.266162 -0.009306
-0.254677 1.264636 -0.008856
-0.252631 1.265942 -0.009241
-0.250416 1.266300 -0.009346
-0.249017 1.271386 -0.010844
-0.246954 1.272684 -0.011227
-0.244567 1.272085 -0.011050
-0.242498 1.273376 -0.011431
-0.240426 1.274664 -0.011810
-0.238195 1.275001 -0.011909
-0.235811 1.274386 -0.011728
-0.233580 1.274716 -0.011825
-0.231200 1.274093 -0.011642
-0.228674 1.272517 -0.011178
-0.226155 1.270936 -0.010712
-0.224364 1.274097 -0.011643
-0.222990 1.280104 -0.013412
-0.220608 1.279462 -0.013223
-0.218368 1.279766 -0.013313
-0.216128 1.280066 -0.013401
-0.214430 1.284164 -0.014608
-0.211780 1.281605 -0.013855
-0.209669 1.282845 -0.014220
-0.207554 1.284082 -0.014584
-0.205563 1.286266 -0.015228
-0.203184 1.285594 -0.015030
-0.201059 1.286820 -0.015391
-0.198682 1.286139 -0.015190
-0.196796 1.289263 -0.016110
-0.194418 1.288574 -0.015908
-0.192162 1.288834 -0.015984
-0.189905 1.289091 -0.016060
-0.187648 1.289343 -0.016134
-0.185277 1.288638 -0.015927
-0.183244 1.290790 -0.016560
-0.181313 1.293891 -0.017474
-0.179263 1.296037 -0.018106
-0.176887 1.295318 -0.017894
-0.174410 1.293640 -0.017400
-0.172144 1.293867 -0.017467
-0.170081 1.295998 -0.018094
-0.167811 1.296217 -0.018159
-0.165834 1.299297 -0.019066
-0.163270 1.296644 -0.018285
-0.160905 1.295897 -0.018065
-0.158544 1.295146 -0.017843
-0.156366 1.296301 -0.018184
-0.154185 1.297453 -0.018523
-0.152000 1.298601 -0.018861
-0.149811 1.299746 -0.019198
-0.147702 1.301843 -0.019816
-0.145421 1.302024 -0.019870
-0.143301 1.304115 -0.020485
-0.141017 1.304289 -0.020537
-0.138809 1.305416 -0.020869
-0.136747 1.308453 -0.021763
-0.134455 1.308616 -0.021811
-0.132305 1.310689 -0.022422
-0.130148 1.312759 -0.023032
-0.128052 1.315782 -0.023922
-0.125680 1.314974 -0.023684
-0.123183 1.312247 -0.022881
-0.120821 1.311430 -0.022640
-0.118462 1.310610 -0.022399
-0.116462 1.315530 -0.023848
-0.114157 1.315660 -0.023886
-0.111908 1.316743 -0.024205
-0.109654 1.317823 -0.024523
-0.107293 1.316983 -0.024276
-0.104934 1.316139 -0.024027
-0.102628 1.316249 -0.024060
-0.100416 1.318272 -0.024656
-0.098106 1.318374 -0.024686
-0.095708 1.316556 -0.024150
-0.093485 1.318568 -0.024743
-0.091295 1.321534 -0.025617
-0.089171 1.326414 -0.027054
-0.086846 1.326498 -0.027079
-0.084591 1.328495 -0.027667
-0.082262 1.328571 -0.027690
-0.079996 1.330561 -0.028276
-0.077664 1.330629 -0.028296
-0.075303 1.329735 -0.028032
-0.072972 1.329795 -0.028050
-0.070568 1.326975 -0.027219
-0.068242 1.327027 -0.027235
-0.065958 1.328994 -0.027814
-0.063667 1.330957 -0.028392
-0.061334 1.330998 -0.028405
-0.059001 1.331035 -0.028415
-0.056709 1.333946 -0.029273
-0.054395 1.335894 -0.029847
-0.052043 1.334960 -0.029572
-0.049676 1.332104 -0.028730
-0.047341 1.332121 -0.028735
-0.045027 1.335972 -0.029870
-0.042691 1.337900 -0.030438
-0.040346 1.337906 -0.030439
-0.038000 1.335990 -0.029875
-0.035653 1.338866 -0.030722
-0.033312 1.336941 -0.030155
-0.030958 1.338850 -0.030717
-0.028624 1.336918 -0.030148
-0.026272 1.337859 -0.030426
-0.023863 1.343593 -0.032115
-0.021458 1.347404 -0.033237
-0.019081 1.348333 -0.033511
-0.016685 1.350218 -0.034066
-0.014317 1.350180 -0.034055
-0.011949 1.350139 -0.034043
-0.009581 1.350093 -0.034029
-0.007123 1.353879 -0.035145
-0.004772 1.352867 -0.034846
-0.002347 1.354727 -0.035394
0.000029 1.354665 -0.035376
0.002465 1.356517 -0.035922
0.004844 1.356448 -0.035901
0.007257 1.357333 -0.036162
0.009673 1.358214 -0.036421
0.012092 1.359090 -0.036680
0.014438 1.358046 -0.036372
0.016820 1.357956 -0.036346
0.019328 1.360738 -0.037165
0.021759 1.361598 -0.037418
0.024147 1.361496 -0.037388
0.026536 1.361390 -0.037357
0.028973 1.362238 -0.037607
0.031464 1.364040 -0.038138
0.033962 1.365837 -0.038667
0.036088 1.360926 -0.037220
-0.769424 1.088397 0.039679
-0.775339 1.100756 0.035998
-0.776761 1.106766 0.034209
-0.774279 1.107203 0.034078
-0.772351 1.108433 0.033712
-0.769317 1.108061 0.033823
-0.766286 1.107683 0.033936
-0.764906 1.109700 0.033335
-0.763521 1.111717 0.032734
-0.761585 1.112929 0.032373
-0.760191 1.114941 0.031774
-0.755533 1.112124 0.032613
-0.752513 1.111711 0.032736
-0.748956 1.110485 0.033101
-0.745406 1.109251 0.033469
-0.742400 1.108816 0.033598
-0.743148 1.114039 0.032043
-0.742276 1.116837 0.031209
-0.739265 1.116391 0.031342
-0.736789 1.116751 0.031235
-0.734844 1.117918 0.030887
-0.733425 1.119896 0.030298
-0.729893 1.118614 0.030680
-0.727944 1.119769 0.030336
-0.725993 1.120922 0.029993
-0.727176 1.126974 0.028190
-0.724170 1.126489 0.028335
-0.721687 1.126816 0.028237
-0.718169 1.125499 0.028630
-0.715175 1.124994 0.028780
-0.709095 1.119553 0.030401
-0.706631 1.119851 0.030312
-0.705192 1.121791 0.029734
-0.702727 1.122082 0.029647
-0.700772 1.123192 0.029317
-0.697800 1.122647 0.029479
-0.696856 1.125403 0.028658
-0.694895 1.126503 0.028331
-0.693938 1.129257 0.027511
-0.689462 1.126207 0.028419
-0.687500 1.127295 0.028095
-0.684040 1.125887 0.028514
-0.682575 1.127798 0.027945
-0.681601 1.130539 0.027129
-0.682594 1.136614 0.025319
-0.679628 1.136022 0.025496
-0.677157 1.136259 0.025425
-0.674197 1.135655 0.025605
-0.668315 1.130025 0.027282
-0.666832 1.131915 0.026719
-0.664374 1.132127 0.026656
-0.664334 1.136529 0.025345
-0.662353 1.137575 0.025033
-0.660370 1.138618 0.024723
-0.657906 1.138816 0.024664
-0.656398 1.140693 0.024105
-0.654409 1.141726 0.023797
-0.652892 1.143599 0.023239
-0.650426 1.143781 0.023185
-0.648431 1.144804 0.022880
-0.647374 1.147516 0.022073
-0.643969 1.145993 0.022526
-0.641038 1.145309 0.022730
-0.636252 1.141225 0.023946
-0.633335 1.140525 0.024155
-0.630423 1.139819 0.024365
-0.629817 1.143361 0.023310
-0.627823 1.144349 0.023016
-0.629028 1.151301 0.020946
-0.626564 1.151435 0.020906
-0.624102 1.151564 0.020867
-0.619831 1.148269 0.021849
-0.618279 1.150096 0.021304
-0.616723 1.151921 0.020761
-0.613818 1.151174 0.020984
-0.611810 1.152135 0.020697
-0.609801 1.153093 0.020412
-0.607790 1.154048 0.020127
-0.606218 1.155859 0.019588
-0.604642 1.157669 0.019049
-0.602622 1.158615 0.018767
-0.597106 1.152661 0.020541
-0.595966 1.155320 0.019749
-0.594818 1.157979 0.018957
-0.593662 1.160637 0.018165
-0.590776 1.159835 0.018404
-0.587895 1.159026 0.018645
-0.585445 1.159078 0.018630
-0.582998 1.159125 0.018616
-0.581824 1.161770 0.017828
-0.580642 1.164416 0.017040
-0.580294 1.168799 0.015735
-0.577835 1.168834 0.015724
-0.573288 1.164511 0.017011
-0.571256 1.165405 0.016745
-0.571295 1.170656 0.015181
-0.570492 1.174165 0.014137
-0.565973 1.169813 0.015433
-0.562701 1.168072 0.015951
-0.561071 1.169822 0.015430
-0.559436 1.171571 0.014909
-0.558202 1.174194 0.014128
-0.554538 1.171555 0.014914
-0.553297 1.174172 0.014134
-0.549646 1.171520 0.014924
-0.548798 1.175011 0.013885
-0.546746 1.175863 0.013631
-0.545485 1.178473 0.012853
-0.543821 1.180201 0.012339
-0.541369 1.180164 0.012350
-0.539308 1.181004 0.012100
-0.535690 1.178310 0.012902
-0.533245 1.178257 0.012918
-0.530416 1.177315 0.013198
-0.527977 1.177252 0.013217
-0.525156 1.176299 0.013501
-0.523103 1.177113 0.013259
-0.521807 1.179696 0.012489
-0.520125 1.181391 0.011985
-0.519567 1.185747 0.010687
-0.515998 1.182997 0.011506
-0.514305 1.184684 0.011004
-0.511865 1.184589 0.011032
-0.510906 1.188051 0.010001
-0.508095 1.187058 0.010297
-0.505289 1.186059 0.010594
-0.502853 1.185947 0.010628
-0.499692 1.184044 0.011194
-0.495817 1.180347 0.012295
-0.495916 1.186476 0.010470
-0.495636 1.191714 0.008910
-0.492841 1.190687 0.009216
-0.491116 1.192342 0.008723
-0.488327 1.191305 0.009032
-0.488005 1.196542 0.007472
-0.483464 1.191009 0.009120
-0.479641 1.187261 0.010236
-0.477567 1.187998 0.010017
-0.476183 1.190531 0.009263
-0.474448 1.192162 0.008777
-0.473392 1.195592 0.007755
-0.472324 1.199022 0.006734
-0.470230 1.199747 0.006518
-0.468471 1.201370 0.006034
-0.466707 1.202992 0.005552
-0.465273 1.205514 0.004800
-0.463166 1.206227 0.004588
-0.458745 1.200604 0.006263
-0.456976 1.202211 0.005784
-0.455857 1.205628 0.004767
-0.453099 1.204512 0.005099
-0.449699 1.201578 0.005973
-0.446311 1.198636 0.006849
-0.445820 1.203856 0.005294
-0.444035 1.205445 0.004821
-0.442246 1.207031 0.004349
-0.440137 1.207706 0.004148
-0.438340 1.209286 0.003677
-0.436227 1.209954 0.003478
-0.434112 1.210619 0.003280
-0.431997 1.211280 0.003083
-0.428958 1.209201 0.003702
-0.426233 1.208028 0.004052
-0.423210 1.205936 0.004675
-0.421707 1.208406 0.003939
-0.419896 1.209960 0.003476
-0.418081 1.211512 0.003014
-0.416856 1.214891 0.002008
-0.414732 1.215523 0.001820
-0.412901 1.217067 0.001360
-0.410482 1.216776 0.001446
-0.409227 1.220148 0.000442
-0.406227 1.218015 0.001077
-0.404672 1.220465 0.000348
-0.401967 1.219240 0.000713
-0.400120 1.220766 0.000258
-0.397703 1.220451 0.000352
-0.395850 1.221970 -0.000100
-0.393156 1.220726 0.000270
-0.391299 1.222239 -0.000181
-0.389162 1.222829 -0.000356
-0.387846 1.226179 -0.001354
-0.385157 1.224918 -0.000978
-0.383016 1.225497 -0.001151
-0.380873 1.226073 -0.001322
-0.378462 1.225721 -0.001217
-0.376053 1.225365 -0.001111
-0.373910 1.225928 -0.001279
-0.372029 1.227413 -0.001721
-0.370404 1.229821 -0.002438
-0.368512 1.231301 -0.002879
-0.366359 1.231852 -0.003043
-0.363949 1.231473 -0.002930
-0.361795 1.232016 -0.003092
-0.359893 1.233483 -0.003529
-0.356734 1.230308 -0.002584
-0.355080 1.232696 -0.003295
-0.352677 1.232296 -0.003176
-0.351748 1.237466 -0.004715
-0.349340 1.237060 -0.004594
-0.347418 1.238509 -0.005026
-0.345732 1.240885 -0.005734
-0.343561 1.241398 -0.005886
-0.341863 1.243770 -0.006593
-0.339452 1.243345 -0.006466
-0.336110 1.239188 -0.005228
-0.332552 1.234091 -0.003710
-0.332234 1.242043 -0.006078
-0.330746 1.245332 -0.007058
-0.328567 1.245820 -0.007203
-0.326387 1.246305 -0.007347
-0.323760 1.244917 -0.006934
-0.321361 1.244458 -0.006798
-0.319403 1.245865 -0.007217
-0.318096 1.250076 -0.008471
-0.315476 1.248671 -0.008052
-0.313505 1.250069 -0.008469
-0.310892 1.248656 -0.008048
-0.308496 1.248173 -0.007904
-0.306521 1.249561 -0.008317
-0.304543 1.250946 -0.008730
-0.301941 1.249514 -0.008303
-0.299550 1.249016 -0.008155
-0.298176 1.253206 -0.009403
-0.296988 1.258333 -0.010930
-0.294387 1.256886 -0.010499
-0.292187 1.257313 -0.010626
-0.289595 1.255857 -0.010192
-0.287591 1.257216 -0.010597
-0.285006 1.255751 -0.010161
-0.282999 1.257103 -0.010563
-0.281177 1.259393 -0.011245
-0.278785 1.258857 -0.011086
-0.276582 1.259257 -0.011205
-0.274929 1.262481 -0.012165
-0.272902 1.263818 -0.012563
-0.270689 1.264209 -0.012679
-0.268476 1.264596 -0.012795
-0.266262 1.264980 -0.012909
-0.263346 1.261586 -0.011898
-0.261485 1.263848 -0.012572
-0.259101 1.263276 -0.012402
-0.257060 1.264589 -0.012793
-0.255014 1.265898 -0.013183
-0.252965 1.267204 -0.013571
-0.250746 1.267562 -0.013678
-0.248854 1.269807 -0.014347
-0.246631 1.270158 -0.014451
-0.244886 1.273343 -0.015400
-0.242498 1.272741 -0.015220
-0.239957 1.271188 -0.014758
-0.237731 1.271524 -0.014858
-0.235505 1.271856 -0.014957
-0.232975 1.270290 -0.014490
-0.230602 1.269666 -0.014305
-0.228674 1.271883 -0.014965
-0.226593 1.273148 -0.015342
-0.224508 1.274410 -0.015717
-0.222704 1.277566 -0.016657
-0.221031 1.281668 -0.017879
-0.218508 1.280074 -0.017404
-0.216678 1.283222 -0.018342
-0.214566 1.284469 -0.018713
-0.212316 1.284762 -0.018800
-0.209669 1.282202 -0.018038
-0.207162 1.280587 -0.017557
-0.205048 1.281818 -0.017924
-0.202803 1.282096 -0.018006
-0.201309 1.288075 -0.019787
-0.198806 1.286444 -0.019301
-0.196552 1.286711 -0.019381
-0.194298 1.286974 -0.019459
-0.191807 1.285331 -0.018970
-0.189555 1.285586 -0.019046
-0.187763 1.289646 -0.020255
-0.186070 1.294656 -0.021747
-0.183801 1.294901 -0.021820
-0.181533 1.295143 -0.021892
-0.179263 1.295382 -0.021963
-0.176993 1.295616 -0.022033
-0.174723 1.295847 -0.022102
-0.172555 1.297027 -0.022453
-0.170283 1.297250 -0.022519
-0.168010 1.297469 -0.022585
-0.165443 1.294823 -0.021797
-0.163366 1.296943 -0.022428
-0.161282 1.299059 -0.023058
-0.159190 1.301172 -0.023687
-0.157182 1.304236 -0.024600
-0.154985 1.305388 -0.024943
-0.152871 1.307491 -0.025569
-0.150152 1.302907 -0.024204
-0.147785 1.302138 -0.023975
