# This PCD file was generated using the MATLAB® pcwrite function
# from Computer Vision System Toolbox®.
# .PCD v.7 - Point Cloud Data file format
VERSION .7
FIELDS x y z
SIZE 4 4 4
TYPE F F F
COUNT 1 1 1
WIDTH 1695
HEIGHT 1
VIEWPOINT 0 0 0 1 0 0 0
POINTS 1695
DATA ascii
-0.005973 1.959764 -0.399032
-0.002554 1.952261 -0.396093
0.000875 1.946615 -0.393882
0.004408 1.946549 -0.393856
0.007987 1.948339 -0.394557
0.011402 1.943607 -0.392703
0.014014 1.910946 -0.379910
0.017313 1.905274 -0.377688
0.020739 1.904251 -0.377287
0.024256 1.906014 -0.377978
0.027813 1.908702 -0.379031
0.032148 1.931855 -0.388100
0.035177 1.919642 -0.383316
0.038353 1.912077 -0.380353
0.040337 1.877527 -0.366819
0.043322 1.868093 -0.363124
0.046491 1.863307 -0.361250
0.049505 1.855726 -0.358280
0.052633 1.850931 -0.356402
0.055889 1.848921 -0.355614
0.058835 1.841326 -0.352640
0.061805 1.834657 -0.350027
0.064912 1.830773 -0.348506
0.067949 1.825955 -0.346619
0.071084 1.822991 -0.345458
0.074208 1.820023 -0.344295
0.077626 1.821697 -0.344951
0.080360 1.813143 -0.341600
0.082740 1.799939 -0.336428
0.085601 1.794166 -0.334167
0.088576 1.790246 -0.332631
0.091328 1.783536 -0.330003
0.094127 1.777751 -0.327737
0.097344 1.777534 -0.327652
0.100111 1.771740 -0.325382
0.103163 1.769656 -0.324566
0.105815 1.762927 -0.321930
0.108844 1.760834 -0.321111
0.111865 1.758737 -0.320289
0.114545 1.752924 -0.318012
0.117288 1.748035 -0.316097
0.119839 1.741287 -0.313454
0.123165 1.742882 -0.314079
0.126498 1.744473 -0.314702
0.130576 1.753474 -0.318228
0.133936 1.755051 -0.318845
0.137877 1.762184 -0.321639
0.138137 1.734095 -0.310637
0.144152 1.760676 -0.321048
0.145821 1.746482 -0.315489
0.150521 1.760073 -0.320812
0.153183 1.755134 -0.318878
0.156357 1.754821 -0.318755
0.157911 1.740618 -0.313192
0.159302 1.725489 -0.307266
0.161752 1.719614 -0.304964
0.159766 1.677655 -0.288529
0.161876 1.669932 -0.285504
0.164657 1.667755 -0.284651
0.167431 1.665574 -0.283797
0.170197 1.663389 -0.282941
0.172590 1.658428 -0.280998
0.174471 1.649767 -0.277605
0.176821 1.644801 -0.275660
0.179153 1.639831 -0.273713
0.181854 1.637629 -0.272851
0.184417 1.634500 -0.271625
0.187233 1.633213 -0.271121
0.189642 1.629154 -0.269531
0.191902 1.624169 -0.267578
0.194831 1.623793 -0.267431
0.198873 1.630789 -0.270171
0.200264 1.620261 -0.266048
0.201474 1.608813 -0.261563
0.203364 1.601972 -0.258884
0.205813 1.598814 -0.257647
0.207364 1.590127 -0.254244
0.209780 1.586964 -0.253005
0.211732 1.581037 -0.250683
0.214274 1.578788 -0.249802
0.216808 1.576536 -0.248920
0.218709 1.570602 -0.246596
0.220747 1.565585 -0.244631
0.222766 1.560567 -0.242665
0.225414 1.559222 -0.242138
0.228221 1.558792 -0.241970
0.230532 1.555602 -0.240720
0.232165 1.548736 -0.238031
0.234279 1.544624 -0.236420
0.236888 1.543262 -0.235887
0.239494 1.541895 -0.235351
0.242615 1.543276 -0.235892
0.245217 1.541901 -0.235354
0.247461 1.538689 -0.234096
0.249514 1.534559 -0.232478
0.251553 1.530426 -0.230859
0.252848 1.522629 -0.227805
0.255402 1.521239 -0.227260
0.257953 1.519845 -0.226714
0.260873 1.520276 -0.226883
0.264931 1.526189 -0.229199
0.265386 1.514726 -0.224709
0.269073 1.518799 -0.226305
0.271610 1.517385 -0.225750
0.272967 1.510488 -0.223049
0.274299 1.503591 -0.220347
0.276403 1.500344 -0.219076
0.277893 1.494358 -0.216731
0.278551 1.484725 -0.212958
0.281218 1.484209 -0.212755
0.282029 1.475488 -0.209339
0.283224 1.468590 -0.206637
0.285441 1.466245 -0.205719
0.287652 1.463897 -0.204799
0.289641 1.460636 -0.203522
0.291189 1.455555 -0.201532
0.293153 1.452291 -0.200253
0.295323 1.449933 -0.199329
0.297925 1.449389 -0.199116
0.299640 1.445209 -0.197479
0.302010 1.443751 -0.196908
0.304375 1.442289 -0.196335
0.305377 1.435382 -0.193630
0.306810 1.430290 -0.191635
0.308685 1.427009 -0.190350
0.310317 1.422820 -0.188709
0.313335 1.424063 -0.189196
0.314243 1.417155 -0.186490
0.316310 1.414771 -0.185556
0.319085 1.415097 -0.185684
0.319700 1.407284 -0.182624
0.321012 1.402184 -0.180626
0.323525 1.401598 -0.180396
0.327263 1.405522 -0.181933
0.329782 1.404926 -0.181700
0.332548 1.405228 -0.181818
0.336568 1.410033 -0.183700
-0.104215 2.138789 -0.469157
-0.100098 2.131447 -0.466281
-0.096034 2.125029 -0.463767
-0.091971 2.117674 -0.460886
-0.087912 2.109380 -0.457637
-0.083675 2.091771 -0.450740
-0.079774 2.087188 -0.448944
-0.075942 2.085390 -0.448240
-0.071991 2.076139 -0.444617
-0.068102 2.068743 -0.441720
-0.064181 2.056685 -0.436996
-0.060420 2.054863 -0.436283
-0.056640 2.050241 -0.434472
-0.052863 2.043750 -0.431930
-0.049106 2.036323 -0.429020
-0.045372 2.027957 -0.425744
-0.041670 2.019587 -0.422465
-0.038000 2.019589 -0.422466
-0.034331 2.018655 -0.422100
-0.030663 2.018646 -0.422097
-0.027141 1.992561 -0.411879
-0.023570 1.986022 -0.409318
-0.019980 1.984134 -0.408578
-0.016449 1.977584 -0.406012
-0.012931 1.971960 -0.403809
-0.009405 1.968192 -0.402333
-0.005989 1.958833 -0.398667
-0.002554 1.952261 -0.396093
0.000952 1.950339 -0.395340
0.004639 1.956789 -0.397867
0.008441 1.966956 -0.401849
0.012013 1.966878 -0.401819
0.014747 1.937008 -0.390119
0.017592 1.914582 -0.381334
0.020561 1.898666 -0.375100
0.023722 1.890193 -0.371781
0.028774 1.935689 -0.389602
0.032462 1.940230 -0.391381
0.035800 1.935461 -0.389512
0.037547 1.892538 -0.372699
0.040658 1.884970 -0.369735
0.043574 1.873675 -0.365311
0.046578 1.865168 -0.361978
0.049687 1.859447 -0.359737
0.052774 1.853721 -0.357495
0.055889 1.848921 -0.355614
0.058987 1.844116 -0.353732
0.061805 1.834657 -0.350027
0.064912 1.830773 -0.348506
0.067782 1.823166 -0.345526
0.070796 1.818343 -0.343637
0.073911 1.815376 -0.342475
0.076954 1.811474 -0.340946
0.079921 1.806638 -0.339052
0.082546 1.797152 -0.335336
0.085535 1.793237 -0.333803
0.088576 1.790246 -0.332631
0.091677 1.788180 -0.331822
0.094771 1.786110 -0.331011
0.097637 1.781248 -0.329107
0.100486 1.776383 -0.327201
0.103086 1.768728 -0.324203
0.105972 1.764783 -0.322657
0.108924 1.761762 -0.321474
0.111865 1.758737 -0.320289
0.114377 1.751068 -0.317285
0.117459 1.749890 -0.316824
0.120362 1.746852 -0.315634
0.123610 1.747520 -0.315895
0.127404 1.753745 -0.318334
0.131038 1.758110 -0.320043
0.134218 1.757833 -0.319935
0.135960 1.743648 -0.314378
0.139406 1.746142 -0.315356
0.143656 1.756043 -0.319234
0.146327 1.751114 -0.317303
0.147952 1.736919 -0.311743
0.148583 1.714390 -0.302918
0.152425 1.720565 -0.305337
0.155427 1.719327 -0.304852
0.157108 1.706979 -0.300015
0.159189 1.698331 -0.296628
0.161464 1.691532 -0.293965
0.162220 1.672707 -0.286591
0.165474 1.674229 -0.287187
0.167668 1.667423 -0.284521
0.170558 1.666162 -0.284027
0.172590 1.658428 -0.280998
0.175213 1.655311 -0.279777
0.177573 1.650343 -0.277831
0.179916 1.645373 -0.275884
0.182498 1.642246 -0.274659
0.184678 1.636346 -0.272348
0.187629 1.635982 -0.272206
0.189642 1.629154 -0.269531
0.192309 1.626937 -0.268662
0.194694 1.622871 -0.267070
0.197063 1.618802 -0.265476
0.198855 1.611043 -0.262437
0.200903 1.605126 -0.260119
0.202786 1.598286 -0.257440
0.205666 1.597893 -0.257286
0.208103 1.594732 -0.256048
0.210378 1.590647 -0.254447
0.212639 1.586559 -0.252846
0.214886 1.582469 -0.251244
0.217117 1.578376 -0.249641
0.218865 1.571521 -0.246956
0.221379 1.569263 -0.246071
0.224045 1.567920 -0.245545
0.226061 1.562897 -0.243578
0.228221 1.558792 -0.241970
0.229872 1.551928 -0.239281
0.232666 1.551491 -0.239110
0.234447 1.545542 -0.236780
0.236378 1.540509 -0.234808
0.239494 1.541895 -0.235351
0.242615 1.543276 -0.235892
0.245568 1.543734 -0.236072
0.248346 1.543271 -0.235890
0.249872 1.536391 -0.233195
0.249386 1.519436 -0.226554
0.252848 1.522629 -0.227805
0.255035 1.519409 -0.226543
0.259067 1.525335 -0.228864
0.259562 1.513874 -0.224375
0.262473 1.514303 -0.224543
0.263669 1.506500 -0.221487
0.265415 1.501439 -0.219505
0.269279 1.506424 -0.221457
0.272967 1.510488 -0.223049
0.273113 1.498115 -0.218202
0.273413 1.486658 -0.213715
0.275682 1.484325 -0.212801
0.277740 1.481078 -0.211529
0.280400 1.480563 -0.211327
0.283266 1.480954 -0.211481
0.283224 1.468590 -0.206637
0.285232 1.465335 -0.205362
0.287229 1.462077 -0.204086
0.289641 1.460636 -0.203522
0.291189 1.455555 -0.201532
0.293153 1.452291 -0.200253
0.295541 1.450842 -0.199685
0.297925 1.449389 -0.199116
0.300305 1.447933 -0.198546
0.302456 1.445566 -0.197619
0.304151 1.441382 -0.195980
0.305377 1.435382 -0.193630
0.307952 1.434822 -0.193410
0.310295 1.433352 -0.192834
0.312403 1.430972 -0.191902
0.313802 1.425874 -0.189905
0.314948 1.419870 -0.187554
0.316784 1.416580 -0.186265
0.318369 1.412385 -0.184622
0.319940 1.408188 -0.182978
0.322222 1.406701 -0.182395
0.324255 1.404307 -0.181458
0.326772 1.403717 -0.181226
0.329287 1.403122 -0.180993
0.332299 1.404327 -0.181465
0.335817 1.407329 -0.182641
-0.104334 2.141378 -0.474225
-0.099986 2.126601 -0.468408
-0.096113 2.126698 -0.468447
-0.092117 2.122138 -0.466652
-0.088003 2.111990 -0.462657
-0.083864 2.099044 -0.457561
-0.079850 2.089812 -0.453926
-0.075976 2.086156 -0.452487
-0.072101 2.081562 -0.450679
-0.068256 2.077893 -0.449234
-0.064315 2.065843 -0.444491
-0.060441 2.055648 -0.440478
-0.056657 2.051029 -0.438660
-0.052870 2.043613 -0.435740
-0.049100 2.034329 -0.432085
-0.045386 2.030622 -0.430626
-0.041683 2.025048 -0.428432
-0.038000 2.019468 -0.426235
-0.034335 2.015743 -0.424769
-0.030670 2.015734 -0.424766
-0.026743 2.062243 -0.443074
-0.023025 2.057570 -0.441234
-0.019858 1.996132 -0.417049
-0.016439 1.977490 -0.409711
-0.012857 1.976522 -0.409330
-0.009336 1.971826 -0.407481
-0.005910 1.962473 -0.403799
-0.002467 1.955905 -0.401214
0.000875 1.945611 -0.397162
0.004241 1.938103 -0.394206
0.007511 1.927798 -0.390150
0.010913 1.924001 -0.388655
0.014197 1.916477 -0.385693
0.017341 1.905228 -0.381265
0.020472 1.894904 -0.377201
0.024099 1.900387 -0.379359
0.027581 1.901213 -0.379685
0.031345 1.909473 -0.382936
0.035031 1.914937 -0.385087
0.038929 1.925043 -0.389065
0.041100 1.894234 -0.376937
0.043616 1.873649 -0.368834
0.046883 1.870725 -0.367683
0.050140 1.867796 -0.366530
0.053104 1.859285 -0.363180
0.056133 1.852629 -0.360559
0.059189 1.846897 -0.358303
0.062223 1.841161 -0.356045
0.065453 1.839137 -0.355249
0.068117 1.827818 -0.350793
0.071256 1.824856 -0.349627
0.074445 1.822818 -0.348825
0.077382 1.817060 -0.346558
0.080423 1.813156 -0.345021
0.082934 1.801818 -0.340558
0.085733 1.795120 -0.337921
0.088712 1.791203 -0.336379
0.091887 1.790066 -0.335932
0.094413 1.780571 -0.332194
0.097564 1.779426 -0.331743
0.100111 1.770852 -0.328368
0.103240 1.769697 -0.327914
0.105972 1.763900 -0.325631
0.108844 1.759953 -0.324078
0.111702 1.756003 -0.322523
0.114377 1.750194 -0.320236
0.117459 1.749017 -0.319773
0.120536 1.747834 -0.319307
0.123432 1.744794 -0.318110
0.126951 1.748236 -0.319465
0.130207 1.748892 -0.319723
0.133465 1.749543 -0.319980
0.135385 1.737221 -0.315129
0.138040 1.732306 -0.313195
0.142663 1.745906 -0.318548
0.144912 1.737279 -0.315152
0.147438 1.731426 -0.312848
0.149524 1.721868 -0.309086
0.152531 1.720636 -0.308600
0.155751 1.721249 -0.308842
0.155900 1.695960 -0.298887
0.157962 1.687320 -0.295486
0.160558 1.683301 -0.293904
0.161531 1.666338 -0.287226
0.164890 1.668784 -0.288189
0.167904 1.668452 -0.288058
0.170437 1.664421 -0.286471
0.172834 1.659462 -0.284519
0.174718 1.650807 -0.281112
0.177322 1.647689 -0.279885
0.180043 1.645491 -0.279020
0.182627 1.642367 -0.277790
0.185330 1.640161 -0.276921
0.187365 1.633339 -0.274236
0.189642 1.628360 -0.272276
0.191766 1.622457 -0.269952
0.194281 1.619316 -0.268716
0.197203 1.618937 -0.268567
0.200123 1.618552 -0.268415
0.201902 1.610795 -0.265362
0.203219 1.600275 -0.261221
0.205520 1.596199 -0.259616
0.207807 1.592120 -0.258010
0.210677 1.591719 -0.257852
0.212790 1.586713 -0.255882
0.215039 1.582626 -0.254273
0.217582 1.580374 -0.253386
0.219960 1.577199 -0.252137
0.222012 1.572184 -0.250163
0.224205 1.568085 -0.248549
0.226222 1.563066 -0.246573
0.228221 1.558044 -0.244596
0.230367 1.553939 -0.242980
0.232832 1.551666 -0.242086
0.235627 1.551224 -0.241912
0.237399 1.545276 -0.239570
0.238978 1.538409 -0.236867
0.241053 1.534292 -0.235246
0.244165 1.535669 -0.235788
0.246221 1.531545 -0.234165
0.248441 1.528335 -0.232901
0.250289 1.523291 -0.230916
0.251572 1.515501 -0.227849
0.255586 1.521431 -0.230184
0.258324 1.520952 -0.229995
0.260873 1.519555 -0.229445
0.263418 1.518153 -0.228893
0.266150 1.517662 -0.228700
0.268495 1.515339 -0.227786
0.270444 1.511188 -0.226152
0.273946 1.514335 -0.227390
0.276077 1.511090 -0.226113
0.276802 1.501459 -0.222322
0.277089 1.490008 -0.217814
0.278348 1.483116 -0.215101
0.281014 1.482600 -0.214898
0.281616 1.472975 -0.211109
0.283224 1.467903 -0.209112
0.285861 1.467379 -0.208906
0.287652 1.463213 -0.207266
0.290493 1.463591 -0.207415
0.292478 1.460329 -0.206131
0.294235 1.456156 -0.204488
0.295541 1.450166 -0.202130
0.297485 1.446899 -0.200844
0.299197 1.442722 -0.199200
0.300894 1.438545 -0.197556
0.303476 1.437992 -0.197338
0.306283 1.438342 -0.197476
0.308865 1.437781 -0.197255
0.310525 1.433593 -0.195606
0.312866 1.432120 -0.195026
0.313335 1.423405 -0.191596
0.315654 1.421928 -0.191014
0.317494 1.418639 -0.189720
0.319800 1.417156 -0.189136
0.321862 1.414767 -0.188195
0.323431 1.410569 -0.186543
0.325230 1.407272 -0.185245
0.327508 1.405778 -0.184657
0.330029 1.405183 -0.184423
0.332548 1.404583 -0.184186
0.336819 1.410285 -0.186431
0.344137 1.426783 -0.192926
-0.104690 2.151916 -0.480592
-0.100545 2.144583 -0.477698
-0.096061 2.124224 -0.469662
-0.092093 2.120596 -0.468230
-0.087980 2.110452 -0.464226
-0.083927 2.101230 -0.460586
-0.079889 2.091071 -0.456577
-0.075837 2.078116 -0.451463
-0.072006 2.075384 -0.450385
-0.068186 2.072646 -0.449304
-0.064352 2.068042 -0.447487
-0.060483 2.058780 -0.443831
-0.056692 2.054163 -0.442009
-0.052891 2.045819 -0.438715
-0.049137 2.040260 -0.436521
-0.045404 2.034694 -0.434324
-0.041693 2.030051 -0.432491
-0.038000 2.022614 -0.429556
-0.034326 2.019820 -0.428453
-0.030624 2.027252 -0.431387
-0.026821 2.047701 -0.439458
-0.023081 2.049540 -0.440184
-0.019526 2.030910 -0.432830
-0.016302 1.989022 -0.416297
-0.012784 1.981543 -0.413345
-0.009322 1.972198 -0.409656
-0.005926 1.960988 -0.405232
-0.002467 1.955353 -0.403007
0.000913 1.946923 -0.399680
0.004304 1.940347 -0.397084
0.007783 1.938415 -0.396322
0.011597 1.949497 -0.400696
0.014799 1.937325 -0.395892
0.018122 1.930728 -0.393288
0.020947 1.909250 -0.384810
0.024162 1.901714 -0.381835
0.027680 1.903469 -0.382528
0.031450 1.911726 -0.385788
0.035177 1.918118 -0.388310
0.039044 1.927291 -0.391931
0.041381 1.900210 -0.381242
0.043574 1.872198 -0.370185
0.046883 1.870204 -0.369398
0.049868 1.861701 -0.366042
0.053057 1.857839 -0.364518
0.056133 1.852114 -0.362258
0.059138 1.845455 -0.359630
0.062276 1.841579 -0.358100
0.065453 1.838627 -0.356935
0.068061 1.826384 -0.352102
0.071429 1.827137 -0.352399
0.074148 1.817672 -0.348663
0.077199 1.813773 -0.347125
0.080360 1.811727 -0.346317
0.083321 1.806891 -0.344408
0.086264 1.802051 -0.342498
0.088644 1.789782 -0.337655
0.091817 1.788646 -0.337207
0.094699 1.783794 -0.335291
0.097784 1.781720 -0.334473
0.100411 1.774077 -0.331456
0.103470 1.771995 -0.330634
0.105972 1.763417 -0.327248
0.109085 1.762253 -0.326789
0.112111 1.760158 -0.325962
0.114712 1.753423 -0.323304
0.117203 1.745759 -0.320279
0.120275 1.744578 -0.319812
0.123432 1.744318 -0.319710
0.126951 1.747759 -0.321068
0.130207 1.748415 -0.321327
0.134501 1.759251 -0.325604
0.136727 1.749710 -0.321838
0.139796 1.748498 -0.321360
0.143259 1.750984 -0.322341
0.146428 1.750687 -0.322224
0.150624 1.759637 -0.325757
0.150256 1.727876 -0.313220
0.152638 1.721094 -0.310543
0.154671 1.711534 -0.306770
0.156778 1.702898 -0.303361
0.158854 1.694260 -0.299952
0.159540 1.674530 -0.292164
0.163485 1.681599 -0.294954
0.165124 1.670184 -0.290448
0.167904 1.668004 -0.289588
0.170558 1.664897 -0.288362
0.172956 1.659940 -0.286405
0.174842 1.651288 -0.282990
0.177573 1.649094 -0.282124
0.180043 1.645051 -0.280529
0.182884 1.643773 -0.280024
0.185200 1.638801 -0.278061
0.187365 1.632904 -0.275734
0.189508 1.627005 -0.273405
0.192038 1.623868 -0.272167
0.194694 1.621650 -0.271292
0.197203 1.618506 -0.270051
0.199278 1.612597 -0.267719
0.201046 1.604844 -0.264658
0.203075 1.598931 -0.262325
0.205082 1.593016 -0.259990
0.207659 1.590779 -0.259107
0.210378 1.589459 -0.258586
0.213093 1.588134 -0.258063
0.215192 1.583127 -0.256087
0.217427 1.579038 -0.254473
0.219804 1.575865 -0.253220
0.222012 1.571771 -0.251604
0.223885 1.565837 -0.249262
0.226061 1.561738 -0.247644
0.228875 1.561307 -0.247474
0.231193 1.558119 -0.246216
0.233166 1.553094 -0.244232
0.234953 1.547150 -0.241886
0.237399 1.544872 -0.240987
0.240009 1.543506 -0.240448
0.242789 1.543053 -0.240269
0.246620 1.548089 -0.242257
0.250648 1.554033 -0.244603
0.251302 1.542580 -0.240082
0.252636 1.534789 -0.237007
0.254670 1.530656 -0.235376
0.257610 1.531093 -0.235548
0.259067 1.524213 -0.232833
0.262185 1.525556 -0.233363
0.264931 1.525067 -0.233170
0.267676 1.524573 -0.232975
0.267917 1.512208 -0.228094
0.268502 1.501672 -0.223936
0.272771 1.508470 -0.226619
0.274694 1.504316 -0.224979
0.276802 1.501071 -0.223698
0.277290 1.490535 -0.219540
0.280782 1.493665 -0.220775
0.281423 1.484040 -0.216976
0.283266 1.479878 -0.215333
0.283016 1.466617 -0.210099
0.285861 1.467003 -0.210251
0.288285 1.465566 -0.209684
0.290706 1.464126 -0.209116
0.292263 1.459047 -0.207111
0.292936 1.450336 -0.203673
0.295323 1.448889 -0.203102
0.297705 1.447438 -0.202529
0.299418 1.443263 -0.200881
0.302010 1.442713 -0.200664
0.303926 1.439440 -0.199372
0.306963 1.440695 -0.199867
0.308865 1.437416 -0.198573
0.310985 1.435040 -0.197635
0.312403 1.429947 -0.195625
0.313802 1.424854 -0.193615
0.315889 1.422473 -0.192675
0.317020 1.416474 -0.190307
0.318846 1.413186 -0.189009
0.321141 1.411701 -0.188423
0.322706 1.407506 -0.186767
0.325230 1.406918 -0.186535
0.327753 1.406327 -0.186302
0.331017 1.408435 -0.187134
0.333543 1.407834 -0.186897
0.337069 1.410831 -0.188080
-0.100628 2.147146 -0.479515
-0.096218 2.129579 -0.472574
-0.092044 2.118514 -0.468202
-0.088094 2.114879 -0.466766
-0.084011 2.104729 -0.462756
-0.080004 2.096432 -0.459478
-0.075976 2.085338 -0.455095
-0.072148 2.083537 -0.454383
-0.068256 2.077080 -0.451832
-0.064425 2.073406 -0.450380
-0.060577 2.066935 -0.447824
-0.056745 2.059529 -0.444898
-0.052954 2.053976 -0.442704
-0.049179 2.047487 -0.440140
-0.045435 2.042852 -0.438309
-0.041698 2.032631 -0.434271
-0.038000 2.023334 -0.430597
-0.034328 2.018681 -0.428759
-0.030652 2.019601 -0.429123
-0.026947 2.025167 -0.431322
-0.022983 2.062346 -0.446011
-0.019282 2.056739 -0.443795
-0.015601 2.051126 -0.441578
-0.012430 2.008307 -0.424661
-0.009322 1.971995 -0.410314
-0.005863 1.964506 -0.407355
-0.002397 1.958872 -0.405129
0.001105 1.956021 -0.404003
0.004429 1.945727 -0.399935
0.007851 1.941006 -0.398070
0.011353 1.939999 -0.397672
0.014668 1.932478 -0.394701
0.018095 1.929601 -0.393564
0.020917 1.908125 -0.385079
0.025136 1.930337 -0.393855
0.028576 1.928373 -0.393079
0.032567 1.941274 -0.398176
0.035434 1.924427 -0.391520
0.038852 1.922447 -0.390737
0.041822 1.910238 -0.385914
0.044956 1.902672 -0.382925
0.047014 1.872802 -0.371123
0.050004 1.864299 -0.367764
0.053245 1.861367 -0.366605
0.056378 1.856571 -0.364710
0.059290 1.848055 -0.361346
0.062433 1.844180 -0.359815
0.065453 1.838442 -0.357548
0.068619 1.835485 -0.356380
0.071602 1.829739 -0.354109
0.074623 1.824916 -0.352204
0.077443 1.817304 -0.349196
0.080235 1.809688 -0.346187
0.083514 1.809494 -0.346110
0.086926 1.811150 -0.346765
0.089733 1.804449 -0.344117
0.091817 1.788467 -0.337803
0.094842 1.785471 -0.336619
0.097710 1.780615 -0.334700
0.100636 1.776682 -0.333147
0.103623 1.773672 -0.331958
0.106600 1.770658 -0.330767
0.109406 1.765786 -0.328842
0.112275 1.761836 -0.327281
0.114963 1.756029 -0.324987
0.117544 1.749292 -0.322325
0.120536 1.747184 -0.321492
0.123521 1.745071 -0.320657
0.126589 1.743880 -0.320187
0.129560 1.741758 -0.319349
0.133089 1.745187 -0.320703
0.135672 1.739353 -0.318398
0.139211 1.742771 -0.319748
0.142265 1.741555 -0.319268
0.145316 1.740334 -0.318786
0.148054 1.736334 -0.317205
0.150569 1.730480 -0.314892
0.154019 1.732945 -0.315867
0.156615 1.728008 -0.313916
0.159193 1.723068 -0.311964
0.162198 1.721821 -0.311471
0.164294 1.713176 -0.308056
0.165209 1.695292 -0.300990
0.164890 1.668173 -0.290275
0.167786 1.666917 -0.289779
0.170678 1.665658 -0.289282
0.173443 1.663470 -0.288417
0.175336 1.654818 -0.284999
0.177698 1.649856 -0.283039
0.180551 1.648581 -0.282535
0.182884 1.643613 -0.280572
0.185330 1.639563 -0.278972
0.187629 1.634589 -0.277007
0.190312 1.632377 -0.276133
0.193124 1.631082 -0.275621
0.195243 1.625178 -0.273288
0.197063 1.617429 -0.270227
0.198996 1.610599 -0.267528
0.201902 1.610212 -0.267376
0.204518 1.607980 -0.266493
0.205666 1.596543 -0.261975
0.208103 1.593386 -0.260727
0.210378 1.589306 -0.259115
0.212942 1.587062 -0.258229
0.215039 1.582056 -0.256251
0.217582 1.579805 -0.255362
0.219804 1.575714 -0.253745
0.222012 1.571620 -0.252128
0.224685 1.570278 -0.251598
0.226707 1.565260 -0.249615
0.229038 1.562075 -0.248357
0.231523 1.559805 -0.247460
0.232999 1.552029 -0.244388
0.235290 1.548836 -0.243126
0.237569 1.545641 -0.241864
0.240181 1.544275 -0.241324
0.242963 1.543822 -0.241145
0.245743 1.543363 -0.240964
0.247992 1.540154 -0.239696
0.251123 1.541518 -0.240235
0.253358 1.538302 -0.238964
0.255035 1.532340 -0.236609
0.253379 1.509922 -0.227752
0.255910 1.508533 -0.227203
0.259187 1.510795 -0.228096
0.265498 1.527662 -0.234760
0.268248 1.527167 -0.234565
0.269073 1.517541 -0.230762
0.269473 1.506093 -0.226238
0.271595 1.502855 -0.224959
0.273508 1.498704 -0.223319
0.274410 1.489994 -0.219878
0.278899 1.497684 -0.222916
0.281593 1.497167 -0.222712
0.286331 1.505750 -0.226103
0.286772 1.495211 -0.221939
0.284887 1.474668 -0.213823
0.286070 1.467776 -0.211100
0.288074 1.464520 -0.209814
0.290067 1.461263 -0.208526
0.292263 1.458912 -0.207598
0.294235 1.455649 -0.206309
0.296632 1.454200 -0.205736
0.298585 1.450933 -0.204445
0.300969 1.449478 -0.203870
0.303126 1.447112 -0.202936
0.304151 1.440213 -0.200210
0.306510 1.438750 -0.199632
0.308865 1.437283 -0.199052
0.310295 1.432192 -0.197041
0.312171 1.428911 -0.195744
0.314036 1.425627 -0.194447
0.316594 1.425054 -0.194220
0.318205 1.420861 -0.192564
0.319323 1.414862 -0.190194
0.320901 1.410669 -0.188537
0.322947 1.408279 -0.187593
0.324743 1.404985 -0.186292
0.327017 1.403493 -0.185702
0.328794 1.400195 -0.184399
0.332548 1.404101 -0.185942
0.335567 1.405299 -0.186415
0.341616 1.417290 -0.191153
-0.100517 2.142401 -0.481281
-0.096427 2.135995 -0.478739
-0.092239 2.124936 -0.474350
-0.088071 2.112941 -0.469590
-0.084115 2.108372 -0.467777
-0.080100 2.100080 -0.464486
-0.076116 2.091781 -0.461193
-0.072195 2.085335 -0.458635
-0.068284 2.077952 -0.455705
-0.064364 2.067774 -0.451666
-0.060525 2.061308 -0.449100
-0.056675 2.051117 -0.445056
-0.052912 2.047427 -0.443591
-0.049158 2.042800 -0.441756
-0.045432 2.040957 -0.441024
-0.041700 2.032600 -0.437708
-0.038000 2.023309 -0.434020
-0.034326 2.018658 -0.432175
-0.030659 2.016790 -0.431434
-0.026942 2.025141 -0.434747
-0.023158 2.038132 -0.439903
-0.019360 2.047400 -0.443581
-0.015381 2.069673 -0.452420
-0.011941 2.044538 -0.442445
-0.008638 2.016612 -0.431363
-0.005596 1.979386 -0.416590
-0.002258 1.965391 -0.411036
0.001124 1.956037 -0.407324
0.004618 1.953182 -0.406191
0.008146 1.952181 -0.405794
0.011524 1.945599 -0.403182
0.014825 1.937153 -0.399830
0.018290 1.935206 -0.399058
0.021807 1.935112 -0.399020
0.025293 1.934083 -0.398612
0.028377 1.921901 -0.393778
0.031659 1.916217 -0.391522
0.034664 1.904026 -0.386684
0.038238 1.906692 -0.387742
0.041621 1.904708 -0.386955
0.043909 1.878573 -0.376583
0.047014 1.871937 -0.373950
0.050004 1.863440 -0.370578
0.053292 1.861437 -0.369783
0.056524 1.858501 -0.368618
0.059594 1.852775 -0.366346
0.062433 1.843332 -0.362598
0.065453 1.837598 -0.360323
0.068731 1.836499 -0.359887
0.071775 1.831684 -0.357976
0.074623 1.824080 -0.354958
0.077565 1.818328 -0.352676
0.080674 1.815355 -0.351496
0.084095 1.817015 -0.352155
0.087456 1.817742 -0.352443
0.091501 1.827736 -0.356409
0.093770 1.813615 -0.350806
0.094985 1.786513 -0.340050
0.097784 1.780732 -0.337756
0.100786 1.777729 -0.336564
0.103700 1.773794 -0.335003
0.106600 1.769855 -0.333440
0.109325 1.764059 -0.331140
0.112439 1.762891 -0.330676
0.115632 1.762644 -0.330578
0.118228 1.755910 -0.327906
0.120711 1.748246 -0.324864
0.123788 1.747061 -0.324394
0.127133 1.748647 -0.325023
0.130299 1.748376 -0.324916
0.133465 1.748101 -0.324807
0.136631 1.747820 -0.324695
0.139308 1.742909 -0.322746
0.141471 1.733370 -0.318961
0.144508 1.732151 -0.318477
0.148877 1.742947 -0.322762
0.151719 1.739869 -0.321540
0.153275 1.725695 -0.315915
0.152619 1.693040 -0.302957
0.154693 1.684414 -0.299533
0.161975 1.719199 -0.313337
0.165313 1.720719 -0.313941
0.162220 1.670527 -0.294022
0.164540 1.664661 -0.291694
0.167549 1.664330 -0.291563
0.170317 1.662149 -0.290697
0.173321 1.661808 -0.290562
0.175954 1.658696 -0.289327
0.178576 1.655580 -0.288091
0.181059 1.651538 -0.286487
0.183271 1.645650 -0.284150
0.184939 1.636073 -0.280350
0.186968 1.629260 -0.277646
0.189776 1.627972 -0.277135
0.192309 1.624837 -0.275891
0.194831 1.621699 -0.274645
0.197620 1.620399 -0.274129
0.199982 1.616333 -0.272516
0.202187 1.611345 -0.270536
0.204807 1.609113 -0.269651
0.205959 1.597683 -0.265115
0.208842 1.597285 -0.264957
0.211275 1.594125 -0.263703
0.213698 1.590962 -0.262448
0.215650 1.585040 -0.260098
0.217891 1.580953 -0.258476
0.220430 1.578699 -0.257581
0.222644 1.574607 -0.255957
0.225005 1.571429 -0.254696
0.227515 1.569165 -0.253798
0.228875 1.560479 -0.250351
0.231358 1.558211 -0.249451
0.233499 1.554106 -0.247822
0.235964 1.551830 -0.246919
0.237910 1.546804 -0.244924
0.240181 1.543607 -0.243655
0.242789 1.542238 -0.243112
0.245393 1.540866 -0.242567
0.247992 1.539489 -0.242021
0.251838 1.544510 -0.244014
0.253358 1.537638 -0.241286
0.253212 1.522540 -0.235295
0.258162 1.533029 -0.239457
0.260552 1.530720 -0.238541
0.262185 1.524755 -0.236174
0.264742 1.523353 -0.235618
0.268248 1.526509 -0.236870
0.269843 1.520537 -0.234500
0.271221 1.513654 -0.231769
0.273946 1.513149 -0.231569
0.277066 1.514464 -0.232090
0.279992 1.514861 -0.232248
0.283121 1.516164 -0.232765
0.284837 1.511090 -0.230751
0.284490 1.496916 -0.225127
0.283266 1.479110 -0.218060
0.285511 1.476769 -0.217131
0.287957 1.475333 -0.216561
0.290399 1.473894 -0.215990
0.290706 1.463369 -0.211814
0.292478 1.459202 -0.210160
0.294668 1.456849 -0.209226
0.296632 1.453586 -0.207931
0.299464 1.453948 -0.208075
0.300748 1.447960 -0.205699
0.303573 1.448314 -0.205839
0.304151 1.439607 -0.202384
0.306057 1.436334 -0.201085
0.308637 1.435774 -0.200863
0.310525 1.432496 -0.199562
0.312403 1.429216 -0.198260
0.314736 1.427741 -0.197675
0.316829 1.425360 -0.196730
0.318205 1.420267 -0.194709
0.320039 1.416979 -0.193404
0.322102 1.414592 -0.192457
0.324641 1.414006 -0.192224
0.324499 1.403499 -0.188055
0.327263 1.403810 -0.188178
0.330276 1.405017 -0.188657
0.333791 1.408018 -0.189848
0.336568 1.408313 -0.189965
0.342625 1.420296 -0.194721
-0.101215 2.165509 -0.490876
-0.096715 2.146097 -0.483169
-0.092533 2.135968 -0.479147
-0.088343 2.123974 -0.474385
-0.084387 2.120336 -0.472940
-0.080158 2.102752 -0.465959
-0.076151 2.093525 -0.462295
-0.072289 2.090796 -0.461212
-0.068382 2.084343 -0.458650
-0.064474 2.076025 -0.455347
-0.060567 2.064912 -0.450935
-0.056753 2.059370 -0.448734
-0.052954 2.052891 -0.446162
-0.049189 2.048265 -0.444325
-0.045432 2.040845 -0.441379
-0.041705 2.035277 -0.439169
-0.038000 2.029704 -0.436956
-0.034317 2.023195 -0.434371
-0.030645 2.020398 -0.433261
-0.026952 2.023171 -0.434362
-0.023018 2.056609 -0.447638
-0.019168 2.067734 -0.452055
-0.015297 2.076994 -0.455732
-0.004292 2.056411 -0.447560
-0.002100 1.973648 -0.414699
0.001201 1.959648 -0.409140
0.004618 1.953077 -0.406531
0.008259 1.956722 -0.407979
0.011646 1.950140 -0.405365
0.014851 1.937978 -0.400537
0.017983 1.924882 -0.395337
0.021777 1.934079 -0.398988
0.025450 1.938624 -0.400793
0.028808 1.933873 -0.398907
0.031345 1.907754 -0.388536
0.034811 1.907639 -0.388491
0.037969 1.900088 -0.385493
0.041260 1.896247 -0.383968
0.043197 1.862686 -0.370643
0.046796 1.867195 -0.372433
0.050140 1.866126 -0.372008
0.053434 1.864123 -0.371213
0.056573 1.859331 -0.369310
0.059695 1.854533 -0.367406
0.062537 1.845091 -0.363656
0.065615 1.840285 -0.361748
0.068842 1.838258 -0.360943
0.071832 1.832514 -0.358663
0.074919 1.828622 -0.357118
0.077870 1.822870 -0.354834
0.080925 1.818970 -0.353285
0.083837 1.813209 -0.350998
0.087324 1.815791 -0.352023
0.090957 1.820221 -0.353782
0.094747 1.826499 -0.356275
0.096773 1.809595 -0.349563
0.098150 1.785273 -0.339906
0.100936 1.779489 -0.337610
0.103930 1.776481 -0.336415
0.106914 1.773468 -0.335219
0.109486 1.765819 -0.332182
0.112439 1.762799 -0.330983
0.115465 1.760700 -0.330150
0.118569 1.759522 -0.329682
0.121146 1.752784 -0.327007
0.123699 1.746043 -0.324330
0.126951 1.746704 -0.324593
0.130022 1.745509 -0.324118
0.134218 1.755412 -0.328050
0.138931 1.769932 -0.333815
0.141357 1.762243 -0.330762
0.144351 1.760099 -0.329911
0.146731 1.752404 -0.326856
0.150727 1.759497 -0.329672
0.152346 1.745324 -0.324045
0.153807 1.730226 -0.318050
0.154455 1.708660 -0.309488
0.154364 1.681555 -0.298726
0.158854 1.693248 -0.303368
0.163841 1.708625 -0.309474
0.165094 1.693523 -0.303478
0.166057 1.676575 -0.296749
0.168733 1.673473 -0.295517
0.171278 1.669445 -0.293918
0.174053 1.667258 -0.293049
0.176078 1.659533 -0.289982
0.178952 1.658261 -0.289477
0.181059 1.651454 -0.286774
0.183400 1.646487 -0.284803
0.186113 1.644283 -0.283927
0.188555 1.640232 -0.282319
0.190312 1.631573 -0.278881
0.192852 1.628438 -0.277636
0.195381 1.625299 -0.276390
0.197481 1.619396 -0.274046
0.199700 1.614411 -0.272067
0.201902 1.609423 -0.270086
0.204951 1.609951 -0.270296
0.207858 1.609555 -0.270139
0.208989 1.598123 -0.265600
0.211126 1.593125 -0.263615
0.213849 1.591800 -0.263089
0.216568 1.590471 -0.262562
0.218665 1.585464 -0.260574
0.220743 1.580456 -0.258585
0.222803 1.575445 -0.256596
0.225164 1.572267 -0.255334
0.227353 1.568169 -0.253707
0.230018 1.566820 -0.253171
0.232018 1.561799 -0.251178
0.234000 1.556777 -0.249184
0.236469 1.554501 -0.248280
0.238420 1.549474 -0.246284
0.240353 1.544446 -0.244288
0.243310 1.544907 -0.244471
0.245919 1.543533 -0.243925
0.247992 1.539412 -0.242289
0.251481 1.542603 -0.243556
0.254802 1.544874 -0.244458
0.254306 1.527947 -0.237737
0.255770 1.521076 -0.235009
0.257210 1.514204 -0.232281
0.260686 1.517375 -0.233540
0.262473 1.512325 -0.231535
0.264814 1.510011 -0.230616
0.266377 1.504045 -0.228247
0.268502 1.500814 -0.226964
0.271007 1.499403 -0.226404
0.273706 1.498900 -0.226204
0.275406 1.493838 -0.224194
0.279100 1.497880 -0.225799
0.283215 1.503734 -0.228123
0.285104 1.499572 -0.226471
0.285534 1.489041 -0.222290
0.285511 1.476696 -0.217388
0.287747 1.474352 -0.216457
0.289553 1.470187 -0.214804
0.291132 1.465113 -0.212789
0.293337 1.462762 -0.211856
0.294668 1.456778 -0.209480
0.297286 1.456236 -0.209265
0.299684 1.454783 -0.208688
0.302520 1.455140 -0.208829
0.304242 1.450962 -0.207171
0.305725 1.445876 -0.205151
0.308323 1.445317 -0.204929
0.310007 1.441133 -0.203268
0.311446 1.436044 -0.201248
0.312866 1.430955 -0.199227
0.315436 1.430383 -0.199000
0.316829 1.425291 -0.196978
0.317731 1.418393 -0.194239
0.319800 1.416008 -0.193293
0.322823 1.417230 -0.193778
0.324883 1.414839 -0.192828
0.326448 1.410643 -0.191162
0.327508 1.404644 -0.188780
0.330029 1.404049 -0.188544
0.332051 1.401649 -0.187591
0.335317 1.403746 -0.188424
0.339348 1.408535 -0.190325
-0.103365 2.236168 -0.522006
-0.096636 2.142476 -0.484674
-0.092313 2.126781 -0.478420
-0.088230 2.118507 -0.475123
-0.084262 2.113941 -0.473304
-0.080273 2.107512 -0.470742
-0.076273 2.099218 -0.467438
-0.072336 2.092775 -0.464870
-0.068438 2.087254 -0.462671
-0.064560 2.081727 -0.460468
-0.060588 2.065975 -0.454192
-0.056780 2.061364 -0.452355
-0.052982 2.055818 -0.450145
-0.049174 2.044691 -0.445711
-0.045442 2.042849 -0.444977
-0.041711 2.037284 -0.442760
-0.038000 2.031713 -0.440540
-0.034314 2.024278 -0.437578
-0.030628 2.024269 -0.437574
-0.026900 2.031686 -0.440529
-0.023130 2.040955 -0.444222
-0.019447 2.037211 -0.442731
-0.015758 2.035321 -0.441978
-0.011953 2.042713 -0.444923
-0.007828 2.069605 -0.455638
-0.000757 2.044417 -0.445602
0.001969 1.996056 -0.426332
0.004974 1.968125 -0.415203
0.008509 1.966195 -0.414434
0.011842 1.956830 -0.410702
0.015061 1.944673 -0.405859
0.018039 1.926012 -0.398423
0.021421 1.922204 -0.396906
0.025324 1.934176 -0.401676
0.028940 1.936856 -0.402744
0.031939 1.922818 -0.397151
0.035068 1.913419 -0.393405
0.037931 1.898445 -0.387439
0.040257 1.872329 -0.377033
0.043448 1.867558 -0.375132
0.046971 1.870208 -0.376188
0.050549 1.873779 -0.377611
0.053575 1.866209 -0.374594
0.056524 1.857707 -0.371207
0.059746 1.854768 -0.370036
0.062904 1.850896 -0.368493
0.065994 1.846092 -0.366578
0.068898 1.838500 -0.363554
0.072062 1.835542 -0.362375
0.075157 1.831651 -0.360825
0.078114 1.825902 -0.358534
0.080988 1.819221 -0.355872
0.084095 1.816244 -0.354686
0.087920 1.823459 -0.357560
0.091501 1.826959 -0.358955
0.094956 1.828600 -0.359609
0.097631 1.820042 -0.356199
0.100640 1.816114 -0.354634
0.102960 1.803844 -0.349745
0.105388 1.793424 -0.345593
0.106286 1.765406 -0.334429
0.109486 1.765169 -0.334335
0.112521 1.763076 -0.333501
0.115716 1.762829 -0.333402
0.118655 1.759801 -0.332195
0.121495 1.755842 -0.330618
0.124143 1.750029 -0.328302
0.127314 1.749764 -0.328196
0.130946 1.754118 -0.329931
0.135253 1.764940 -0.334243
0.138548 1.765581 -0.334499
0.141162 1.759745 -0.332173
0.141868 1.736343 -0.322849
0.145720 1.742518 -0.325309
0.148980 1.743142 -0.325558
0.152764 1.748379 -0.327645
0.155294 1.742525 -0.325312
0.156399 1.724662 -0.318194
0.155791 1.692950 -0.305559
0.159746 1.700019 -0.308375
0.162822 1.699695 -0.308246
0.164289 1.686448 -0.302968
0.165940 1.675046 -0.298425
0.168615 1.671945 -0.297189
0.171398 1.669764 -0.296320
0.173565 1.662967 -0.293612
0.176325 1.660778 -0.292740
0.178952 1.657663 -0.291498
0.180932 1.649938 -0.288420
0.183528 1.646816 -0.287177
0.185852 1.641850 -0.285198
0.188423 1.638722 -0.283951
0.190312 1.630988 -0.280869
0.192988 1.628774 -0.279988
0.195381 1.624717 -0.278371
0.197898 1.621576 -0.277119
0.200264 1.617513 -0.275500
0.202330 1.611607 -0.273147
0.205240 1.611215 -0.272991
0.208734 1.614494 -0.274298
0.211798 1.615011 -0.274503
0.213219 1.605418 -0.270681
0.214303 1.593989 -0.266127
0.215956 1.586233 -0.263037
0.218355 1.583066 -0.261775
0.220743 1.579895 -0.260512
0.223277 1.577639 -0.259612
0.225964 1.576296 -0.259077
0.228000 1.571282 -0.257079
0.230181 1.567182 -0.255446
0.232348 1.563080 -0.253812
0.234333 1.558060 -0.251811
0.236469 1.553953 -0.250175
0.238761 1.550760 -0.248902
0.240525 1.544818 -0.246535
0.243310 1.544364 -0.246354
0.246269 1.544820 -0.246536
0.249408 1.546186 -0.247080
0.251123 1.540233 -0.244708
0.253899 1.539762 -0.244520
0.257222 1.542027 -0.245423
0.258714 1.535154 -0.242684
0.259624 1.525543 -0.238855
0.260498 1.515933 -0.235025
0.262851 1.513622 -0.234105
0.265005 1.510397 -0.232820
0.266185 1.502610 -0.229717
0.270250 1.508494 -0.232061
0.272575 1.506170 -0.231135
0.274892 1.503843 -0.230208
0.277201 1.501513 -0.229280
0.279502 1.499180 -0.228350
0.281796 1.496843 -0.227419
0.283468 1.491776 -0.225400
0.285947 1.490344 -0.224829
0.286966 1.482547 -0.221723
0.288166 1.475659 -0.218978
0.289765 1.470588 -0.216958
0.291984 1.468240 -0.216022
0.293122 1.461352 -0.213277
0.295533 1.459905 -0.212701
0.298159 1.459363 -0.212485
0.300343 1.457003 -0.211544
0.302298 1.453735 -0.210242
0.304689 1.452275 -0.209661
0.306175 1.447192 -0.207635
0.308323 1.444822 -0.206691
0.309550 1.438832 -0.204304
0.312136 1.438266 -0.204079
0.313793 1.434082 -0.202411
0.315670 1.430799 -0.201104
0.317065 1.425709 -0.199075
0.319626 1.425131 -0.198845
0.321470 1.421843 -0.197535
0.323783 1.420356 -0.196942
0.325125 1.415261 -0.194912
0.326935 1.411967 -0.193600
0.328244 1.406870 -0.191569
0.330276 1.404474 -0.190614
0.332051 1.401175 -0.189300
0.335567 1.404171 -0.190493
0.340860 1.413452 -0.194191
-0.097081 2.157295 -0.493981
-0.092484 2.132327 -0.483992
-0.088411 2.124987 -0.481055
-0.084408 2.119496 -0.478859
-0.080292 2.107500 -0.474059
-0.076343 2.101996 -0.471857
-0.072399 2.095556 -0.469281
-0.068466 2.088182 -0.466331
-0.064596 2.083587 -0.464492
-0.060724 2.077128 -0.461908
-0.056832 2.066020 -0.457464
-0.053017 2.059549 -0.454875
-0.049231 2.054000 -0.452655
-0.045470 2.049372 -0.450804
-0.041725 2.043811 -0.448579
-0.038000 2.039171 -0.446723
-0.034303 2.028955 -0.442636
-0.030638 2.020591 -0.439289
-0.026973 2.017790 -0.438169
-0.023284 2.019627 -0.438903
-0.019482 2.032597 -0.444093
-0.015768 2.033493 -0.444451
-0.011795 2.053878 -0.452607
-0.007800 2.070543 -0.459274
0.005476 1.989541 -0.426867
0.008827 1.978329 -0.422381
0.012159 1.968040 -0.418265
0.016108 1.980950 -0.423430
0.019295 1.966938 -0.417824
0.022015 1.939929 -0.407018
0.024947 1.922197 -0.399924
0.028211 1.915596 -0.397284
0.031275 1.904352 -0.392785
0.034774 1.905164 -0.393110
0.038929 1.921744 -0.399743
0.042304 1.918833 -0.398578
0.045877 1.920555 -0.399267
0.047799 1.887024 -0.385852
0.050821 1.878535 -0.382456
0.053622 1.866332 -0.377574
0.056817 1.862471 -0.376029
0.059897 1.856751 -0.373741
0.063218 1.855662 -0.373305
0.066372 1.851787 -0.371755
0.069289 1.844200 -0.368719
0.072350 1.839388 -0.366795
0.075334 1.833646 -0.364497
0.078297 1.827899 -0.362198
0.081176 1.821222 -0.359527
0.084224 1.817320 -0.357966
0.087987 1.823604 -0.360480
0.090889 1.817839 -0.358173
0.093770 1.812071 -0.355866
0.096487 1.804446 -0.352815
0.098736 1.791262 -0.347540
0.102885 1.802148 -0.351896
0.104160 1.777848 -0.342174
0.106992 1.772987 -0.340229
0.109486 1.764421 -0.336802
0.112521 1.762328 -0.335965
0.115716 1.762082 -0.335866
0.118655 1.759055 -0.334655
0.121669 1.756949 -0.333813
0.124321 1.751139 -0.331488
0.127223 1.748099 -0.330272
0.130299 1.746904 -0.329794
0.134689 1.758645 -0.334491
0.138740 1.766681 -0.337706
0.139601 1.744215 -0.328718
0.142464 1.741153 -0.327493
0.146327 1.747324 -0.329962
0.150830 1.759029 -0.334645
0.151196 1.733789 -0.324547
0.153063 1.722402 -0.319991
0.156291 1.723013 -0.320236
0.159412 1.722695 -0.320109
0.160192 1.702997 -0.312228
0.163275 1.702673 -0.312098
0.164864 1.690355 -0.307170
0.167807 1.689101 -0.306669
0.169207 1.675858 -0.301370
0.171519 1.669990 -0.299022
0.173931 1.665040 -0.297042
0.176696 1.662852 -0.296167
0.179328 1.659738 -0.294921
0.181695 1.654779 -0.292937
0.183915 1.648896 -0.290583
0.186374 1.644852 -0.288965
0.189084 1.642645 -0.288083
0.191116 1.635834 -0.285358
0.193259 1.629941 -0.283000
0.195518 1.624966 -0.281010
0.198038 1.621827 -0.279754
0.200405 1.617766 -0.278129
0.203043 1.615539 -0.277238
0.205818 1.614227 -0.276713
0.209026 1.615667 -0.277289
0.213128 1.622610 -0.280067
0.216210 1.623119 -0.280271
0.214454 1.594254 -0.268722
0.214886 1.579162 -0.262684
0.218510 1.583336 -0.264354
0.221055 1.581084 -0.263454
0.223752 1.579745 -0.262918
0.225324 1.571987 -0.259814
0.228000 1.570641 -0.259276
0.230671 1.569292 -0.258736
0.232513 1.563360 -0.256363
0.234500 1.558342 -0.254355
0.236638 1.554238 -0.252713
0.239101 1.551961 -0.251802
0.241213 1.547851 -0.250158
0.244005 1.547396 -0.249976
0.246445 1.545109 -0.249061
0.249408 1.545559 -0.249241
0.251838 1.543264 -0.248323
0.254983 1.544619 -0.248865
0.258862 1.549619 -0.250865
0.258897 1.535447 -0.245195
0.259995 1.526753 -0.241717
0.260498 1.515323 -0.237144
0.263985 1.518484 -0.238409
0.267294 1.520727 -0.239306
0.270998 1.524785 -0.240930
0.272775 1.519729 -0.238907
0.271791 1.501924 -0.231784
0.273508 1.496869 -0.229761
0.277599 1.502731 -0.232106
0.280910 1.504946 -0.232992
0.281998 1.497154 -0.229875
0.284081 1.493906 -0.228576
0.287803 1.497925 -0.230184
0.287174 1.482864 -0.224158
0.288795 1.477796 -0.222130
0.289976 1.470912 -0.219376
0.292410 1.469471 -0.218800
0.293766 1.463493 -0.216408
0.295533 1.459327 -0.214742
0.297941 1.457878 -0.214162
0.300563 1.457332 -0.213943
0.302520 1.454065 -0.212636
0.304242 1.449891 -0.210966
0.305950 1.445716 -0.209296
0.307870 1.442443 -0.207987
0.310007 1.440073 -0.207038
0.312826 1.440410 -0.207173
0.314952 1.438033 -0.206223
0.317070 1.435654 -0.205271
0.318475 1.430564 -0.203234
0.320810 1.429082 -0.202641
0.322186 1.423991 -0.200604
0.323783 1.419800 -0.198928
0.325367 1.415608 -0.197251
0.327179 1.412316 -0.195934
0.328735 1.408122 -0.194256
0.330276 1.403927 -0.192577
0.332797 1.403328 -0.192338
0.337320 1.409916 -0.194973
0.341616 1.415595 -0.197245
-0.097134 2.159152 -0.494724
-0.092997 2.151819 -0.491790
-0.088570 2.131484 -0.483655
-0.084346 2.116711 -0.477744
-0.080350 2.110285 -0.475174
-0.076326 2.101068 -0.471486
-0.072368 2.093700 -0.468538
-0.068466 2.088182 -0.466331
-0.064609 2.084515 -0.464864
-0.060671 2.072486 -0.460051
-0.056841 2.066949 -0.457836
-0.052996 2.056763 -0.453761
-0.049215 2.051214 -0.451541
-0.045470 2.049372 -0.450804
-0.041728 2.045668 -0.449322
-0.038000 2.037315 -0.445980
-0.034302 2.029884 -0.443007
-0.030617 2.026161 -0.441518
-0.026952 2.021504 -0.439655
-0.023291 2.018698 -0.438532
-0.019474 2.033526 -0.444464
-0.015737 2.036278 -0.445565
-0.011905 2.045523 -0.449264
-0.007953 2.060331 -0.455188
-0.004119 2.064921 -0.457025
0.006712 2.044307 -0.448778
0.009462 2.004319 -0.432779
0.012575 1.983819 -0.424578
0.015794 1.969812 -0.418974
0.018597 1.943736 -0.408541
0.021303 1.917656 -0.398107
0.023691 1.885077 -0.385073
0.027614 1.898893 -0.390601
0.031834 1.919198 -0.398724
0.035104 1.913515 -0.396451
0.037662 1.891127 -0.387494
0.041220 1.893785 -0.388557
0.044411 1.888088 -0.386278
0.047276 1.875893 -0.381399
0.050276 1.867405 -0.378003
0.053716 1.868186 -0.378316
0.056866 1.863398 -0.376400
0.059897 1.856751 -0.373741
0.063270 1.856590 -0.373676
0.066156 1.848079 -0.370272
0.069289 1.844200 -0.368719
0.072408 1.840315 -0.367165
0.075216 1.831792 -0.363756
0.078236 1.826972 -0.361827
0.081302 1.823075 -0.360268
0.084547 1.821952 -0.359819
0.088185 1.826383 -0.361592
0.091637 1.828029 -0.362250
0.095095 1.829668 -0.362906
0.097202 1.813707 -0.356520
0.098809 1.792188 -0.347911
0.099961 1.766040 -0.337450
0.102626 1.759334 -0.334767
0.106835 1.771136 -0.339489
0.110448 1.775526 -0.341245
0.113013 1.767880 -0.338186
0.115884 1.763932 -0.336606
0.118825 1.760905 -0.335395
0.121582 1.756024 -0.333442
0.124054 1.748364 -0.330378
0.126589 1.741627 -0.327683
0.129653 1.740433 -0.327205
0.133089 1.742932 -0.328205
0.136343 1.743576 -0.328463
0.139601 1.744215 -0.328718
0.143060 1.746696 -0.329711
0.146125 1.745477 -0.329223
0.150008 1.751640 -0.331689
0.152033 1.741176 -0.327502
0.155719 1.745482 -0.329225
0.158991 1.746088 -0.329468
0.161936 1.743921 -0.328600
0.164205 1.736213 -0.325517
0.166558 1.729425 -0.322801
0.169347 1.726324 -0.321561
0.169207 1.700167 -0.311095
0.169917 1.681390 -0.303583
0.171999 1.673677 -0.300498
0.174053 1.665962 -0.297411
0.176819 1.663773 -0.296535
0.179202 1.658817 -0.294552
0.181695 1.654779 -0.292937
0.184172 1.650737 -0.291320
0.186897 1.648534 -0.290439
0.188687 1.639884 -0.286978
0.190848 1.633994 -0.284622
0.193802 1.633621 -0.284472
0.195793 1.626805 -0.281745
0.198038 1.621827 -0.279754
0.200546 1.618685 -0.278497
0.203328 1.617377 -0.277973
0.206106 1.616065 -0.277448
0.209172 1.616585 -0.277657
0.211354 1.611591 -0.275659
0.208733 1.577218 -0.261907
0.211127 1.574063 -0.260644
0.214121 1.574574 -0.260849
0.218819 1.585171 -0.265088
0.220899 1.580167 -0.263087
0.224068 1.581579 -0.263651
0.226603 1.579319 -0.262747
0.228646 1.574306 -0.260742
0.230181 1.566544 -0.257636
0.232348 1.562444 -0.255996
0.234834 1.560173 -0.255088
0.236638 1.554238 -0.252713
0.239101 1.551961 -0.251802
0.241213 1.547851 -0.250158
0.243831 1.546482 -0.249610
0.246796 1.546937 -0.249792
0.249586 1.546473 -0.249606
0.253090 1.549659 -0.250881
0.254080 1.540053 -0.247038
0.257950 1.545055 -0.249039
0.259265 1.537272 -0.245925
0.258695 1.520366 -0.239162
0.258437 1.505291 -0.233131
0.261338 1.505720 -0.233302
0.265386 1.511613 -0.235660
0.269458 1.517497 -0.238014
0.270056 1.506978 -0.233805
0.269244 1.490088 -0.227048
0.272322 1.491408 -0.227577
0.277201 1.500911 -0.231378
0.282719 1.513131 -0.236267
0.283012 1.501699 -0.231694
0.288580 1.513901 -0.236575
0.290896 1.511552 -0.235636
0.288837 1.490129 -0.227065
0.287747 1.473257 -0.220314
0.289765 1.470004 -0.219013
0.291984 1.467657 -0.218074
0.293122 1.460772 -0.215320
0.294884 1.456608 -0.213654
0.297941 1.457878 -0.214162
0.301003 1.459143 -0.214668
0.303628 1.458592 -0.214447
0.304689 1.451701 -0.211691
0.306400 1.447525 -0.210020
0.308776 1.446060 -0.209434
0.310007 1.440073 -0.207038
0.311676 1.435893 -0.205366
0.314489 1.436227 -0.205500
0.316137 1.432043 -0.203826
0.318475 1.430564 -0.203234
0.320099 1.426376 -0.201559
0.321947 1.423089 -0.200244
0.323783 1.419800 -0.198928
0.325851 1.417410 -0.197972
0.328153 1.415918 -0.197375
0.329225 1.409922 -0.194976
0.330770 1.405726 -0.193297
0.333294 1.405126 -0.193057
0.336318 1.406320 -0.193535
0.340104 1.410204 -0.195089
-0.097474 2.169536 -0.504748
-0.092997 2.150156 -0.496940
-0.088638 2.132623 -0.489877
-0.084534 2.123428 -0.486173
-0.080484 2.115154 -0.482839
-0.076448 2.105946 -0.479130
-0.072509 2.100440 -0.476912
-0.068577 2.094001 -0.474318
-0.064658 2.086627 -0.471347
-0.060692 2.072755 -0.465759
-0.056884 2.070005 -0.464651
-0.053045 2.061685 -0.461299
-0.049252 2.056141 -0.459066
-0.045484 2.051519 -0.457204
-0.041728 2.044107 -0.454218
-0.038000 2.038545 -0.451977
-0.034303 2.027411 -0.447492
-0.030607 2.027402 -0.447488
-0.026926 2.024605 -0.446361
-0.023242 2.023656 -0.445979
-0.019238 2.057020 -0.459420
-0.015234 2.079247 -0.468374
-0.011367 2.084772 -0.470600
0.006921 2.052022 -0.457406
0.008713 1.972196 -0.425248
0.011964 1.959136 -0.419987
0.015270 1.949780 -0.416218
0.018039 1.923729 -0.405723
0.021629 1.926417 -0.406806
0.024602 1.910557 -0.400416
0.028576 1.924358 -0.405976
0.032183 1.927029 -0.407052
0.035654 1.925985 -0.406632
0.038699 1.914741 -0.402102
0.042264 1.916467 -0.402798
0.044369 1.885752 -0.390424
0.047974 1.889323 -0.391862
0.050639 1.873428 -0.385459
0.054046 1.873282 -0.385400
0.057110 1.866645 -0.382726
0.059998 1.857225 -0.378931
0.063322 1.856137 -0.378493
0.066210 1.847635 -0.375068
0.069121 1.840054 -0.372014
0.072350 1.838026 -0.371197
0.075631 1.836919 -0.370751
0.078664 1.832103 -0.368811
0.081490 1.824506 -0.365750
0.084547 1.820607 -0.364180
0.087854 1.820406 -0.364099
0.091093 1.819274 -0.363643
0.095095 1.828315 -0.367285
0.098417 1.828097 -0.367197
0.100713 1.814923 -0.361890
0.102660 1.798046 -0.355091
0.105158 1.788568 -0.351272
0.108091 1.784634 -0.349688
0.111571 1.787169 -0.350709
0.114815 1.786924 -0.350610
0.117139 1.776507 -0.346414
0.119850 1.770708 -0.344078
0.121495 1.753817 -0.337273
0.124499 1.751709 -0.336424
0.127586 1.750519 -0.335945
0.130946 1.752096 -0.336580
0.134971 1.760131 -0.339817
0.138644 1.764465 -0.341562
0.140577 1.752176 -0.336612
0.143556 1.750038 -0.335750
0.145922 1.742359 -0.332657
0.149699 1.747594 -0.334766
0.152137 1.740831 -0.332041
0.154763 1.735909 -0.330059
0.157911 1.735594 -0.329932
0.160619 1.731587 -0.328317
0.163982 1.733106 -0.328929
0.165539 1.719874 -0.323599
0.168657 1.719542 -0.323465
0.168507 1.693411 -0.312938
0.169681 1.678337 -0.306866
0.171879 1.671553 -0.304132
0.174784 1.670290 -0.303624
0.177067 1.664420 -0.301259
0.179328 1.658548 -0.298893
0.181695 1.653594 -0.296898
0.184430 1.651396 -0.296012
0.186766 1.646435 -0.294014
0.188952 1.640553 -0.291644
0.191384 1.636506 -0.290014
0.194074 1.634294 -0.289123
0.196343 1.629322 -0.287120
0.199012 1.627104 -0.286226
0.200968 1.620289 -0.283481
0.203185 1.615310 -0.281475
0.205529 1.611246 -0.279837
0.207712 1.606261 -0.277829
0.210615 1.605861 -0.277668
0.211275 1.591699 -0.271963
0.211429 1.574789 -0.265151
0.214886 1.578049 -0.266464
