# This PCD file was generated using the MATLAB® pcwrite function
# from Computer Vision System Toolbox®.
# .PCD v.7 - Point Cloud Data file format
VERSION .7
FIELDS x y z
SIZE 4 4 4
TYPE F F F
COUNT 1 1 1
WIDTH 1645
HEIGHT 1
VIEWPOINT 0 0 0 1 0 0 0
POINTS 1645
DATA ascii
-1.176783 1.723071 -0.649845
-1.178553 1.732148 -0.655286
-1.176726 1.736068 -0.657636
-1.173363 1.737770 -0.658656
-1.171516 1.741687 -0.661004
-1.168646 1.744121 -0.662463
-1.166274 1.747294 -0.664365
-1.164393 1.751207 -0.666711
-1.161500 1.753633 -0.668165
-1.159597 1.757543 -0.670509
-1.155197 1.757731 -0.670621
-1.153277 1.761636 -0.672962
-1.151345 1.765540 -0.675303
-1.148908 1.768697 -0.677195
-1.146461 1.771852 -0.679086
-1.142047 1.772013 -0.679183
-1.142026 1.778904 -0.683314
-1.137604 1.779055 -0.683404
-1.136579 1.784450 -0.686638
-1.133601 1.786842 -0.688072
-1.130617 1.789232 -0.689504
-1.130509 1.796131 -0.693640
-1.127503 1.798517 -0.695071
-1.123536 1.799391 -0.695595
-1.120045 1.801014 -0.696567
-1.118447 1.805652 -0.699348
-1.117306 1.811046 -0.702581
-1.113320 1.811902 -0.703094
-1.112151 1.817296 -0.706328
-1.108624 1.818901 -0.707290
-1.106025 1.822019 -0.709159
-1.102953 1.824374 -0.710571
-1.101264 1.829006 -0.713347
-1.100022 1.834399 -0.716580
-1.095539 1.834463 -0.716619
-1.093811 1.839093 -0.719394
-1.092068 1.843722 -0.722169
-1.090309 1.848351 -0.724944
-1.086718 1.849924 -0.725886
-1.084029 1.853021 -0.727743
-1.080880 1.855349 -0.729139
-1.079072 1.859973 -0.731910
-1.076801 1.863830 -0.734222
-1.075410 1.869220 -0.737453
-1.072666 1.872307 -0.739304
-1.068584 1.873084 -0.739770
-1.066709 1.877702 -0.742538
-1.263978 1.618501 -0.591907
-1.258034 1.616793 -0.590878
-1.256597 1.620740 -0.593256
-1.255147 1.624687 -0.595635
-1.254804 1.630055 -0.598869
-1.252211 1.632582 -0.600392
-1.249612 1.635107 -0.601913
-1.248116 1.639054 -0.604291
-1.245500 1.641574 -0.605809
-1.244534 1.646233 -0.608617
-1.241351 1.648035 -0.609702
-1.237615 1.649115 -0.610354
-1.232235 1.648040 -0.609705
-1.228502 1.649105 -0.610347
-1.225858 1.651601 -0.611851
-1.224293 1.655531 -0.614219
-1.224883 1.662342 -0.618323
-1.221667 1.664114 -0.619391
-1.218447 1.665881 -0.620456
-1.219522 1.673423 -0.625000
-1.216819 1.675910 -0.626498
-1.216781 1.682014 -0.630176
-1.213525 1.683773 -0.631236
-1.209203 1.684077 -0.631419
-1.205942 1.685825 -0.632473
-1.203207 1.688296 -0.633961
-1.202045 1.692948 -0.636764
-1.202971 1.700515 -0.641324
-1.200725 1.703713 -0.643251
-1.197424 1.705449 -0.644297
-1.193599 1.706449 -0.644899
-1.192371 1.711101 -0.647702
-1.189574 1.713557 -0.649182
-1.186770 1.716010 -0.650660
-1.182415 1.716256 -0.650808
-1.180116 1.719434 -0.652723
-1.179344 1.724818 -0.655967
-1.178553 1.730204 -0.659212
-1.173162 1.728958 -0.658461
-1.170318 1.731390 -0.659927
-1.168985 1.736035 -0.662726
-1.166628 1.739203 -0.664634
-1.164765 1.743108 -0.666988
-1.162387 1.746272 -0.668894
-1.160000 1.749434 -0.670799
-1.157105 1.751851 -0.672256
-1.152713 1.752035 -0.672367
-1.152287 1.758163 -0.676059
-1.150851 1.762806 -0.678856
-1.147923 1.765212 -0.680306
-1.147442 1.771346 -0.684002
-1.144004 1.773002 -0.685000
-1.142514 1.777644 -0.687796
-1.139550 1.780041 -0.689241
-1.136579 1.782434 -0.690683
-1.134084 1.785573 -0.692574
-1.129654 1.785708 -0.692656
-1.126667 1.788089 -0.694090
-1.124631 1.791970 -0.696429
-1.124968 1.799614 -0.701034
-1.121948 1.801989 -0.702466
-1.119869 1.805870 -0.704804
-1.116361 1.807485 -0.705777
-1.115204 1.812872 -0.709023
-1.112620 1.815992 -0.710903
-1.109091 1.817596 -0.711869
-1.105559 1.819194 -0.712832
-1.103883 1.823821 -0.715620
-1.101728 1.827689 -0.717951
-1.100022 1.832316 -0.720738
-1.097380 1.835422 -0.722610
-1.094729 1.838525 -0.724479
-1.091611 1.840864 -0.725889
-1.088031 1.842436 -0.726836
-1.086264 1.847056 -0.729620
-1.083577 1.850148 -0.731483
-1.082232 1.855531 -0.734726
-1.079522 1.858620 -0.736587
-1.077249 1.862472 -0.738908
-1.074071 1.864789 -0.740305
-1.071332 1.867870 -0.742161
-1.067254 1.868644 -0.742627
-1.265108 1.619224 -0.594167
-1.264796 1.624591 -0.597407
-1.262218 1.627130 -0.598940
-1.257390 1.626830 -0.598759
-1.253685 1.627940 -0.599429
-1.250538 1.629754 -0.600524
-1.251281 1.636543 -0.604623
-1.250335 1.641202 -0.607436
-1.248267 1.644438 -0.609389
-1.245638 1.646958 -0.610910
-1.242452 1.648759 -0.611998
-1.239262 1.650557 -0.613083
-1.237711 1.654498 -0.615463
-1.234509 1.656288 -0.616543
-1.231304 1.658074 -0.617621
-1.229725 1.662011 -0.619998
-1.229216 1.667387 -0.623244
-1.226529 1.669885 -0.624752
-1.223835 1.672379 -0.626258
-1.222208 1.676315 -0.628634
-1.218426 1.677359 -0.629264
-1.217850 1.682738 -0.632512
-1.215124 1.685223 -0.634012
-1.212391 1.687705 -0.635510
-1.209651 1.690183 -0.637006
-1.207963 1.694112 -0.639378
-1.204680 1.695857 -0.640432
-1.201394 1.697598 -0.641483
-1.198105 1.699334 -0.642531
-1.199514 1.707634 -0.647542
-1.196725 1.710098 -0.649029
-1.194969 1.714021 -0.651398
-1.191128 1.715015 -0.651998
-1.188320 1.717469 -0.653479
-1.186020 1.720652 -0.655401
-1.183711 1.723834 -0.657322
-1.180880 1.726279 -0.658798
-1.180084 1.731665 -0.662050
-1.176217 1.732632 -0.662634
-1.173871 1.735805 -0.664549
-1.169998 1.736761 -0.665127
-1.171169 1.745103 -0.670162
-1.167783 1.746793 -0.671183
-1.164393 1.748479 -0.672201
-1.162500 1.752383 -0.674558
-1.160594 1.756287 -0.676915
-1.157185 1.757962 -0.677926
-1.154268 1.760375 -0.679383
-1.149863 1.760552 -0.679490
-1.147923 1.764446 -0.681840
-1.146952 1.769831 -0.685092
-1.144983 1.773725 -0.687443
-1.143490 1.778366 -0.690244
-1.141009 1.781511 -0.692143
-1.139003 1.785403 -0.694492
-1.135051 1.786296 -0.695032
-1.132544 1.789433 -0.696925
-1.130028 1.792567 -0.698818
-1.127503 1.795700 -0.700709
-1.124968 1.798830 -0.702599
-1.124326 1.804969 -0.706305
-1.123188 1.810359 -0.709559
-1.118251 1.809714 -0.709170
-1.116617 1.814346 -0.711966
-1.112620 1.815199 -0.712481
-1.110495 1.819072 -0.714819
-1.107425 1.821429 -0.716242
-1.106207 1.826814 -0.719494
-1.102654 1.828408 -0.720456
-1.101407 1.833792 -0.723706
-1.098761 1.836899 -0.725582
-1.097022 1.841524 -0.728374
-1.093896 1.843865 -0.729787
-1.090764 1.846202 -0.731199
-1.087626 1.848535 -0.732607
-1.084934 1.851628 -0.734474
-1.083585 1.857010 -0.737723
-1.081768 1.861629 -0.740512
-1.078592 1.863951 -0.741914
-1.266238 1.617622 -0.601136
-1.260288 1.615923 -0.600102
-1.259969 1.621275 -0.603360
-1.258511 1.625216 -0.605760
-1.255363 1.627033 -0.606866
-1.252769 1.629554 -0.608402
-1.251281 1.633492 -0.610799
-1.249225 1.636719 -0.612765
-1.246054 1.638523 -0.613863
-1.245086 1.643170 -0.616692
-1.244654 1.648533 -0.619957
-1.243105 1.652471 -0.622355
-1.240449 1.654980 -0.623883
-1.237240 1.656770 -0.624973
-1.235117 1.659988 -0.626932
-1.232441 1.662487 -0.628454
-1.229216 1.664265 -0.629537
-1.228690 1.669632 -0.632805
-1.226528 1.672844 -0.634760
-1.223820 1.675334 -0.636276
-1.220034 1.676378 -0.636912
-1.216247 1.677415 -0.637544
-1.215124 1.682061 -0.640372
-1.215579 1.688878 -0.644523
-1.212301 1.690631 -0.645590
-1.206377 1.688753 -0.644447
-1.203099 1.690493 -0.645506
-1.202445 1.695861 -0.648775
-1.202297 1.701959 -0.652488
-1.198469 1.702964 -0.653100
-1.195162 1.704691 -0.654152
-1.191852 1.706414 -0.655200
-1.190610 1.711054 -0.658026
-1.189869 1.716426 -0.661297
-1.189110 1.721802 -0.664570
-1.184224 1.721316 -0.664275
-1.181904 1.724490 -0.666207
-1.176511 1.723255 -0.665455
-1.175199 1.727890 -0.668277
-1.173363 1.731791 -0.670652
-1.172022 1.736428 -0.673476
-1.169151 1.738853 -0.674953
-1.165771 1.740537 -0.675978
-1.163390 1.743693 -0.677900
-1.163000 1.749807 -0.681622
-1.163087 1.756664 -0.685797
-1.158179 1.756115 -0.685463
-1.155755 1.759267 -0.687382
-1.154309 1.763901 -0.690204
-1.151862 1.767049 -0.692121
-1.148915 1.769451 -0.693583
-1.146451 1.772595 -0.695497
-1.144466 1.776481 -0.697864
-1.142954 1.781113 -0.700684
-1.140457 1.784252 -0.702595
-1.135051 1.782902 -0.701773
-1.133026 1.786780 -0.704135
-1.131469 1.791407 -0.706952
-1.128460 1.793784 -0.708399
-1.127353 1.799160 -0.711673
-1.123850 1.800781 -0.712660
-1.120817 1.803150 -0.714102
-1.118251 1.806267 -0.716000
-1.116617 1.810888 -0.718814
-1.114498 1.814756 -0.721169
-1.111431 1.817113 -0.722604
-1.108357 1.819466 -0.724037
-1.104813 1.821059 -0.725007
-1.102191 1.824160 -0.726895
-1.098637 1.825744 -0.727859
-1.095999 1.828839 -0.729744
-1.096105 1.836486 -0.734400
-1.094353 1.841099 -0.737209
-1.091220 1.843432 -0.738629
-1.088534 1.846521 -0.740510
-1.274148 1.626952 -0.608225
-1.266487 1.623149 -0.605906
-1.262218 1.623565 -0.606159
-1.258511 1.624680 -0.606839
-1.255922 1.627204 -0.608379
-1.253884 1.630434 -0.610348
-1.252393 1.634372 -0.612749
-1.250335 1.637600 -0.614718
-1.248821 1.641537 -0.617119
-1.247294 1.645475 -0.619520
-1.243553 1.646562 -0.620183
-1.239811 1.647642 -0.620842
-1.239901 1.653717 -0.624546
-1.236694 1.655506 -0.625637
-1.233483 1.657290 -0.626725
-1.231354 1.660503 -0.628684
-1.227049 1.660843 -0.628891
-1.228150 1.668360 -0.633475
-1.224912 1.670131 -0.634555
-1.222208 1.672618 -0.636072
-1.221106 1.677263 -0.638905
-1.218384 1.679746 -0.640418
-1.217788 1.685114 -0.643692
-1.214516 1.686870 -0.644763
-1.211241 1.688621 -0.645830
-1.206906 1.688917 -0.646011
-1.204153 1.691382 -0.647514
-1.202445 1.695296 -0.649901
-1.200725 1.699211 -0.652288
-1.197947 1.701669 -0.653787
-1.194641 1.703395 -0.654839
-1.193930 1.708763 -0.658113
-1.192164 1.712674 -0.660498
-1.189869 1.715854 -0.662437
-1.186535 1.717568 -0.663482
-1.182170 1.717811 -0.663631
-1.181392 1.723181 -0.666905
-1.180084 1.727818 -0.669733
-1.178253 1.731722 -0.672114
-1.175901 1.734891 -0.674046
-1.171516 1.735111 -0.674180
-1.170160 1.739746 -0.677006
-1.168789 1.744382 -0.679833
-1.166399 1.747542 -0.681760
-1.166000 1.753657 -0.685489
-1.162090 1.754595 -0.686062
-1.159670 1.757750 -0.687985
-1.155755 1.758677 -0.688550
-1.152827 1.761082 -0.690017
-1.149400 1.762741 -0.691029
-1.145970 1.764395 -0.692037
-1.146941 1.772744 -0.697129
-1.143490 1.774394 -0.698135
-1.140036 1.776039 -0.699138
-1.137063 1.778425 -0.700593
-1.134568 1.781555 -0.702502
-1.133990 1.787676 -0.706234
-1.132910 1.793051 -0.709511
-1.130375 1.796179 -0.711419
-1.126876 1.797804 -0.712410
-1.123850 1.800175 -0.713856
-1.121292 1.803294 -0.715758
-1.119196 1.807163 -0.718117
-1.116617 1.810278 -0.720016
-1.114968 1.814897 -0.722834
-1.111431 1.816500 -0.723811
-1.109290 1.820362 -0.726166
-1.107137 1.824224 -0.728521
-1.103581 1.825814 -0.729491
-1.101869 1.830429 -0.732305
-1.098761 1.832770 -0.733732
-1.095646 1.835106 -0.735157
-1.092982 1.838198 -0.737042
-1.091220 1.842808 -0.739853
-1.088534 1.845896 -0.741736
-1.084934 1.847459 -0.742689
-1.264233 1.618444 -0.607971
-1.262218 1.621676 -0.609952
-1.260193 1.624908 -0.611933
-1.257041 1.626724 -0.613047
-1.254442 1.629243 -0.614591
-1.252393 1.632468 -0.616568
-1.249780 1.634982 -0.618109
-1.250481 1.641753 -0.622260
-1.245638 1.641422 -0.622057
-1.244654 1.646064 -0.624902
-1.240909 1.647144 -0.625565
-1.240449 1.652499 -0.628847
-1.237786 1.655000 -0.630380
-1.234572 1.656783 -0.631473
-1.233527 1.661424 -0.634318
-1.231383 1.664634 -0.636286
-1.230851 1.669994 -0.639572
-1.229222 1.673922 -0.641980
-1.225969 1.675692 -0.643065
-1.222713 1.677457 -0.644147
-1.219453 1.679218 -0.645226
-1.218321 1.683859 -0.648071
-1.215048 1.685613 -0.649146
-1.211771 1.687362 -0.650218
-1.207963 1.688382 -0.650844
-1.206261 1.692294 -0.653242
-1.204547 1.696206 -0.655640
-1.204393 1.702297 -0.659374
-1.202127 1.705484 -0.661327
-1.198288 1.706486 -0.661941
-1.195489 1.708938 -0.663445
-1.191646 1.709929 -0.664052
-1.188320 1.711643 -0.665103
-1.184475 1.712621 -0.665703
-1.183197 1.717251 -0.668541
-1.182416 1.722614 -0.671828
-1.183148 1.730179 -0.676466
-1.180798 1.733348 -0.678409
-1.176409 1.733577 -0.678549
-1.173034 1.735269 -0.679586
-1.170160 1.737691 -0.681071
-1.168789 1.742321 -0.683909
-1.164895 1.743263 -0.684486
-1.163000 1.747152 -0.686871
-1.159099 1.748085 -0.687442
-1.158179 1.753450 -0.690731
-1.156250 1.757336 -0.693113
-1.155790 1.763445 -0.696858
-1.154324 1.768074 -0.699696
-1.151370 1.770475 -0.701167
-1.147919 1.772129 -0.702181
-1.143978 1.773034 -0.702736
-1.143927 1.779891 -0.706940
-1.139972 1.780789 -0.707490
-1.137468 1.783919 -0.709409
-1.135435 1.787794 -0.711784
-1.131949 1.789424 -0.712784
-1.130375 1.794043 -0.715615
-1.128308 1.797914 -0.717988
-1.124801 1.799534 -0.718981
-1.121766 1.801899 -0.720431
-1.119669 1.805763 -0.722799
-1.117088 1.808874 -0.724706
-1.114968 1.812735 -0.727074
-1.112835 1.816596 -0.729440
-1.111622 1.821963 -0.732730
-1.109461 1.825823 -0.735096
-1.105434 1.826659 -0.735609
-1.103716 1.831270 -0.738435
-1.100601 1.833609 -0.739870
-1.278103 1.629360 -0.616288
-1.267050 1.621347 -0.611367
-1.264466 1.623877 -0.612921
-1.261875 1.626405 -0.614473
-1.258159 1.627516 -0.615155
-1.256115 1.630743 -0.617137
-1.251281 1.630428 -0.616943
-1.251445 1.636484 -0.620662
-1.249374 1.639706 -0.622640
-1.249502 1.645769 -0.626364
-1.246305 1.647568 -0.627469
-1.243654 1.650075 -0.629008
-1.239901 1.651153 -0.629670
-1.238332 1.655080 -0.632081
-1.234572 1.656148 -0.632737
-1.233527 1.660787 -0.635586
-1.230841 1.663279 -0.637116
-1.229230 1.667202 -0.639525
-1.225990 1.668971 -0.640611
-1.222208 1.670017 -0.641254
-1.221641 1.675374 -0.644543
-1.221056 1.680733 -0.647834
-1.219387 1.684654 -0.650241
-1.215579 1.685686 -0.650875
-1.212831 1.688158 -0.652393
-1.210076 1.690626 -0.653909
-1.207315 1.693091 -0.655423
-1.204022 1.694828 -0.656489
-1.201249 1.697286 -0.657998
-1.200037 1.701920 -0.660844
-1.200372 1.708737 -0.665030
-1.196528 1.709735 -0.665643
-1.193718 1.712185 -0.667147
-1.191419 1.715361 -0.669097
-1.189625 1.719265 -0.671495
-1.188332 1.723900 -0.674341
-1.186512 1.727804 -0.676738
-1.183658 1.730243 -0.678236
-1.180289 1.731944 -0.679280
-1.176409 1.732906 -0.679871
-1.173540 1.735332 -0.681361
-1.169655 1.736283 -0.681945
-1.169292 1.742382 -0.685690
-1.168907 1.748486 -0.689438
-1.166500 1.751641 -0.691376
-1.163585 1.754056 -0.692858
-1.160167 1.755727 -0.693885
-1.156250 1.756654 -0.694454
-1.154309 1.760537 -0.696838
-1.154817 1.768128 -0.701500
-1.151370 1.769787 -0.702518
-1.148409 1.772183 -0.703990
-1.145441 1.774576 -0.705459
-1.142954 1.777710 -0.707383
-1.140942 1.781587 -0.709764
-1.138917 1.785463 -0.712144
-1.138325 1.791578 -0.715899
-1.134350 1.792464 -0.716443
-1.132768 1.797085 -0.719281
-1.130216 1.800209 -0.721199
-1.128606 1.804829 -0.724036
-1.126507 1.808699 -0.726413
-1.122977 1.810315 -0.727405
-1.120385 1.813430 -0.729318
-1.118254 1.817294 -0.731691
-1.116110 1.821158 -0.734063
-1.113954 1.825020 -0.736435
-1.110391 1.826618 -0.737416
-1.106361 1.827455 -0.737930
-1.103254 1.829797 -0.739368
-1.101522 1.834405 -0.742198
-1.268741 1.621840 -0.615890
-1.263342 1.620850 -0.615279
-1.258511 1.620553 -0.615096
-1.258718 1.626598 -0.618824
-1.256115 1.629115 -0.620377
-1.253506 1.631629 -0.621928
-1.251445 1.634849 -0.623914
-1.249928 1.638776 -0.626336
-1.247294 1.641284 -0.627883
-1.244103 1.643078 -0.628989
-1.242007 1.646290 -0.630970
-1.238806 1.648076 -0.632072
-1.236694 1.651283 -0.634050
-1.236750 1.657344 -0.637789
-1.234613 1.660552 -0.639767
-1.232467 1.663758 -0.641745
-1.230851 1.667678 -0.644163
-1.227067 1.668731 -0.644812
-1.224895 1.671931 -0.646786
-1.222177 1.674410 -0.648315
-1.221056 1.679044 -0.651174
-1.217788 1.680799 -0.652256
-1.216111 1.684712 -0.654670
-1.215481 1.690069 -0.657974
-1.212718 1.692538 -0.659497
-1.209423 1.694281 -0.660571
-1.205073 1.694570 -0.660750
-1.202297 1.697026 -0.662265
-1.200037 1.700205 -0.664225
-1.199331 1.705561 -0.667529
-1.196528 1.708011 -0.669040
-1.195272 1.712641 -0.671896
-1.192969 1.715816 -0.673854
-1.190140 1.718258 -0.675361
-1.186792 1.719967 -0.676415
-1.181904 1.719478 -0.676113
-1.179063 1.721907 -0.677611
-1.178253 1.727262 -0.680914
-1.177424 1.732620 -0.684219
-1.174046 1.734310 -0.685262
-1.173187 1.739670 -0.688567
-1.170801 1.742825 -0.690513
-1.171414 1.750396 -0.695183
-1.168500 1.752814 -0.696675
-1.165081 1.754491 -0.697709
-1.161161 1.755424 -0.698285
-1.158728 1.758569 -0.700224
-1.156778 1.762451 -0.702619
-1.152354 1.762629 -0.702729
-1.151861 1.768731 -0.706492
-1.149387 1.771867 -0.708427
-1.146417 1.774258 -0.709902
-1.144413 1.778134 -0.712292
-1.141912 1.781263 -0.714222
-1.139884 1.785136 -0.716611
-1.137844 1.789008 -0.718999
-1.134830 1.791385 -0.720466
-1.134204 1.797496 -0.724235
-1.131171 1.799869 -0.725699
-1.129082 1.803737 -0.728084
-1.124610 1.803856 -0.728158
-1.122977 1.808468 -0.731002
-1.119443 1.810077 -0.731995
-1.117785 1.814687 -0.734838
-1.113771 1.815536 -0.735362
-1.111156 1.818637 -0.737275
-1.109926 1.823997 -0.740580
-1.106824 1.826341 -0.742026
-1.270995 1.624003 -0.618914
-1.266714 1.624424 -0.619174
-1.263557 1.626246 -0.620300
-1.257600 1.624537 -0.619244
-1.256673 1.629170 -0.622106
-1.254619 1.632390 -0.624097
-1.253664 1.637025 -0.626961
-1.250481 1.638828 -0.628074
-1.248398 1.642045 -0.630062
-1.245204 1.643840 -0.631171
-1.244203 1.648474 -0.634034
-1.242639 1.652398 -0.636459
-1.240516 1.655609 -0.638443
-1.237295 1.657392 -0.639545
-1.236243 1.662028 -0.642409
-1.233550 1.664519 -0.643949
-1.231391 1.667724 -0.645929
-1.228145 1.669493 -0.647022
-1.225432 1.671975 -0.648556
-1.223785 1.675891 -0.650975
-1.222659 1.680525 -0.653839
-1.219920 1.683002 -0.655369
-1.218236 1.686916 -0.657788
-1.216011 1.690109 -0.659761
-1.211133 1.689689 -0.659501
-1.208896 1.692874 -0.661469
-1.207174 1.696782 -0.663884
-1.207013 1.702863 -0.667641
-1.204217 1.705321 -0.669160
-1.200894 1.707050 -0.670229
-1.198086 1.709501 -0.671743
-1.196826 1.714132 -0.674604
-1.195035 1.718035 -0.677016
-1.193230 1.721938 -0.679428
-1.186278 1.718541 -0.677329
-1.186512 1.725359 -0.681541
-1.183148 1.727062 -0.682594
-1.181307 1.730956 -0.685000
-1.178439 1.733384 -0.686500
-1.175564 1.735808 -0.687998
-1.173187 1.738964 -0.689948
-1.172310 1.744323 -0.693259
-1.169910 1.747477 -0.695208
-1.166000 1.748418 -0.695790
-1.163087 1.750828 -0.697279
-1.160664 1.753972 -0.699222
-1.157241 1.755637 -0.700250
-1.155790 1.760255 -0.703103
-1.154817 1.765614 -0.706415
-1.154806 1.772457 -0.710643
-1.152324 1.775597 -0.712583
-1.149832 1.778734 -0.714522
-1.145872 1.779639 -0.715081
-1.143851 1.783513 -0.717475
-1.142784 1.788876 -0.720789
-1.139771 1.791259 -0.722261
-1.135311 1.791401 -0.722348
-1.132290 1.793774 -0.723815
-1.129739 1.796891 -0.725741
-1.127655 1.800755 -0.728128
-1.125084 1.803868 -0.730052
-1.122031 1.806229 -0.731511
-1.117088 1.805585 -0.731113
-1.117315 1.813193 -0.735814
-1.114707 1.816297 -0.737732
-1.114420 1.823161 -0.741973
-1.111320 1.825509 -0.743424
-1.272686 1.624532 -0.623340
-1.268400 1.624955 -0.623602
-1.266360 1.628184 -0.625607
-1.262073 1.628595 -0.625861
-1.259462 1.631113 -0.627424
-1.255175 1.631510 -0.627670
-1.253664 1.635433 -0.630105
-1.251034 1.637941 -0.631661
-1.249502 1.641864 -0.634095
-1.250709 1.649333 -0.638730
-1.246948 1.650419 -0.639404
-1.243187 1.651498 -0.640074
-1.239970 1.653283 -0.641182
-1.239474 1.658626 -0.644498
-1.236786 1.661119 -0.646044
-1.234092 1.663609 -0.647589
-1.230310 1.664665 -0.648245
-1.228683 1.668578 -0.650673
-1.225969 1.671058 -0.652212
-1.225392 1.676405 -0.655530
-1.223728 1.680318 -0.657958
-1.220453 1.682074 -0.659048
-1.217173 1.683825 -0.660135
-1.214421 1.686292 -0.661666
-1.211662 1.688755 -0.663194
-1.212057 1.695548 -0.667410
-1.209276 1.698010 -0.668937
-1.206489 1.700468 -0.670463
-1.203694 1.702923 -0.671986
-1.201415 1.706100 -0.673958
-1.200684 1.711453 -0.677279
-1.197344 1.713175 -0.678348
-1.196584 1.718529 -0.681671
-1.193230 1.720245 -0.682735
-1.189873 1.721956 -0.683797
-1.188048 1.725851 -0.686214
-1.186211 1.729746 -0.688631
-1.183343 1.732177 -0.690140
-1.182499 1.737534 -0.693464
-1.179106 1.739229 -0.694516
-1.175205 1.740185 -0.695109
-1.172813 1.743338 -0.697066
-1.169910 1.745753 -0.698565
-1.168000 1.749637 -0.700975
-1.165081 1.752047 -0.702470
-1.161658 1.753716 -0.703506
-1.157737 1.754641 -0.704080
-1.156284 1.759255 -0.706943
-1.154324 1.763129 -0.709347
-1.153333 1.768483 -0.712670
-1.150856 1.771617 -0.714614
-1.149832 1.776973 -0.717938
-1.146845 1.779362 -0.719421
-1.143851 1.781747 -0.720901
-1.141817 1.785616 -0.723302
-1.139289 1.788739 -0.725240
-1.136271 1.791115 -0.726714
-1.135640 1.797217 -0.730501
-1.133079 1.800336 -0.732436
-1.130985 1.804200 -0.734834
-1.125084 1.802077 -0.733517
-1.122977 1.805933 -0.735910
-1.122269 1.812037 -0.739697
-1.121071 1.817393 -0.743021
-1.268963 1.624999 -0.625337
-1.266921 1.628228 -0.627344
-1.264869 1.631455 -0.629350
-1.260577 1.631861 -0.629603
-1.258513 1.635083 -0.631606
-1.254219 1.635476 -0.631850
-1.251588 1.637984 -0.633409
-1.250054 1.641905 -0.635847
-1.247406 1.644408 -0.637403
-1.245301 1.647618 -0.639398
-1.242639 1.650116 -0.640951
-1.242701 1.656168 -0.644713
-1.240563 1.659376 -0.646708
-1.240588 1.665434 -0.650474
-1.235717 1.665073 -0.650249
-1.233552 1.668275 -0.652240
-1.230839 1.670760 -0.653785
-1.228656 1.673958 -0.655773
-1.225392 1.675721 -0.656869
-1.222659 1.678196 -0.658408
-1.219387 1.679950 -0.659498
-1.217173 1.683137 -0.661479
-1.213891 1.684883 -0.662564
-1.211133 1.687344 -0.664095
-1.208896 1.690524 -0.666071
-1.208751 1.696593 -0.669844
-1.205441 1.698326 -0.670921
-1.206829 1.706571 -0.676047
-1.206625 1.712650 -0.679826
-1.202762 1.713654 -0.680451
-1.197863 1.713199 -0.680168
-1.194518 1.714916 -0.681235
-1.191685 1.717355 -0.682751
-1.190387 1.721978 -0.685625
-1.186000 1.722225 -0.685778
-1.183658 1.725384 -0.687743
-1.180289 1.727080 -0.688797
-1.177424 1.729502 -0.690303
-1.176576 1.734851 -0.693628
-1.175205 1.739469 -0.696499
-1.172813 1.742621 -0.698458
-1.169408 1.744300 -0.699502
-1.167500 1.748181 -0.701915
-1.164084 1.749853 -0.702954
-1.162652 1.754467 -0.705822
-1.162196 1.760558 -0.709609
-1.160730 1.765175 -0.712479
-1.158756 1.769055 -0.714891
-1.154806 1.769973 -0.715462
-1.151834 1.772367 -0.716950
-1.149832 1.776239 -0.719357
-1.147331 1.779369 -0.721303
-1.145305 1.783239 -0.723709
-1.142784 1.786365 -0.725652
-1.140252 1.789488 -0.727594
-1.136751 1.791119 -0.728608
-1.134204 1.794237 -0.730546
-1.131648 1.797352 -0.732482
-1.128606 1.799717 -0.733953
-1.126507 1.803574 -0.736350
-1.125812 1.809676 -0.740144
-1.123682 1.813533 -0.742542
-1.120601 1.815890 -0.744007
-1.274021 1.629925 -0.632006
-1.269724 1.630348 -0.632270
-1.266547 1.632169 -0.633406
-1.263366 1.633986 -0.634540
-1.260182 1.635798 -0.635671
-1.258103 1.639017 -0.637679
-1.253248 1.638702 -0.637483
-1.250054 1.640499 -0.638604
-1.247406 1.642999 -0.640164
-1.245301 1.646206 -0.642165
-1.244829 1.651541 -0.645494
-1.243247 1.655457 -0.647938
-1.241108 1.658663 -0.649938
-1.237329 1.659729 -0.650604
-1.234092 1.661503 -0.651710
-1.235713 1.669697 -0.656823
-1.232994 1.672182 -0.658374
-1.230268 1.674665 -0.659923
-1.225928 1.674995 -0.660130
-1.224262 1.678903 -0.662568
-1.222584 1.682811 -0.665006
-1.219299 1.684563 -0.666099
-1.216540 1.687029 -0.667638
-1.211662 1.686611 -0.667377
-1.213638 1.695556 -0.672960
-1.208751 1.695129 -0.672693
-1.209108 1.701918 -0.676929
-1.204739 1.702203 -0.677107
-1.203499 1.706825 -0.679991
-1.200164 1.708548 -0.681066
-1.198899 1.713169 -0.683950
-1.196068 1.715612 -0.685474
-1.194776 1.720233 -0.688358
-1.193981 1.725583 -0.691696
-1.192657 1.730208 -0.694582
-1.188253 1.730456 -0.694737
-1.185379 1.732887 -0.696253
-1.179454 1.730928 -0.695031
-1.180118 1.738470 -0.699737
-1.178232 1.742356 -0.702162
-1.175831 1.745508 -0.704129
-1.172417 1.747191 -0.705179
-1.168000 1.747398 -0.705309
-1.166576 1.752011 -0.708187
-1.165634 1.757360 -0.711525
-1.163187 1.760501 -0.713485
-1.159742 1.762165 -0.714523
-1.157771 1.766038 -0.716940
-1.154806 1.768433 -0.718434
-1.151834 1.770824 -0.719926
-1.149832 1.774692 -0.722340
-1.147331 1.777819 -0.724291
-1.145790 1.782427 -0.727166
-1.143267 1.785550 -0.729115
-1.140734 1.788671 -0.731062
-1.138672 1.792534 -0.733473
-1.137076 1.797140 -0.736347
-1.134034 1.799510 -0.737826
-1.131460 1.802623 -0.739769
-1.130773 1.808722 -0.743574
-1.267276 1.620129 -0.629445
-1.268042 1.626858 -0.633659
-1.266547 1.630783 -0.636117
-1.262808 1.631894 -0.636813
-1.260738 1.635112 -0.638828
-1.255883 1.634803 -0.638635
-1.255461 1.640132 -0.641972
-1.252813 1.642637 -0.643541
-1.251260 1.646554 -0.645995
-1.249144 1.649763 -0.648004
-1.247020 1.652970 -0.650013
-1.245431 1.656886 -0.652466
-1.241652 1.657959 -0.653138
-1.238959 1.660448 -0.654697
-1.236800 1.663647 -0.656700
-1.234092 1.666131 -0.658256
-1.231916 1.669326 -0.660257
-1.228656 1.671090 -0.661362
-1.225928 1.673564 -0.662911
-1.224797 1.678184 -0.665805
-1.221518 1.679937 -0.666903
-1.219299 1.683121 -0.668897
-1.217070 1.686303 -0.670890
-1.216418 1.691643 -0.674234
-1.215219 1.696265 -0.677129
-1.212955 1.699446 -0.679121
-1.210156 1.701903 -0.680660
-1.208397 1.705802 -0.683102
-1.205062 1.707531 -0.684185
-1.202762 1.710703 -0.686171
-1.199935 1.713148 -0.687703
-1.198650 1.717767 -0.690596
-1.195291 1.719481 -0.691670
-1.193468 1.723373 -0.694107
-1.193169 1.729447 -0.697911
-1.190806 1.732610 -0.699892
-1.185379 1.731395 -0.699131
-1.182499 1.733820 -0.700650
-1.181636 1.739166 -0.703998
-1.177728 1.740123 -0.704597
-1.175831 1.744004 -0.707028
-1.173922 1.747884 -0.709458
-1.174000 1.754699 -0.713727
-1.169567 1.754908 -0.713857
-1.165634 1.755843 -0.714443
-1.163187 1.758981 -0.716408
-1.162212 1.764327 -0.719757
-1.159248 1.766725 -0.721259
-1.155788 1.768381 -0.722296
-1.152324 1.770032 -0.723330
-1.152759 1.777596 -0.728067
-1.149276 1.779243 -0.729098
-1.146275 1.781625 -0.730590
-1.143267 1.784004 -0.732080
-1.141698 1.788607 -0.734963
-1.140113 1.793210 -0.737846
-1.138034 1.797070 -0.740264
-1.136420 1.801674 -0.743147
-1.280766 1.634577 -0.644594
-1.267481 1.623800 -0.637801
-1.266547 1.628418 -0.640712
-1.263366 1.630230 -0.641854
-1.260738 1.632740 -0.643436
-1.258103 1.635247 -0.645016
-1.254908 1.637046 -0.646150
-1.254469 1.642368 -0.649504
-1.251260 1.644162 -0.650634
-1.250242 1.648779 -0.653544
-1.245924 1.649151 -0.653779
-1.244885 1.653767 -0.656688
-1.241108 1.654837 -0.657362
-1.238959 1.658032 -0.659376
-1.236259 1.660514 -0.660940
-1.233552 1.662993 -0.662502
-1.230300 1.664756 -0.663613
-1.228119 1.667941 -0.665621
-1.227000 1.672553 -0.668527
-1.225331 1.676451 -0.670984
-1.223650 1.680349 -0.673441
-1.219830 1.681381 -0.674091
-1.217070 1.683841 -0.675642
-1.215889 1.688453 -0.678548
-1.213638 1.691627 -0.680549
-1.211904 1.695520 -0.683002
-1.207537 1.695810 -0.683185
-1.205784 1.699698 -0.685635
-1.202456 1.701420 -0.686721
-1.200684 1.705306 -0.689169
-1.199935 1.710638 -0.692530
-1.196584 1.712351 -0.693610
-1.194260 1.715510 -0.695601
-1.190387 1.716489 -0.696217
-1.187536 1.718915 -0.697746
-1.187232 1.724974 -0.701565
-1.185379 1.728853 -0.704010
-1.182499 1.731274 -0.705535
-1.180118 1.734420 -0.707519
-1.176719 1.736104 -0.708580
-1.175328 1.740708 -0.711481
-1.173922 1.745312 -0.714383
-1.172000 1.749185 -0.716824
-1.168072 1.750124 -0.717415
-1.165634 1.753258 -0.719391
-1.163682 1.757125 -0.721828
-1.160236 1.758785 -0.722874
-1.158264 1.762648 -0.725309
-1.157261 1.767985 -0.728672
-1.153792 1.769635 -0.729712
-1.152271 1.774234 -0.732611
-1.149276 1.776616 -0.734112
-1.146760 1.779734 -0.736077
-1.144717 1.783590 -0.738507
-1.142661 1.787446 -0.740937
-1.141073 1.792043 -0.743834
-1.275708 1.627370 -0.642384
-1.270285 1.626394 -0.641767
-1.265988 1.626808 -0.642029
-1.260577 1.625811 -0.641399
-1.257400 1.627612 -0.642537
-1.258658 1.635036 -0.647227
-1.257675 1.639652 -0.650143
-1.255021 1.642154 -0.651724
-1.252361 1.644653 -0.653302
-1.248046 1.645029 -0.653540
-1.247020 1.649642 -0.656454
-1.245978 1.654256 -0.659369
-1.242741 1.656036 -0.660494
-1.239502 1.657812 -0.661615
-1.235717 1.658872 -0.662285
-1.233011 1.661348 -0.663849
-1.235687 1.670943 -0.669911
-1.232417 1.672708 -0.671026
-1.231286 1.677324 -0.673942
-1.226934 1.677653 -0.674150
-1.224715 1.680835 -0.676161
-1.222487 1.684016 -0.678170
-1.220250 1.687196 -0.680179
-1.217474 1.689655 -0.681733
-1.214692 1.692112 -0.683284
-1.210853 1.693126 -0.683925
-1.209633 1.697735 -0.686837
-1.208397 1.702345 -0.689749
-1.207146 1.706955 -0.692662
-1.204320 1.709400 -0.694206
-1.203043 1.714012 -0.697120
-1.200200 1.716452 -0.698661
-1.197866 1.719614 -0.700659
-1.196036 1.723499 -0.703113
-1.192145 1.724479 -0.703732
-1.190806 1.729087 -0.706644
-1.186906 1.730058 -0.707257
-1.183514 1.731751 -0.708326
-1.180118 1.733439 -0.709393
-1.179242 1.738771 -0.712761
-1.177340 1.742645 -0.715208
-1.175426 1.746517 -0.717655
-1.172500 1.748925 -0.719176
-1.169567 1.751330 -0.720695
-1.166628 1.753730 -0.722212
-1.165169 1.758331 -0.725118
-1.163694 1.762932 -0.728025
-1.159741 1.763854 -0.728608
-1.156770 1.766244 -0.730117
-1.153792 1.768629 -0.731624
-1.151784 1.772487 -0.734061
-1.148304 1.774128 -0.735098
-1.146760 1.778721 -0.738000
-1.144233 1.781835 -0.739967
-1.140734 1.783465 -0.740997
-1.139633 1.788797 -0.744365
-1.274021 1.623914 -0.643678
-1.270285 1.625035 -0.644388
-1.267106 1.626849 -0.645538
-1.263924 1.628658 -0.646685
-1.260182 1.629761 -0.647385
-1.257548 1.632263 -0.648971
-1.257122 1.637576 -0.652339
-1.255021 1.640779 -0.654370
-1.251810 1.642570 -0.655506
-1.248046 1.643651 -0.656191
-1.249757 1.651793 -0.661353
-1.246524 1.653577 -0.662484
-1.243286 1.655356 -0.663612
-1.239502 1.656421 -0.664287
-1.237884 1.660319 -0.666759
-1.234632 1.662085 -0.667878
-1.235149 1.668827 -0.672153
-1.231880 1.670590 -0.673270
-1.230750 1.675200 -0.676193
-1.230140 1.680524 -0.679569
-1.226847 1.682279 -0.680682
-1.223550 1.684029 -0.681791
-1.220780 1.686491 -0.683352
-1.217474 1.688232 -0.684455
-1.217327 1.694275 -0.688287
-1.213480 1.695292 -0.688932
-1.211205 1.698461 -0.690941
-1.209442 1.702348 -0.693405
-1.208188 1.706956 -0.696327
-1.205879 1.710122 -0.698334
-1.202007 1.711118 -0.698966
-1.198134 1.712108 -0.699593
-1.197351 1.717436 -0.702971
-1.196549 1.722766 -0.706350
-1.194193 1.725922 -0.708351
-1.191316 1.728350 -0.709890
-1.187925 1.730047 -0.710967
-1.183514 1.730284 -0.711117
-1.180118 1.731970 -0.712186
-1.178232 1.735839 -0.714639
-1.178849 1.743357 -0.719405
-1.174925 1.744305 -0.720006
-1.172000 1.746710 -0.721531
-1.169069 1.749111 -0.723053
-1.167622 1.753707 -0.725967
-1.166159 1.758304 -0.728882
-1.165175 1.763636 -0.732263
-1.162203 1.766030 -0.733780
-1.159224 1.768421 -0.735296
-1.155260 1.769334 -0.735875
-1.152271 1.771716 -0.737385
-1.149763 1.774832 -0.739360
-1.148699 1.780161 -0.742739
-1.274209 1.628860 -0.649547
-1.268784 1.627880 -0.648924
-1.264481 1.628289 -0.649184
-1.260182 1.628691 -0.649440
-1.256993 1.630489 -0.650583
-1.258782 1.638608 -0.655745
-1.257229 1.642514 -0.658229
-1.252361 1.642194 -0.658025
-1.250791 1.646096 -0.660506
-1.248115 1.648586 -0.662089
-1.245978 1.651780 -0.664120
-1.244375 1.655680 -0.666599
-1.241675 1.658163 -0.668178
-1.241134 1.663480 -0.671558
-1.235713 1.662410 -0.670878
-1.234610 1.667015 -0.673805
-1.232417 1.670198 -0.675829
-1.232358 1.676230 -0.679664
-1.228003 1.676560 -0.679874
-1.230577 1.686166 -0.685981
-1.226207 1.686490 -0.686187
-1.222370 1.687522 -0.686843
-1.216946 1.686398 -0.686129
-1.216273 1.691718 -0.689511
-1.215582 1.697041 -0.692895
-1.212776 1.699492 -0.694454
-1.209442 1.701220 -0.695552
-1.205583 1.702222 -0.696189
-1.203801 1.706103 -0.698657
-1.203561 1.712148 -0.702500
-1.200716 1.714585 -0.704049
-1.198381 1.717742 -0.706056
-1.193981 1.718000 -0.706221
-1.193681 1.724049 -0.710067
-1.190806 1.726475 -0.711609
-1.187415 1.728170 -0.712687
-1.183514 1.729133 -0.713299
-1.182648 1.734457 -0.716684
-1.181260 1.739055 -0.719607
-1.179855 1.743654 -0.722531
-1.177432 1.746794 -0.724527
-1.173500 1.747738 -0.725128
-1.169069 1.747945 -0.725259
-1.168119 1.753270 -0.728644
-1.164673 1.754932 -0.729701
-1.163694 1.760258 -0.733087
-1.162695 1.765585 -0.736474
-1.159715 1.767975 -0.737993
-1.156728 1.770360 -0.739510
-1.153735 1.772742 -0.741024
-1.152681 1.778070 -0.744412
-1.272527 1.625339 -0.650940
-1.268784 1.626454 -0.651651
-1.267270 1.630362 -0.654145
-1.264076 1.632168 -0.655298
-1.263096 1.636775 -0.658237
-1.259889 1.638575 -0.659386
-1.256677 1.640371 -0.660532
-1.252911 1.641458 -0.661225
-1.250791 1.644652 -0.663264
-1.248115 1.647139 -0.664851
-1.247070 1.651742 -0.667788
-1.244375 1.654225 -0.669373
-1.241675 1.656706 -0.670956
-1.238967 1.659183 -0.672537
-1.238954 1.665204 -0.676379
-1.236765 1.668389 -0.678411
-1.233492 1.670150 -0.679535
-1.230215 1.671906 -0.680656
-1.227468 1.674371 -0.682228
-1.226847 1.679685 -0.685620
-1.225144 1.683574 -0.688101
-1.221310 1.684603 -0.688758
-1.218531 1.687058 -0.690324
-1.215219 1.688792 -0.691431
-1.215582 1.695542 -0.695739
-1.212776 1.697990 -0.697301
-1.210487 1.701154 -0.699320
-1.208188 1.704316 -0.701337
-1.206398 1.708196 -0.703813
-1.202525 1.709191 -0.704448
-1.201233 1.713789 -0.707383
-1.199926 1.718389 -0.710318
-1.197063 1.720819 -0.711869
-1.194193 1.723246 -0.713417
-1.195401 1.731468 -0.718664
-1.190979 1.731717 -0.718823
-1.189097 1.735590 -0.721294
-1.185179 1.736554 -0.721910
-1.184791 1.742606 -0.725772
-1.180358 1.742834 -0.725917
-1.178435 1.746700 -0.728384
-1.173500 1.746185 -0.728056
-1.174054 1.753700 -0.732851
-1.170107 1.754637 -0.733449
-1.167646 1.757765 -0.735445
-1.164681 1.760157 -0.736972
-1.165158 1.767682 -0.741773
-1.163642 1.772275 -0.744705
-1.271966 1.623580 -0.652519
-1.267665 1.623995 -0.652784
-1.267828 1.629995 -0.656624
-1.264632 1.631801 -0.657779
-1.262542 1.635003 -0.659828
-1.259335 1.636801 -0.660979
-1.257781 1.640702 -0.663475
-1.255663 1.643899 -0.665520
-1.252438 1.645687 -0.666664
-1.250305 1.648879 -0.668707
-1.249254 1.653481 -0.671652
-1.246554 1.655966 -0.673242
-1.243304 1.657741 -0.674378
-1.242759 1.663050 -0.677775
-1.241115 1.666945 -0.680268
-1.238920 1.670131 -0.682306
-1.235103 1.671184 -0.682980
-1.232358 1.673652 -0.684559
-1.229606 1.676118 -0.686137
-1.228446 1.680718 -0.689081
-1.226739 1.684606 -0.691569
-1.226079 1.689923 -0.694971
-1.222759 1.691667 -0.696087
-1.218908 1.692691 -0.696742
-1.215582 1.694424 -0.697851
-1.213300 1.697588 -0.699876
-1.213099 1.703623 -0.703737
-1.209230 1.704629 -0.704381
-1.205879 1.706348 -0.705481
-1.202525 1.708062 -0.706578
-1.199684 1.710493 -0.708133
-1.197351 1.713643 -0.710149
-1.195522 1.717513 -0.712625
-1.193169 1.720659 -0.714638
-1.191316 1.724528 -0.717114
-1.189452 1.728396 -0.719589
-1.188589 1.733715 -0.722993
-1.185685 1.736130 -0.724538
-1.183278 1.739269 -0.726547
-1.181867 1.743863 -0.729486
-1.179940 1.747728 -0.731959
-1.178500 1.752322 -0.734899
-1.177543 1.757647 -0.738307
-1.173089 1.757858 -0.738441
-1.165664 1.753671 -0.735762
-1.162706 1.756058 -0.737290
-1.162695 1.762841 -0.741630
-1.284301 1.637744 -0.664578
-1.269902 1.625618 -0.656796
-1.267270 1.628124 -0.658404
-1.263519 1.629228 -0.659113
-1.260322 1.631025 -0.660267
-1.258782 1.634921 -0.662767
-1.257229 1.638817 -0.665268
-1.256764 1.644119 -0.668670
-1.254635 1.647313 -0.670720
-1.249757 1.646985 -0.670510
-1.247070 1.649468 -0.672103
-1.249277 1.658299 -0.677771
-1.246020 1.660076 -0.678912
-1.243842 1.663263 -0.680957
-1.239494 1.663615 -0.681183
-1.238920 1.668923 -0.684590
-1.236178 1.671394 -0.686176
-1.235037 1.675994 -0.689128
-1.230675 1.676327 -0.689342
-1.225781 1.675940 -0.689093
-1.225676 1.681959 -0.692957
-1.223429 1.685129 -0.694991
-1.221702 1.689011 -0.697483
-1.218908 1.691463 -0.699056
-1.215582 1.693195 -0.700168
-1.212776 1.695639 -0.701737
-1.211532 1.700232 -0.704685
-1.210793 1.705545 -0.708095
-1.207957 1.707984 -0.709660
-1.205115 1.710420 -0.711224
-1.201750 1.712132 -0.712322
-1.199411 1.715282 -0.714344
-1.198603 1.720596 -0.717754
-1.196241 1.723744 -0.719775
-1.193869 1.726890 -0.721794
-1.189961 1.727861 -0.722417
-1.186559 1.729550 -0.723501
-1.183154 1.731235 -0.724583
-1.180251 1.733641 -0.726127
-1.179352 1.738953 -0.729536
-1.177934 1.743539 -0.732480
-1.177500 1.749584 -0.736360
-1.173555 1.750526 -0.736964
-1.173089 1.756573 -0.740845
-1.170123 1.758968 -0.742383
-1.166657 1.760629 -0.743448
-1.163188 1.762284 -0.744511
-1.267665 1.621706 -0.657129
-1.264481 1.623508 -0.658289
-1.262963 1.627402 -0.660796
-1.264206 1.634794 -0.665554
-1.262655 1.638692 -0.668063
-1.261092 1.642591 -0.670572
-1.257315 1.643682 -0.671274
-1.255184 1.646874 -0.673329
-1.253043 1.650066 -0.675384
-1.251985 1.654664 -0.678343
-1.252000 1.660675 -0.682212
-1.248736 1.662454 -0.683357
-1.246009 1.664935 -0.684955
-1.242196 1.665998 -0.685639
-1.240536 1.669888 -0.688143
-1.238865 1.673778 -0.690646
-1.233430 1.672698 -0.689951
-1.233346 1.678714 -0.693824
-1.230577 1.681178 -0.695410
-1.228333 1.684350 -0.697452
-1.226609 1.688234 -0.699951
-1.223287 1.689976 -0.701073
-1.221543 1.693857 -0.703571
-1.218209 1.695592 -0.704687
-1.214872 1.697321 -0.705801
-1.212577 1.700480 -0.707834
-1.210272 1.703637 -0.709866
-1.211074 1.711102 -0.714671
-1.208223 1.713541 -0.716241
-1.205882 1.716696 -0.718271
-1.199926 1.714803 -0.717053
-1.199630 1.720835 -0.720936
-1.199313 1.726871 -0.724821
-1.196422 1.729296 -0.726382
-1.194542 1.733165 -0.728872
-1.191635 1.735584 -0.730429
-1.188215 1.737275 -0.731517
-1.185296 1.739686 -0.733070
-1.181364 1.740641 -0.733684
-1.178937 1.743771 -0.735699
-1.178500 1.749812 -0.739587
-1.176546 1.753670 -0.742071
-1.174083 1.756798 -0.744084
-1.170619 1.758463 -0.745156
-1.283740 1.634778 -0.668416
-1.275494 1.630334 -0.665547
-1.268943 1.627962 -0.664016
-1.269082 1.633953 -0.667884
-1.267535 1.637853 -0.670401
-1.265422 1.641053 -0.672467
-1.260540 1.640749 -0.672270
-1.256764 1.641838 -0.672973
-1.254635 1.645027 -0.675032
-1.253590 1.649621 -0.677997
-1.252531 1.654216 -0.680964
-1.251456 1.658813 -0.683931
-1.249279 1.662001 -0.685989
-1.247093 1.665187 -0.688046
-1.243276 1.666251 -0.688732
-1.239998 1.668016 -0.689871
-1.236178 1.669067 -0.690550
-1.233430 1.671531 -0.692141
-1.230675 1.673992 -0.693729
-1.227913 1.676449 -0.695316
-1.226207 1.680327 -0.697819
-1.226079 1.686342 -0.701701
-1.225401 1.691648 -0.705127
-1.224177 1.696243 -0.708093
-1.221888 1.699409 -0.710137
-1.215396 1.696849 -0.708484
-1.213099 1.700006 -0.710522
-1.211314 1.703878 -0.713021
-1.208477 1.706314 -0.714594
-1.208223 1.712340 -0.718484
-1.205882 1.715492 -0.720518
-1.202501 1.717202 -0.721622
-1.200144 1.720349 -0.723654
-1.199825 1.726380 -0.727547
-1.196932 1.728804 -0.729112
-1.194033 1.731224 -0.730674
-1.191127 1.733641 -0.732234
-1.188215 1.736054 -0.733791
-1.185296 1.738463 -0.735347
-1.181867 1.740143 -0.736431
-1.182448 1.747633 -0.741266
-1.180500 1.751491 -0.743757
-1.278849 1.632579 -0.671875
-1.273963 1.632305 -0.671697
-1.267970 1.630626 -0.670608
-1.264206 1.631727 -0.671322
-1.263209 1.636315 -0.674298
-1.260540 1.638806 -0.675914
-1.256764 1.639894 -0.676620
-1.253537 1.641676 -0.677776
-1.251948 1.645559 -0.680295
-1.249800 1.648740 -0.682358
-1.250911 1.656141 -0.687159
-1.247650 1.657915 -0.688309
-1.244926 1.660389 -0.689914
-1.243816 1.664978 -0.692891
-1.240536 1.666741 -0.694035
-1.235641 1.666376 -0.693798
-1.233966 1.670253 -0.696313
-1.231743 1.673420 -0.698367
-1.228978 1.675875 -0.699960
-1.226739 1.679038 -0.702012
-1.227139 1.685757 -0.706370
-1.224873 1.688920 -0.708422
-1.221543 1.690655 -0.709547
-1.218735 1.693099 -0.711133
-1.215396 1.694826 -0.712253
-1.215189 1.700840 -0.716154
-1.212356 1.703277 -0.717735
-1.211594 1.708578 -0.721174
-1.208741 1.711012 -0.722752
-1.207948 1.716315 -0.726193
-1.205591 1.719464 -0.728235
-1.202198 1.721171 -0.729342
-1.196753 1.719991 -0.728577
-1.195911 1.725292 -0.732015
-1.191488 1.725541 -0.732177
-1.192650 1.733733 -0.737491
-1.189227 1.735421 -0.738586
-1.188828 1.741451 -0.742497
-1.184382 1.741683 -0.742648
-1.182448 1.745537 -0.745148
-1.275494 1.626678 -0.672397
-1.268943 1.624313 -0.670856
-1.267970 1.628896 -0.673842
-1.267535 1.634177 -0.677283
-1.265422 1.637369 -0.679362
-1.263300 1.640559 -0.681440
-1.262820 1.645846 -0.684885
-1.260674 1.649035 -0.686963
-1.256876 1.650119 -0.687669
-1.254169 1.652601 -0.689286
-1.253090 1.657188 -0.692275
-1.249279 1.658259 -0.692972
-1.243301 1.656507 -0.691831
-1.240035 1.658267 -0.692977
-1.239998 1.664258 -0.696880
-1.239402 1.669546 -0.700326
-1.237180 1.672715 -0.702391
-1.236018 1.677300 -0.705377
-1.233242 1.679758 -0.706979
-1.229927 1.681504 -0.708116
-1.227669 1.684665 -0.710176
-1.224873 1.687114 -0.711771
-1.223651 1.691695 -0.714756
-1.220311 1.693427 -0.715884
-1.217492 1.695867 -0.717474
-1.214667 1.698304 -0.719061
-1.212356 1.701452 -0.721113
-1.212633 1.708179 -0.725495
-1.211331 1.712761 -0.728480
-1.208465 1.715192 -0.730064
-1.203531 1.714746 -0.729774
-1.200657 1.717167 -0.731351
-1.196753 1.718145 -0.731988
-1.193869 1.720558 -0.733560
-1.194033 1.727294 -0.737948
-1.192650 1.731870 -0.740929
-1.190745 1.735724 -0.743440
-1.187819 1.738130 -0.745008
-1.281645 1.632923 -0.679971
-1.273405 1.628485 -0.677069
-1.271307 1.631678 -0.679157
-1.266426 1.631389 -0.678968
-1.263209 1.633181 -0.680139
-1.261644 1.637062 -0.682677
-1.262269 1.643739 -0.687042
-1.260125 1.646924 -0.689124
-1.255233 1.646606 -0.688916
-1.253077 1.649784 -0.690994
-1.251456 1.653663 -0.693530
-1.250909 1.658947 -0.696984
-1.250343 1.664234 -0.700441
-1.244897 1.663185 -0.699755
-1.242692 1.666356 -0.701828
-1.238327 1.666702 -0.702054
-1.235573 1.669160 -0.703661
-1.236552 1.676567 -0.708503
-1.235906 1.681856 -0.711962
-1.232053 1.682895 -0.712641
-1.229788 1.686056 -0.714707
-1.226458 1.687795 -0.715844
-1.225231 1.692374 -0.718838
-1.222413 1.694818 -0.720436
-1.221160 1.699397 -0.723429
-1.218847 1.702551 -0.725491
-1.213919 1.702130 -0.725216
-1.212113 1.705991 -0.727740
-1.208741 1.707704 -0.728860
-1.207431 1.712278 -0.731850
-1.205076 1.715419 -0.733904
-1.204252 1.720713 -0.737364
-1.200849 1.722414 -0.738477
-1.199485 1.726989 -0.741468
-1.195560 1.727963 -0.742104
-1.193665 1.731815 -0.744623
-1.189227 1.732057 -0.744781
-1.276752 1.631639 -0.681673
-1.272976 1.632750 -0.682401
-1.268090 1.632463 -0.682213
-1.263762 1.632863 -0.682475
-1.260540 1.634650 -0.683647
-1.260067 1.639924 -0.687103
-1.259576 1.645200 -0.690561
-1.256328 1.646981 -0.691728
-1.258538 1.655764 -0.697484
-1.253634 1.655439 -0.697272
-1.251995 1.659317 -0.699814
-1.249260 1.661790 -0.701434
-1.245977 1.663556 -0.702592
-1.243230 1.666022 -0.704208
-1.241551 1.669895 -0.706746
-1.237180 1.670237 -0.706970
-1.235484 1.674106 -0.709506
-1.234840 1.679390 -0.712969
-1.232053 1.681843 -0.714577
-1.229258 1.684293 -0.716183
-1.226458 1.686740 -0.717786
-1.223124 1.688472 -0.718922
-1.222413 1.693758 -0.722386
-1.220112 1.696909 -0.724451
-1.218847 1.701484 -0.727450
-1.215482 1.703206 -0.728578
-1.213672 1.707066 -0.731108
-1.211331 1.710211 -0.733169
-1.208981 1.713353 -0.735229
-1.205591 1.715060 -0.736348
-1.203225 1.718197 -0.738404
-1.200337 1.720614 -0.739988
-1.197443 1.723027 -0.741570
-1.195051 1.726157 -0.743621
-1.275079 1.628073 -0.683050
-1.271864 1.629874 -0.684235
-1.266426 1.628891 -0.683588
-1.265422 1.633463 -0.686596
-1.264404 1.638037 -0.689605
-1.263370 1.642613 -0.692615
-1.260125 1.644397 -0.693789
-1.257423 1.646876 -0.695419
-1.256353 1.651451 -0.698429
-1.253634 1.653926 -0.700057
-1.248736 1.653592 -0.699837
-1.247634 1.658164 -0.702844
-1.245977 1.662035 -0.705390
-1.244308 1.665905 -0.707937
-1.242626 1.669775 -0.710482
-1.238252 1.670119 -0.710708
-1.236552 1.673985 -0.713252
-1.233242 1.675730 -0.714400
-1.230458 1.678178 -0.716010
-1.229258 1.682749 -0.719016
-1.229629 1.689448 -0.723424
-1.227866 1.693313 -0.725966
-1.226091 1.697178 -0.728509
-1.222208 1.698197 -0.729178
-1.218324 1.699209 -0.729844
-1.216003 1.702353 -0.731913
-1.214191 1.706210 -0.734450
-1.211849 1.709352 -0.736517
-1.208465 1.711061 -0.737641
-1.205591 1.713481 -0.739233
-1.204766 1.718766 -0.742709
-1.202385 1.721900 -0.744771
-1.278983 1.631970 -0.688003
-1.275201 1.633082 -0.688737
-1.271419 1.634188 -0.689466
-1.268743 1.636678 -0.691108
-1.265508 1.638469 -0.692289
-1.262820 1.640952 -0.693926
-1.262870 1.646921 -0.697862
-1.260161 1.649402 -0.699498
-1.257446 1.651880 -0.701131
-1.252000 1.650854 -0.700455
-1.250365 1.654724 -0.703006
-1.250885 1.661400 -0.707408
-1.248679 1.664570 -0.709498
-1.245385 1.666331 -0.710660
-1.243163 1.669497 -0.712747
-1.241467 1.673365 -0.715298
-1.239224 1.676527 -0.717383
-1.236439 1.678982 -0.719001
-1.234178 1.682140 -0.721084
-1.230848 1.683880 -0.722231
-1.228043 1.686325 -0.723843
-1.226812 1.690895 -0.726856
-1.225566 1.695466 -0.729870
-1.222208 1.697194 -0.731009
-1.219892 1.700340 -0.733084
-1.217566 1.703485 -0.735158
-1.217308 1.709481 -0.739112
-1.215475 1.713340 -0.741656
-1.211564 1.714338 -0.742314
-1.208682 1.716761 -0.743912
-1.272976 1.628768 -0.689731
-1.269755 1.630563 -0.690919
-1.267636 1.633742 -0.693023
-1.263300 1.634139 -0.693286
-1.260618 1.636616 -0.694925
-1.260674 1.642575 -0.698869
-1.259066 1.646446 -0.701431
-1.258538 1.651713 -0.704917
-1.254179 1.652089 -0.705166
-1.253081 1.656657 -0.708189
-1.249801 1.658423 -0.709358
-1.248679 1.662991 -0.712382
-1.245385 1.664751 -0.713546
-1.244238 1.669319 -0.716570
-1.240931 1.671072 -0.717730
-1.239224 1.674935 -0.720287
-1.238570 1.680209 -0.723777
-1.235241 1.681954 -0.724932
-1.234028 1.686523 -0.727956
-1.227515 1.684013 -0.726295
-1.224705 1.686451 -0.727909
-1.222413 1.689595 -0.729989
-1.222732 1.696288 -0.734419
-1.219892 1.698721 -0.736029
-1.217045 1.701150 -0.737637
-1.214711 1.704289 -0.739715
-1.213921 1.709565 -0.743207
-1.210014 1.710560 -0.743865
-1.274645 1.629974 -0.692701
-1.272529 1.633157 -0.694812
-1.268743 1.634256 -0.695541
-1.266060 1.636739 -0.697188
-1.265572 1.642002 -0.700679
-1.262870 1.644481 -0.702323
-1.261804 1.649050 -0.705353
-1.259084 1.651526 -0.706995
-1.257991 1.656095 -0.710026
-1.255797 1.659266 -0.712130
-1.251968 1.660335 -0.712838
-1.249759 1.663501 -0.714938
-1.248079 1.667367 -0.717502
-1.244238 1.668422 -0.718202
-1.242003 1.671581 -0.720297
-1.240827 1.676147 -0.723326
-1.238570 1.679305 -0.725420
-1.235241 1.681049 -0.726577
-1.231908 1.682788 -0.727730
-1.229100 1.685229 -0.729349
-1.226285 1.687668 -0.730967
-1.226091 1.693648 -0.734933
-1.224828 1.698213 -0.737961
-1.223027 1.702068 -0.740518
-1.221734 1.706634 -0.743547
-1.219386 1.709778 -0.745631
-1.298504 1.651880 -0.711907
-1.274645 1.628121 -0.696078
-1.270864 1.629222 -0.696811
-1.269850 1.633783 -0.699850
-1.269923 1.639734 -0.703815
-1.268324 1.643605 -0.706394
-1.267262 1.648172 -0.709437
-1.263994 1.649955 -0.710625
-1.261268 1.652431 -0.712274
-1.259081 1.655601 -0.714386
-1.255797 1.657372 -0.715567
-1.251968 1.658439 -0.716277
-1.249759 1.661601 -0.718384
-1.248618 1.666163 -0.721423
-1.249073 1.672832 -0.725866
-1.246289 1.675291 -0.727505
-1.242965 1.677044 -0.728673
-1.239103 1.678087 -0.729368
-1.236304 1.680535 -0.730998
-1.234558 1.684390 -0.733567
-1.231214 1.686126 -0.734723
-1.229974 1.690686 -0.737761
-1.227668 1.693830 -0.739856
-1.225876 1.697682 -0.742423
-1.224594 1.702244 -0.745462
-1.286327 1.641739 -0.707392
-1.273639 1.631786 -0.700746
-1.273170 1.637041 -0.704255
-1.269371 1.638138 -0.704987
-1.269425 1.644089 -0.708961
-1.266713 1.646569 -0.710617
-1.263446 1.648350 -0.711806
-1.262907 1.653610 -0.715318
-1.262349 1.658873 -0.718832
-1.259599 1.661346 -0.720483
-1.255218 1.661719 -0.720732
-1.250839 1.662083 -0.720975
-1.247540 1.663841 -0.722149
-1.244775 1.666296 -0.723788
-1.240931 1.667343 -0.724487
-1.241896 1.674711 -0.729407
-1.239636 1.677863 -0.731512
-1.238429 1.682423 -0.734556
-1.236147 1.685574 -0.736660
-1.233856 1.688722 -0.738762
-1.231555 1.691869 -0.740863
-1.226091 1.690769 -0.740129
-1.222732 1.692491 -0.741278
-1.220937 1.696336 -0.743845
-1.285771 1.639379 -0.709943
-1.274193 1.630820 -0.704206
-1.271510 1.633302 -0.705869
-1.268819 1.635780 -0.707531
-1.267223 1.639642 -0.710120
-1.265615 1.643505 -0.712709
-1.263446 1.646672 -0.714832
