# This PCD file was generated using the MATLAB® pcwrite function
# from Computer Vision System Toolbox®.
# .PCD v.7 - Point Cloud Data file format
VERSION .7
FIELDS x y z
SIZE 4 4 4
TYPE F F F
COUNT 1 1 1
WIDTH 1645
HEIGHT 1
VIEWPOINT 0 0 0 1 0 0 0
POINTS 1645
DATA ascii
-0.360774 1.368951 -0.652968
-0.358372 1.370952 -0.654504
-0.355767 1.372172 -0.655440
-0.352966 1.372610 -0.655776
-0.350164 1.373044 -0.656110
-0.347549 1.374253 -0.657038
-0.345493 1.377796 -0.659758
-0.343236 1.380558 -0.661878
-0.340968 1.383318 -0.663997
-0.337960 1.382956 -0.663719
-0.335676 1.385709 -0.665833
-0.333202 1.387680 -0.667346
-0.330721 1.389648 -0.668856
-0.327530 1.388490 -0.667967
-0.325040 1.390451 -0.669473
-0.322887 1.393972 -0.672176
-0.320718 1.397491 -0.674877
-0.318366 1.400226 -0.676977
-0.316004 1.402959 -0.679074
-0.313134 1.403342 -0.679368
-0.309774 1.401373 -0.677857
-0.307394 1.404096 -0.679947
-0.305321 1.408382 -0.683237
-0.302757 1.410316 -0.684722
-0.299715 1.409897 -0.684401
-0.297295 1.412609 -0.686482
-0.294404 1.412966 -0.686756
-0.291967 1.415671 -0.688833
-0.289668 1.419158 -0.691510
-0.287354 1.422642 -0.694185
-0.284442 1.422985 -0.694448
-0.281240 1.421755 -0.693503
-0.278472 1.422875 -0.694363
-0.275841 1.424776 -0.695823
-0.273481 1.428245 -0.698486
-0.270969 1.430927 -0.700544
-0.268309 1.432819 -0.701997
-0.265509 1.433922 -0.702843
-0.262704 1.435021 -0.703687
-0.260025 1.436903 -0.705132
-0.257339 1.438781 -0.706574
-0.254772 1.441443 -0.708618
-0.252195 1.444102 -0.710659
-0.249235 1.444397 -0.710885
-0.246275 1.444687 -0.711108
-0.243314 1.444973 -0.711327
-0.240589 1.446831 -0.712753
-0.238324 1.451836 -0.716596
-0.235577 1.453687 -0.718017
-0.232596 1.453959 -0.718225
-0.230172 1.458168 -0.721456
-0.227401 1.460008 -0.722869
-0.224839 1.463423 -0.725490
-0.221624 1.462102 -0.724477
-0.218834 1.463932 -0.725881
-0.215831 1.464180 -0.726072
-0.212928 1.465214 -0.726865
-0.210121 1.467032 -0.728261
-0.207111 1.467269 -0.728443
-0.204197 1.468290 -0.729227
-0.201654 1.472467 -0.732433
-0.199187 1.477430 -0.736243
-0.196335 1.479231 -0.737626
-0.193476 1.481028 -0.739005
-0.190610 1.482822 -0.740382
-0.187565 1.483031 -0.740543
-0.184771 1.485607 -0.742521
-0.181802 1.486599 -0.743282
-0.664501 1.171143 -0.497768
-0.661306 1.170568 -0.497328
-0.657697 1.169265 -0.496332
-0.657010 1.173012 -0.499197
-0.654649 1.173869 -0.499852
-0.652699 1.175446 -0.501057
-0.650745 1.177020 -0.502261
-0.648785 1.178593 -0.503464
-0.646412 1.179438 -0.504110
-0.644444 1.181006 -0.505308
-0.642066 1.181845 -0.505950
-0.640897 1.184861 -0.508256
-0.637706 1.184241 -0.507782
-0.634920 1.184343 -0.507860
-0.632535 1.185169 -0.508491
-0.631339 1.188179 -0.510792
-0.630923 1.192648 -0.514209
-0.629307 1.194929 -0.515953
-0.626506 1.195016 -0.516020
-0.623706 1.195099 -0.516083
-0.620908 1.195178 -0.516144
-0.616561 1.192323 -0.513961
-0.614930 1.194589 -0.515693
-0.613674 1.197587 -0.517986
-0.610877 1.197650 -0.518034
-0.608462 1.198442 -0.518640
-0.606425 1.199967 -0.519805
-0.604383 1.201489 -0.520969
-0.602336 1.203008 -0.522130
-0.599535 1.203053 -0.522164
-0.600093 1.209726 -0.527267
-0.593566 1.202390 -0.521658
-0.595578 1.212016 -0.529017
-0.590923 1.208356 -0.526219
-0.591050 1.214295 -0.530759
-0.588234 1.214320 -0.530779
-0.585783 1.215082 -0.531361
-0.581883 1.212877 -0.529675
-0.579795 1.214370 -0.530817
-0.578777 1.218086 -0.533658
-0.578101 1.222545 -0.537067
-0.575987 1.224035 -0.538206
-0.573161 1.224036 -0.538207
-0.569985 1.223289 -0.537636
-0.563311 1.215096 -0.531372
-0.564344 1.223268 -0.537620
-0.559791 1.219526 -0.534759
-0.560781 1.227703 -0.541011
-0.558644 1.229172 -0.542134
-0.558555 1.235118 -0.546680
-0.552654 1.228368 -0.541519
-0.547801 1.223848 -0.538063
-0.547014 1.228293 -0.541462
-0.547551 1.235732 -0.547150
-0.544051 1.234191 -0.545971
-0.539231 1.229645 -0.542496
-0.538729 1.234837 -0.546465
-0.540508 1.245283 -0.554451
-0.537989 1.245978 -0.554983
-0.535468 1.246669 -0.555511
-0.533270 1.248109 -0.556612
-0.531067 1.249546 -0.557711
-0.529820 1.253238 -0.560533
-0.527284 1.253918 -0.561053
-0.525063 1.255348 -0.562146
-0.522521 1.256021 -0.562661
-0.520920 1.258954 -0.564904
-0.518371 1.259622 -0.565414
-0.516131 1.261041 -0.566499
-0.514195 1.263214 -0.568160
-0.511944 1.264628 -0.569242
-0.509688 1.266040 -0.570321
-0.507731 1.268206 -0.571977
-0.505464 1.269612 -0.573052
-0.503493 1.271774 -0.574705
-0.501214 1.273176 -0.575777
-0.498931 1.274575 -0.576846
-0.496939 1.276730 -0.578494
-0.493762 1.275846 -0.577818
-0.491469 1.277236 -0.578881
-0.488879 1.277862 -0.579360
-0.486288 1.278486 -0.579837
-0.484271 1.280627 -0.581474
-0.482245 1.282767 -0.583110
-0.481064 1.287190 -0.586491
-0.477888 1.286278 -0.585794
-0.475559 1.287649 -0.586842
-0.472947 1.288253 -0.587304
-0.470611 1.289618 -0.588348
-0.468270 1.290980 -0.589389
-0.465650 1.291574 -0.589843
-0.463574 1.293694 -0.591464
-0.461219 1.295047 -0.592499
-0.458860 1.296397 -0.593531
-0.456495 1.297745 -0.594561
-0.454658 1.300621 -0.596760
-0.452545 1.302729 -0.598372
-0.449637 1.302536 -0.598224
-0.446992 1.303105 -0.598659
-0.444346 1.303670 -0.599091
-0.441956 1.304999 -0.600107
-0.440838 1.310166 -0.604057
-0.438176 1.310722 -0.604483
-0.435765 1.312044 -0.605493
-0.433350 1.313363 -0.606502
-0.430930 1.314679 -0.607508
-0.428505 1.315991 -0.608511
-0.426567 1.318841 -0.610690
-0.424130 1.320149 -0.611690
-0.422172 1.322995 -0.613866
-0.420203 1.325839 -0.616040
-0.418222 1.328681 -0.618214
-0.416231 1.331522 -0.620386
-0.413522 1.332045 -0.620785
-0.411746 1.335653 -0.623544
-0.409260 1.336943 -0.624530
-0.406770 1.338229 -0.625513
-0.404275 1.339511 -0.626494
-0.402002 1.341565 -0.628064
-0.399946 1.344390 -0.630224
-0.397656 1.346439 -0.631790
-0.394693 1.346161 -0.631577
-0.392392 1.348203 -0.633139
-0.390519 1.351794 -0.635884
-0.387983 1.353056 -0.636849
-0.385227 1.353540 -0.637219
-0.382257 1.353243 -0.636992
-0.379924 1.355271 -0.638543
-0.377163 1.355744 -0.638904
-0.375233 1.359320 -0.641638
-0.373082 1.362118 -0.643777
-0.370511 1.363358 -0.644726
-0.368138 1.365373 -0.646266
-0.365355 1.365829 -0.646615
-0.362970 1.367838 -0.648151
-0.361170 1.372180 -0.651471
-0.358568 1.373405 -0.652407
-0.355962 1.374627 -0.653341
-0.353158 1.375066 -0.653677
-0.350736 1.377061 -0.655202
-0.348873 1.381393 -0.658514
-0.346242 1.382602 -0.659439
-0.342865 1.380686 -0.657974
-0.339864 1.380326 -0.657698
-0.337595 1.383086 -0.659808
-0.335496 1.386624 -0.662514
-0.332845 1.387817 -0.663426
-0.330013 1.388224 -0.663737
-0.328407 1.394101 -0.668230
-0.325561 1.394502 -0.668537
-0.322887 1.395681 -0.669438
-0.319867 1.395291 -0.669140
-0.317355 1.397246 -0.670635
-0.315170 1.400765 -0.673325
-0.312804 1.403498 -0.675414
-0.310264 1.405444 -0.676903
-0.307555 1.406604 -0.677789
-0.304842 1.407760 -0.678673
-0.302124 1.408912 -0.679554
-0.299246 1.409276 -0.679832
-0.296985 1.412776 -0.682508
-0.294404 1.414703 -0.683982
-0.291967 1.417413 -0.686053
-0.289070 1.417763 -0.686321
-0.286320 1.418894 -0.687186
-0.283566 1.420023 -0.688048
-0.281096 1.422719 -0.690110
-0.278045 1.422268 -0.689765
-0.275419 1.424172 -0.691221
-0.272646 1.425286 -0.692072
-0.270144 1.427970 -0.694125
-0.268038 1.433012 -0.697980
-0.265241 1.434116 -0.698824
-0.262307 1.434429 -0.699063
-0.259111 1.433163 -0.698095
-0.256566 1.435831 -0.700135
-0.254645 1.442436 -0.705185
-0.251819 1.443522 -0.706015
-0.248988 1.444605 -0.706843
-0.246153 1.445684 -0.707668
-0.243434 1.447548 -0.709093
-0.240708 1.449408 -0.710515
-0.238324 1.453632 -0.713745
-0.235462 1.454697 -0.714559
-0.232596 1.455758 -0.715370
-0.229504 1.455236 -0.714971
-0.227182 1.460238 -0.718795
-0.224191 1.460498 -0.718994
-0.221306 1.461544 -0.719794
-0.218834 1.465746 -0.723006
-0.215934 1.466785 -0.723801
-0.212928 1.467030 -0.723988
-0.210022 1.468061 -0.724776
-0.207404 1.471460 -0.727375
-0.204676 1.474065 -0.729366
-0.201937 1.476666 -0.731355
-0.198910 1.476892 -0.731528
-0.196607 1.483442 -0.736536
-0.193743 1.485242 -0.737912
-0.190871 1.487039 -0.739286
-0.187907 1.488040 -0.740051
-0.184771 1.487454 -0.739603
-0.181720 1.487656 -0.739757
-0.178669 1.487853 -0.739908
-0.175931 1.491213 -0.742477
-0.667701 1.172178 -0.497422
-0.663238 1.169445 -0.495336
-0.660047 1.168868 -0.494895
-0.658115 1.170451 -0.496104
-0.656593 1.172755 -0.497863
-0.655064 1.175058 -0.499621
-0.652699 1.175913 -0.500274
-0.650745 1.177488 -0.501476
-0.650425 1.181961 -0.504892
-0.649271 1.184986 -0.507201
-0.646885 1.185832 -0.507847
-0.643687 1.185222 -0.507381
-0.640493 1.184606 -0.506911
-0.638510 1.186168 -0.508103
-0.635721 1.186271 -0.508182
-0.634529 1.189285 -0.510483
-0.632530 1.190841 -0.511671
-0.630527 1.192394 -0.512857
-0.628125 1.193214 -0.513483
-0.626898 1.196224 -0.515781
-0.622925 1.194113 -0.514169
-0.620129 1.194191 -0.514228
-0.617336 1.194264 -0.514284
-0.614930 1.195066 -0.514897
-0.612522 1.195864 -0.515506
-0.610112 1.196660 -0.516114
-0.608081 1.198187 -0.517279
-0.606805 1.201182 -0.519566
-0.605139 1.203441 -0.521291
-0.603841 1.206435 -0.523577
-0.603281 1.210903 -0.526989
-0.602704 1.215373 -0.530401
-0.598023 1.211727 -0.527617
-0.593729 1.208810 -0.525390
-0.587978 1.202928 -0.520899
-0.586652 1.205908 -0.523174
-0.582761 1.203707 -0.521494
-0.583603 1.211126 -0.527158
-0.578990 1.207435 -0.524340
-0.577275 1.209667 -0.526044
-0.572685 1.205961 -0.523215
-0.570253 1.206701 -0.523780
-0.574212 1.220812 -0.534554
-0.575282 1.228989 -0.540797
-0.572447 1.228989 -0.540797
-0.568564 1.226750 -0.539088
-0.568178 1.231955 -0.543061
-0.566036 1.233434 -0.544190
-0.561472 1.229689 -0.541331
-0.558988 1.230413 -0.541884
-0.557529 1.233375 -0.544146
-0.556058 1.236336 -0.546406
-0.552543 1.234810 -0.545241
-0.548699 1.232528 -0.543499
-0.548557 1.238477 -0.548041
-0.548057 1.243678 -0.552012
-0.547867 1.249632 -0.556558
-0.545670 1.251088 -0.557669
-0.543139 1.251790 -0.558206
-0.540607 1.252489 -0.558739
-0.538398 1.253936 -0.559844
-0.535537 1.253877 -0.559799
-0.532678 1.253813 -0.559750
-0.530141 1.254497 -0.560272
-0.527922 1.255931 -0.561367
-0.525697 1.257363 -0.562460
-0.523153 1.258038 -0.562976
-0.521548 1.260973 -0.565216
-0.519933 1.263907 -0.567457
-0.517374 1.264574 -0.567966
-0.514813 1.265237 -0.568472
-0.512251 1.265897 -0.568976
-0.509688 1.266553 -0.569477
-0.508035 1.269477 -0.571709
-0.505766 1.270885 -0.572784
-0.503493 1.272290 -0.573857
-0.500616 1.272176 -0.573770
-0.498039 1.272816 -0.574258
-0.495756 1.274211 -0.575324
-0.493468 1.275604 -0.576387
-0.492053 1.279275 -0.579190
-0.489460 1.279903 -0.579669
-0.486866 1.280527 -0.580146
-0.483984 1.280387 -0.580039
-0.481960 1.282527 -0.581673
-0.480212 1.285427 -0.583887
-0.477888 1.286802 -0.584936
-0.475840 1.288936 -0.586566
-0.473226 1.289541 -0.587028
-0.470334 1.289380 -0.586905
-0.467167 1.288450 -0.586195
-0.466198 1.293629 -0.590149
-0.463574 1.294222 -0.590602
-0.461219 1.295575 -0.591635
-0.458322 1.295395 -0.591497
-0.456228 1.297508 -0.593111
-0.454126 1.299619 -0.594723
-0.451753 1.300961 -0.595747
-0.449113 1.301533 -0.596184
-0.446732 1.302869 -0.597204
-0.443569 1.301899 -0.596463
-0.441699 1.304764 -0.598651
-0.439305 1.306091 -0.599663
-0.438176 1.311258 -0.603609
-0.436018 1.313350 -0.605206
-0.433100 1.313131 -0.605038
-0.431179 1.315987 -0.607219
-0.428505 1.316530 -0.607634
-0.426322 1.318611 -0.609223
-0.424130 1.320690 -0.610810
-0.421930 1.322766 -0.612395
-0.419963 1.325611 -0.614567
-0.418699 1.330770 -0.618506
-0.416704 1.333613 -0.620677
-0.413992 1.334137 -0.621076
-0.411979 1.336975 -0.623244
-0.409724 1.339038 -0.624819
-0.407230 1.340326 -0.625802
-0.404960 1.342384 -0.627373
-0.402455 1.343665 -0.628351
-0.399946 1.344943 -0.629327
-0.397433 1.346218 -0.630300
-0.395579 1.349815 -0.633047
-0.392832 1.350309 -0.633424
-0.390519 1.352351 -0.634983
-0.387983 1.353614 -0.635947
-0.385657 1.355650 -0.637502
-0.382257 1.353801 -0.636090
-0.380135 1.356607 -0.638232
-0.377372 1.357080 -0.638593
-0.375233 1.359881 -0.640732
-0.373082 1.362680 -0.642869
-0.370715 1.364699 -0.644410
-0.368340 1.366715 -0.645950
-0.366159 1.369507 -0.648082
-0.363368 1.369961 -0.648428
-0.360379 1.369631 -0.648176
-0.357980 1.371635 -0.649706
-0.355379 1.372857 -0.650639
-0.352773 1.374075 -0.651569
-0.349019 1.370609 -0.648923
-0.346982 1.374160 -0.651634
-0.345868 1.381613 -0.657325
-0.343422 1.383600 -0.658842
-0.340416 1.383241 -0.658567
-0.337595 1.383659 -0.658886
-0.335135 1.385636 -0.660396
-0.333739 1.392302 -0.665485
-0.331429 1.395057 -0.667589
-0.328407 1.394680 -0.667301
-0.325735 1.395863 -0.668204
-0.322887 1.396260 -0.668508
-0.320378 1.398220 -0.670004
-0.317524 1.398610 -0.670301
-0.314836 1.399779 -0.671194
-0.312474 1.402513 -0.673281
-0.310428 1.406813 -0.676564
-0.307717 1.407973 -0.677450
-0.304682 1.407561 -0.677135
-0.301966 1.408713 -0.678015
-0.299558 1.411433 -0.680092
-0.296830 1.412579 -0.680966
-0.293945 1.412936 -0.681239
-0.291513 1.415646 -0.683308
-0.288920 1.417567 -0.684775
-0.285876 1.417127 -0.684439
-0.283419 1.419828 -0.686501
-0.280951 1.422526 -0.688561
-0.278758 1.426795 -0.691820
-0.275700 1.426340 -0.691473
-0.273063 1.428241 -0.692925
-0.270144 1.428566 -0.693172
-0.267359 1.429673 -0.694018
-0.264839 1.432352 -0.696063
-0.262307 1.435028 -0.698107
-0.259633 1.436913 -0.699546
-0.256953 1.438795 -0.700983
-0.253756 1.437520 -0.700009
-0.251192 1.440183 -0.702042
-0.248864 1.444420 -0.705277
-0.246153 1.446289 -0.706704
-0.243554 1.448943 -0.708730
-0.241063 1.452383 -0.711357
-0.238790 1.457399 -0.715186
-0.235807 1.457675 -0.715397
-0.232596 1.456368 -0.714399
-0.229615 1.456636 -0.714604
-0.226853 1.458480 -0.716012
-0.224407 1.462690 -0.719226
-0.221731 1.465318 -0.721233
-0.218834 1.466361 -0.722029
-0.215831 1.466610 -0.722219
-0.213535 1.472390 -0.726632
-0.210618 1.473422 -0.727420
-0.207599 1.473660 -0.727601
-0.204580 1.473893 -0.727779
-0.201654 1.474913 -0.728558
-0.198910 1.477512 -0.730543
-0.196063 1.479316 -0.731920
-0.193209 1.481117 -0.733295
-0.190435 1.483706 -0.735271
-0.187565 1.485499 -0.736640
-0.184687 1.487288 -0.738007
-0.181638 1.487490 -0.738160
-0.178589 1.487687 -0.738311
-0.175617 1.488672 -0.739063
-0.172872 1.492031 -0.741628
-0.170188 1.496179 -0.744794
-0.670660 1.178509 -0.499105
-0.662817 1.170001 -0.492634
-0.661306 1.172312 -0.494392
-0.659368 1.173899 -0.495599
-0.657010 1.174761 -0.496255
-0.654649 1.175619 -0.496907
-0.652699 1.177199 -0.498109
-0.650745 1.178777 -0.499309
-0.647965 1.178900 -0.499403
-0.646004 1.180473 -0.500599
-0.644038 1.182043 -0.501793
-0.643282 1.185794 -0.504646
-0.641300 1.187361 -0.505838
-0.639314 1.188926 -0.507029
-0.635721 1.187572 -0.505998
-0.633731 1.189131 -0.507184
-0.631736 1.190687 -0.508368
-0.628945 1.190779 -0.508438
-0.626155 1.190867 -0.508504
-0.622975 1.190218 -0.508011
-0.621362 1.192494 -0.509742
-0.620129 1.195503 -0.512030
-0.617723 1.196310 -0.512644
-0.614930 1.196379 -0.512697
-0.612522 1.197179 -0.513305
-0.610877 1.199446 -0.515029
-0.608843 1.200976 -0.516193
-0.606805 1.202504 -0.517355
-0.605139 1.204766 -0.519076
-0.601960 1.204077 -0.518552
-0.601408 1.208549 -0.521953
-0.598974 1.209330 -0.522547
-0.596166 1.209368 -0.522577
-0.591881 1.206445 -0.520353
-0.588714 1.205732 -0.519811
-0.590684 1.215382 -0.527150
-0.589694 1.219112 -0.529988
-0.587236 1.219877 -0.530569
-0.585138 1.221380 -0.531713
-0.577635 1.211743 -0.524382
-0.574118 1.210262 -0.523256
-0.572037 1.211748 -0.524386
-0.571371 1.216209 -0.527779
-0.570687 1.220671 -0.531173
-0.571744 1.228859 -0.537401
-0.572066 1.235563 -0.542500
-0.568178 1.233320 -0.540793
-0.564301 1.231068 -0.539081
-0.561472 1.231051 -0.539068
-0.560019 1.234019 -0.541325
-0.558555 1.236986 -0.543582
-0.555037 1.235462 -0.542423
-0.552882 1.236927 -0.543537
-0.550385 1.237641 -0.544080
-0.547551 1.237601 -0.544050
-0.546388 1.241308 -0.546870
-0.543549 1.241262 -0.546834
-0.541704 1.243465 -0.548510
-0.539851 1.245667 -0.550184
-0.538971 1.250123 -0.553573
-0.537747 1.253827 -0.556391
-0.534565 1.253013 -0.555772
-0.531711 1.252948 -0.555722
-0.529179 1.253632 -0.556243
-0.527284 1.255821 -0.557908
-0.525380 1.258009 -0.559572
-0.523468 1.260195 -0.561234
-0.521234 1.261623 -0.562321
-0.518683 1.262293 -0.562830
-0.514888 1.259932 -0.561035
-0.513268 1.262864 -0.563264
-0.511637 1.265795 -0.565493
-0.509688 1.267967 -0.567145
-0.507123 1.268620 -0.567642
-0.504859 1.270029 -0.568714
-0.502290 1.270675 -0.569206
-0.500018 1.272078 -0.570272
-0.498336 1.274998 -0.572493
-0.496052 1.276396 -0.573557
-0.493468 1.277030 -0.574039
-0.491176 1.278422 -0.575098
-0.489170 1.280573 -0.576734
-0.486577 1.281198 -0.577209
-0.484846 1.284107 -0.579421
-0.482817 1.286251 -0.581052
-0.479928 1.286104 -0.580941
-0.477323 1.286716 -0.581406
-0.474717 1.287325 -0.581869
-0.473226 1.290987 -0.584654
-0.470056 1.290060 -0.583950
-0.468546 1.293719 -0.586732
-0.465102 1.292019 -0.585439
-0.463029 1.294142 -0.587054
-0.459866 1.293198 -0.586336
-0.457515 1.294549 -0.587364
-0.455961 1.298198 -0.590139
-0.454392 1.301846 -0.592914
-0.451753 1.302423 -0.593352
-0.449113 1.302996 -0.593788
-0.446471 1.303565 -0.594221
-0.444346 1.305668 -0.595821
-0.441956 1.307000 -0.596834
-0.440072 1.309868 -0.599015
-0.437415 1.310425 -0.599438
-0.434757 1.310978 -0.599859
-0.432849 1.313839 -0.602035
-0.430433 1.315156 -0.603037
-0.428258 1.317242 -0.604624
-0.426567 1.320869 -0.607382
-0.423399 1.319863 -0.606617
-0.420237 1.318852 -0.605848
-0.418041 1.320926 -0.607426
-0.416314 1.324544 -0.610178
-0.414809 1.328935 -0.613517
-0.413522 1.334098 -0.617444
-0.411279 1.336165 -0.619016
-0.409260 1.339005 -0.621176
-0.407000 1.341068 -0.622745
-0.404503 1.342354 -0.623723
-0.401549 1.342086 -0.623519
-0.398822 1.342589 -0.623902
-0.396316 1.343864 -0.624872
-0.395579 1.351345 -0.630562
-0.393272 1.353393 -0.632120
-0.390301 1.353108 -0.631903
-0.387117 1.352041 -0.631091
-0.385442 1.356411 -0.634415
-0.383322 1.359225 -0.636555
-0.380769 1.360481 -0.637510
-0.378001 1.360955 -0.637871
-0.375233 1.361425 -0.638229
-0.372669 1.362671 -0.639176
-0.370511 1.365471 -0.641306
-0.368138 1.367490 -0.642841
-0.365355 1.367947 -0.643189
-0.362970 1.369959 -0.644720
-0.360379 1.371189 -0.645655
-0.358372 1.374757 -0.648369
-0.355767 1.375981 -0.649299
-0.352773 1.375639 -0.649040
-0.350736 1.379200 -0.651748
-0.347927 1.379632 -0.652077
-0.345493 1.381625 -0.653592
-0.343050 1.383614 -0.655105
-0.340784 1.386383 -0.657211
-0.337595 1.385236 -0.656339
-0.335135 1.387216 -0.657845
-0.332666 1.389193 -0.659349
-0.330367 1.391951 -0.661446
-0.327706 1.393138 -0.662349
-0.325214 1.395107 -0.663846
-0.322887 1.397856 -0.665937
-0.320548 1.400603 -0.668027
-0.318198 1.403347 -0.670114
-0.314836 1.401380 -0.668618
-0.312144 1.402547 -0.669506
-0.309611 1.404497 -0.670988
-0.307394 1.408014 -0.673663
-0.304842 1.409958 -0.675142
-0.301808 1.409540 -0.674824
-0.299558 1.413049 -0.677493
-0.296366 1.411838 -0.676572
-0.293792 1.413768 -0.678040
-0.291664 1.418055 -0.681301
-0.288771 1.418406 -0.681567
-0.286320 1.421114 -0.683627
-0.283712 1.423031 -0.685085
-0.280951 1.424158 -0.685943
-0.278045 1.424494 -0.686198
-0.275559 1.427189 -0.688248
-0.272646 1.427517 -0.688497
-0.270006 1.429418 -0.689943
-0.267359 1.431315 -0.691386
-0.264839 1.433998 -0.693427
-0.262175 1.435889 -0.694865
-0.259242 1.436199 -0.695100
-0.256566 1.438082 -0.696533
-0.254010 1.440753 -0.698564
-0.251568 1.444209 -0.701193
-0.248617 1.444504 -0.701417
-0.245909 1.446374 -0.702840
-0.242833 1.445871 -0.702457
-0.240708 1.451686 -0.706880
-0.237624 1.451175 -0.706491
-0.235232 1.455403 -0.709707
-0.232370 1.456466 -0.710515
-0.230284 1.463062 -0.715532
-0.227182 1.462536 -0.715132
-0.224407 1.464379 -0.716534
-0.221412 1.464636 -0.716729
-0.218625 1.466472 -0.718126
-0.215728 1.467512 -0.718917
-0.213030 1.470133 -0.720910
-0.210121 1.471166 -0.721696
-0.207209 1.472195 -0.722479
-0.204197 1.472428 -0.722656
-0.201466 1.475034 -0.724638
-0.198632 1.476844 -0.726015
-0.196063 1.481028 -0.729197
-0.193121 1.482039 -0.729966
-0.190435 1.485424 -0.732540
-0.187480 1.486426 -0.733303
-0.184687 1.489011 -0.735269
-0.181638 1.489213 -0.735422
-0.178669 1.490204 -0.736176
-0.175696 1.491191 -0.736926
-0.172795 1.492967 -0.738277
-0.170113 1.497120 -0.741437
-0.167412 1.501271 -0.744593
-0.164265 1.500655 -0.744125
-0.667701 1.174057 -0.494254
-0.660712 1.166984 -0.488884
-0.657950 1.167125 -0.488991
-0.656861 1.170156 -0.491292
-0.654096 1.170291 -0.491394
-0.654649 1.176219 -0.495895
-0.653526 1.179250 -0.498197
-0.652802 1.183008 -0.501049
-0.650425 1.183861 -0.501697
-0.647637 1.183983 -0.501790
-0.645258 1.184829 -0.502432
-0.642471 1.184944 -0.502519
-0.639686 1.185053 -0.502603
-0.636902 1.185159 -0.502683
-0.634920 1.186720 -0.503868
-0.634529 1.191200 -0.507269
-0.632530 1.192758 -0.508452
-0.630132 1.193583 -0.509078
-0.627337 1.193672 -0.509146
-0.623367 1.191560 -0.507542
-0.619799 1.190172 -0.506489
-0.617406 1.190979 -0.507102
-0.616173 1.193986 -0.509384
-0.615701 1.198462 -0.512782
-0.612906 1.198528 -0.512833
-0.610877 1.200061 -0.513997
-0.608462 1.200856 -0.514600
-0.606805 1.203121 -0.516320
-0.604761 1.204647 -0.517479
-0.600832 1.202482 -0.515834
-0.599161 1.204739 -0.517548
-0.597855 1.207734 -0.519823
-0.596537 1.210729 -0.522097
-0.594469 1.212244 -0.523247
-0.591659 1.212276 -0.523270
-0.593982 1.222677 -0.531167
-0.589694 1.219740 -0.528938
-0.583967 1.213827 -0.524448
-0.581160 1.213842 -0.524459
-0.579795 1.216824 -0.526724
-0.578777 1.220550 -0.529552
-0.579172 1.227252 -0.534641
-0.571726 1.217579 -0.527297
-0.572807 1.225770 -0.533516
-0.571392 1.228748 -0.535777
-0.572416 1.236948 -0.542002
-0.568527 1.234703 -0.540298
-0.565342 1.233945 -0.539722
-0.561472 1.231687 -0.538008
-0.560019 1.234656 -0.540262
-0.556845 1.233883 -0.539676
-0.555377 1.236850 -0.541928
-0.554237 1.240565 -0.544748
-0.552744 1.243530 -0.546999
-0.552247 1.248746 -0.550959
-0.550060 1.250209 -0.552071
-0.545210 1.245661 -0.548617
-0.541043 1.242606 -0.546298
-0.539851 1.246312 -0.549112
-0.537662 1.247760 -0.550211
-0.536119 1.250712 -0.552453
-0.533918 1.252156 -0.553549
-0.531711 1.253598 -0.554644
-0.529820 1.255791 -0.556309
-0.527603 1.257228 -0.557400
-0.525063 1.257907 -0.557915
-0.523153 1.260094 -0.559575
-0.521234 1.262279 -0.561234
-0.518683 1.262949 -0.561743
-0.516752 1.265129 -0.563398
-0.514195 1.265793 -0.563902
-0.511637 1.266453 -0.564403
-0.509076 1.267110 -0.564902
-0.506515 1.267763 -0.565398
-0.505161 1.271449 -0.568196
-0.502590 1.272097 -0.568688
-0.500616 1.274261 -0.570331
-0.498039 1.274902 -0.570818
-0.495756 1.276301 -0.571880
-0.493468 1.277696 -0.572940
-0.491761 1.280613 -0.575154
-0.489170 1.281242 -0.575631
-0.486577 1.281867 -0.576106
-0.484271 1.283252 -0.577157
-0.482531 1.286160 -0.579365
-0.479644 1.286012 -0.579253
-0.477323 1.287389 -0.580298
-0.473595 1.284940 -0.578439
-0.472110 1.288603 -0.581220
-0.469502 1.289204 -0.581677
-0.467719 1.292099 -0.583875
-0.464828 1.291929 -0.583745
-0.462757 1.294053 -0.585358
-0.460678 1.296175 -0.586969
-0.458591 1.298295 -0.588579
-0.455426 1.297343 -0.587856
-0.452799 1.297921 -0.588295
-0.450697 1.300032 -0.589898
-0.448850 1.302910 -0.592083
-0.446732 1.305017 -0.593682
-0.444087 1.305584 -0.594112
-0.441699 1.306916 -0.595124
-0.438284 1.305165 -0.593795
-0.436908 1.309572 -0.597140
-0.434757 1.311666 -0.598730
-0.432849 1.314529 -0.600904
-0.430433 1.315847 -0.601905
-0.427517 1.315619 -0.601732
-0.425095 1.316931 -0.602728
-0.422424 1.317467 -0.603135
-0.420479 1.320318 -0.605299
-0.418281 1.322394 -0.606875
-0.415837 1.323694 -0.607863
-0.413388 1.324992 -0.608847
-0.410935 1.326286 -0.609830
-0.409645 1.331449 -0.613750
-0.408101 1.335837 -0.617082
-0.405850 1.337900 -0.618648
-0.404275 1.342287 -0.621978
-0.401775 1.343570 -0.622953
-0.399271 1.344850 -0.623924
-0.397209 1.347679 -0.626072
-0.394693 1.348953 -0.627040
-0.392172 1.350224 -0.628005
-0.389647 1.351492 -0.628967
-0.387334 1.353534 -0.630517
-0.384798 1.354795 -0.631475
-0.382896 1.358388 -0.634203
-0.379924 1.358087 -0.633975
-0.377163 1.358561 -0.634334
-0.374609 1.359809 -0.635282
-0.372669 1.363393 -0.638003
-0.369897 1.363856 -0.638354
-0.367327 1.365095 -0.639295
-0.365154 1.367892 -0.641418
-0.362372 1.368345 -0.641762
-0.359786 1.369574 -0.642696
-0.357392 1.371582 -0.644220
-0.355379 1.375149 -0.646928
-0.352581 1.375588 -0.647262
-0.349782 1.376023 -0.647592
-0.347171 1.377237 -0.648514
-0.345680 1.383141 -0.652996
-0.343050 1.384350 -0.653914
-0.340600 1.386337 -0.655423
-0.337777 1.386756 -0.655741
-0.335676 1.390304 -0.658435
-0.333381 1.393067 -0.660532
-0.330544 1.393476 -0.660842
-0.327530 1.393096 -0.660554
-0.324520 1.392712 -0.660263
-0.322371 1.396247 -0.662947
-0.319867 1.398210 -0.664437
-0.317355 1.400170 -0.665925
-0.314669 1.401342 -0.666815
-0.311979 1.402510 -0.667701
-0.309938 1.406818 -0.670972
-0.306586 1.404836 -0.669467
-0.304202 1.407566 -0.671540
-0.301650 1.409507 -0.673014
-0.299246 1.412231 -0.675082
-0.296366 1.412592 -0.675356
-0.293792 1.414523 -0.676823
-0.291211 1.416452 -0.678286
-0.288621 1.418377 -0.679748
-0.285729 1.418723 -0.680011
-0.282981 1.419853 -0.680869
-0.280663 1.423344 -0.683519
-0.277902 1.424468 -0.684373
-0.275419 1.427165 -0.686420
-0.272507 1.427493 -0.686669
-0.270006 1.430184 -0.688712
-0.267902 1.435239 -0.692550
-0.265509 1.438713 -0.695188
-0.262571 1.439027 -0.695427
-0.259764 1.440127 -0.696262
-0.256953 1.441223 -0.697094
-0.254137 1.442316 -0.697923
-0.251568 1.444985 -0.699949
-0.248864 1.446860 -0.701373
-0.246031 1.447942 -0.702195
-0.243074 1.448229 -0.702412
-0.240352 1.450094 -0.703828
-0.237740 1.452746 -0.705842
-0.235002 1.454604 -0.707253
-0.232030 1.454875 -0.707459
-0.229504 1.458309 -0.710066
-0.226524 1.458573 -0.710266
-0.223867 1.461209 -0.712267
-0.220987 1.462257 -0.713063
-0.218312 1.464885 -0.715059
-0.215626 1.467511 -0.717052
-0.213131 1.471717 -0.720246
-0.210220 1.472751 -0.721031
-0.207306 1.473781 -0.721813
-0.204484 1.475600 -0.723194
-0.201372 1.475037 -0.722766
-0.198263 1.474468 -0.722334
-0.195338 1.475482 -0.723104
-0.192854 1.480459 -0.726882
-0.190174 1.483846 -0.729454
-0.187394 1.486436 -0.731420
-0.184938 1.492197 -0.735794
-0.181966 1.493193 -0.736550
-0.178990 1.494185 -0.737304
-0.175853 1.493585 -0.736848
-0.173179 1.497745 -0.740006
-0.170188 1.498725 -0.740750
-0.167339 1.501289 -0.742698
-0.164265 1.501467 -0.742832
-0.161190 1.501640 -0.742964
-0.158183 1.502604 -0.743696
-0.677269 1.186712 -0.500749
-0.664743 1.170253 -0.488300
-0.661554 1.169677 -0.487864
-0.659628 1.171267 -0.489067
-0.658115 1.173580 -0.490816
-0.657426 1.177342 -0.493662
-0.655478 1.178928 -0.494862
-0.653939 1.181239 -0.496609
-0.651568 1.182095 -0.497257
-0.647146 1.179310 -0.495150
-0.646004 1.182340 -0.497442
-0.644851 1.185371 -0.499735
-0.643282 1.187672 -0.501475
-0.641300 1.189243 -0.502663
-0.638108 1.188620 -0.502192
-0.635321 1.188723 -0.502270
-0.634927 1.193210 -0.505664
-0.632530 1.194039 -0.506291
-0.629736 1.194133 -0.506362
-0.626549 1.193488 -0.505875
-0.624152 1.194306 -0.506493
-0.620189 1.192184 -0.504888
-0.618184 1.193727 -0.506055
-0.615786 1.194533 -0.506665
-0.614544 1.197543 -0.508941
-0.614059 1.202025 -0.512332
-0.611260 1.202089 -0.512380
-0.606557 1.198461 -0.509636
-0.606805 1.204416 -0.514140
-0.604006 1.204468 -0.514179
-0.602713 1.207471 -0.516450
-0.599535 1.206776 -0.515925
-0.601957 1.217176 -0.523791
-0.597280 1.213516 -0.521023
-0.593360 1.211329 -0.519369
-0.590187 1.210617 -0.518830
-0.587752 1.211384 -0.519410
-0.587140 1.215860 -0.522796
-0.588689 1.224797 -0.529556
-0.584776 1.222587 -0.527884
-0.578715 1.215906 -0.522831
-0.575910 1.215912 -0.522836
-0.579528 1.229326 -0.532981
-0.575277 1.226350 -0.530730
-0.574575 1.230826 -0.534116
-0.568929 1.224853 -0.529598
-0.568214 1.229325 -0.532981
-0.561904 1.221839 -0.527318
-0.563261 1.230795 -0.534092
-0.562508 1.235266 -0.537475
-0.563112 1.242736 -0.543124
-0.558213 1.238219 -0.539708
-0.557760 1.243441 -0.543657
-0.550510 1.233657 -0.536257
-0.548025 1.234368 -0.536795
-0.548222 1.241087 -0.541877
-0.548057 1.247058 -0.546394
-0.544878 1.246262 -0.545791
-0.542034 1.246213 -0.545754
-0.539851 1.247666 -0.546854
-0.537662 1.249117 -0.547951
-0.536119 1.252073 -0.550186
-0.534565 1.255028 -0.552422
-0.531389 1.254208 -0.551801
-0.529500 1.256403 -0.553462
-0.527603 1.258598 -0.555122
-0.525380 1.260034 -0.556208
-0.522837 1.260710 -0.556720
-0.520920 1.262898 -0.558374
-0.517746 1.262053 -0.557735
-0.515510 1.263477 -0.558812
-0.513268 1.264899 -0.559888
-0.511022 1.266317 -0.560961
-0.508771 1.267733 -0.562032
-0.506819 1.269907 -0.563676
-0.504557 1.271318 -0.564743
-0.501989 1.271965 -0.565233
-0.499719 1.273370 -0.566296
-0.497742 1.275534 -0.567932
-0.495165 1.276173 -0.568415
-0.493762 1.279856 -0.571201
-0.490591 1.278963 -0.570526
-0.488588 1.281118 -0.572155
-0.485999 1.281743 -0.572628
-0.483984 1.283893 -0.574254
-0.481674 1.285276 -0.575301
-0.480212 1.288951 -0.578080
-0.477606 1.289564 -0.578544
-0.474998 1.290175 -0.579006
-0.470994 1.286952 -0.576568
-0.468392 1.287553 -0.577023
-0.467719 1.293517 -0.581534
-0.465924 1.296414 -0.583725
-0.463029 1.296240 -0.583594
-0.460678 1.297598 -0.584621
-0.458322 1.298953 -0.585645
-0.456228 1.301073 -0.587249
-0.453861 1.302422 -0.588270
-0.451753 1.304538 -0.589870
-0.449375 1.305882 -0.590886
-0.446992 1.307223 -0.591900
-0.444087 1.307020 -0.591747
-0.441699 1.308354 -0.592756
-0.439050 1.308914 -0.593180
-0.436908 1.311013 -0.594768
-0.435009 1.313882 -0.596938
-0.432599 1.315205 -0.597938
-0.430184 1.316525 -0.598936
-0.428258 1.319387 -0.601102
-0.425831 1.320702 -0.602096
-0.422181 1.318146 -0.600163
-0.420479 1.321774 -0.602907
-0.418521 1.324627 -0.605065
-0.415837 1.325155 -0.605464
-0.412915 1.324904 -0.605275
-0.410230 1.325424 -0.605668
-0.408711 1.329818 -0.608991
-0.406479 1.331884 -0.610554
-0.404699 1.335500 -0.613289
-0.402905 1.339114 -0.616023
-0.402002 1.345835 -0.621106
-0.399946 1.348671 -0.623251
-0.397433 1.349950 -0.624219
-0.394472 1.349671 -0.624007
-0.391952 1.350943 -0.624970
-0.389429 1.352212 -0.625930
-0.387766 1.356593 -0.629243
-0.385012 1.357078 -0.629610
-0.382683 1.359117 -0.631153
-0.380346 1.361154 -0.632693
-0.377582 1.361629 -0.633052
-0.375441 1.364440 -0.635179
-0.372669 1.364908 -0.635532
-0.370102 1.366152 -0.636474
-0.367124 1.365832 -0.636231
-0.364953 1.368632 -0.638349
-0.362372 1.369867 -0.639283
-0.359786 1.371098 -0.640214
-0.357980 1.375454 -0.643509
-0.356156 1.379810 -0.646804
-0.353544 1.381033 -0.647729
-0.350736 1.381471 -0.648060
-0.347927 1.381904 -0.648388
-0.345305 1.383117 -0.649305
-0.343236 1.386677 -0.651998
-0.340784 1.388668 -0.653504
-0.338142 1.389872 -0.654414
-0.334593 1.387150 -0.652356
-0.332308 1.389915 -0.654447
-0.329482 1.390323 -0.654755
-0.327706 1.395437 -0.658624
-0.325040 1.396624 -0.659522
-0.322199 1.397022 -0.659823
-0.319697 1.398987 -0.661309
-0.317187 1.400950 -0.662793
-0.314669 1.402909 -0.664276
-0.312144 1.404866 -0.665755
-0.309938 1.408392 -0.668423
-0.306909 1.407982 -0.668113
-0.304522 1.410716 -0.670181
-0.301333 1.409510 -0.669268
-0.298933 1.412238 -0.671332
-0.296057 1.412599 -0.671605
-0.293792 1.416109 -0.674260
-0.291362 1.418828 -0.676316
-0.288472 1.419179 -0.676582
-0.285729 1.420314 -0.677440
-0.282981 1.421446 -0.678296
-0.280230 1.422574 -0.679150
-0.277617 1.424488 -0.680597
-0.274855 1.425609 -0.681445
-0.272368 1.428306 -0.683486
-0.269732 1.430210 -0.684926
-0.267359 1.433692 -0.687559
-0.264839 1.436380 -0.689592
-0.262439 1.439856 -0.692221
-0.259895 1.442539 -0.694250
-0.257210 1.444427 -0.695679
-0.254391 1.445521 -0.696507
-0.251568 1.446612 -0.697331
-0.248370 1.445324 -0.696357
-0.245544 1.446406 -0.697176
-0.243194 1.450652 -0.700387
-0.240589 1.453312 -0.702399
-0.237624 1.453592 -0.702611
-0.234657 1.453867 -0.702819
-0.231917 1.455724 -0.704224
-0.229392 1.459162 -0.706824
-0.226633 1.461012 -0.708223
-0.223759 1.462065 -0.709020
-0.220880 1.463115 -0.709814
-0.218312 1.466540 -0.712405
-0.215934 1.471549 -0.716193
-0.212928 1.471794 -0.716379
-0.210220 1.474417 -0.718362
-0.207209 1.474654 -0.718542
-0.204484 1.477270 -0.720520
-0.201466 1.477499 -0.720694
-0.198725 1.480107 -0.722666
-0.195973 1.482711 -0.724636
-0.193209 1.485312 -0.726604
-0.190261 1.486321 -0.727366
-0.187394 1.488120 -0.728727
-0.184520 1.489915 -0.730085
-0.181638 1.491707 -0.731440
-0.178589 1.491905 -0.731590
-0.175774 1.494484 -0.733540
-0.172949 1.497059 -0.735488
-0.170038 1.498835 -0.736832
-0.167119 1.500608 -0.738172
-0.164122 1.501581 -0.738909
-0.161190 1.503345 -0.740243
-0.158387 1.506698 -0.742779
-0.155371 1.507659 -0.743506
-0.152351 1.508616 -0.744230
-0.149328 1.509569 -0.744951
-0.667512 1.170772 -0.487042
-0.664743 1.170924 -0.487157
-0.663238 1.173243 -0.488908
-0.660886 1.174113 -0.489564
-0.658950 1.175704 -0.490765
-0.656177 1.175842 -0.490869
-0.653405 1.175975 -0.490969
-0.651460 1.177557 -0.492164
-0.650333 1.180593 -0.494455
-0.648375 1.182172 -0.495647
-0.645187 1.181563 -0.495188
-0.644038 1.184595 -0.497476
-0.642471 1.186897 -0.499214
-0.640090 1.187737 -0.499848
-0.638510 1.190036 -0.501583
-0.636121 1.190871 -0.502214
-0.634529 1.193166 -0.503946
-0.631736 1.193263 -0.504019
-0.628549 1.192622 -0.503536
-0.624579 1.190509 -0.501940
-0.622582 1.192059 -0.503110
-0.620580 1.193606 -0.504278
-0.619351 1.196622 -0.506554
-0.616948 1.197430 -0.507164
-0.616087 1.201180 -0.509995
-0.614059 1.202720 -0.511158
-0.611260 1.202784 -0.511206
-0.608462 1.202842 -0.511250
-0.606046 1.203636 -0.511849
-0.604383 1.205903 -0.513561
-0.603841 1.210388 -0.516946
-0.601783 1.211915 -0.518098
-0.600093 1.214179 -0.519808
-0.596166 1.211996 -0.518160
-0.594469 1.214255 -0.519865
-0.590555 1.212060 -0.518208
-0.590317 1.217284 -0.522151
-0.589694 1.221767 -0.525536
-0.592321 1.232945 -0.533973
-0.588031 1.229995 -0.531746
-0.578355 1.215867 -0.521081
-0.573402 1.211402 -0.517711
-0.572750 1.215874 -0.521087
-0.570660 1.217363 -0.522211
-0.574928 1.232289 -0.533478
-0.569281 1.226311 -0.528966
-0.566113 1.225555 -0.528394
-0.562601 1.224044 -0.527254
-0.561179 1.227019 -0.529500
-0.559400 1.229244 -0.531179
-0.557957 1.232217 -0.533424
-0.559581 1.241940 -0.540763
-0.557760 1.244166 -0.542443
-0.553898 1.241884 -0.540721
-0.549374 1.238093 -0.537859
-0.546880 1.238803 -0.538395
-0.545720 1.242520 -0.541201
-0.543217 1.243226 -0.541733
-0.540712 1.243927 -0.542263
-0.539193 1.246887 -0.544497
-0.537989 1.250600 -0.547300
-0.535794 1.252050 -0.548394
-0.533270 1.252742 -0.548916
-0.530744 1.253430 -0.549436
-0.529179 1.256382 -0.551665
-0.526646 1.257065 -0.552180
-0.524745 1.259258 -0.553835
-0.522521 1.260691 -0.554917
-0.520292 1.262122 -0.555997
-0.518059 1.263550 -0.557075
-0.515510 1.264217 -0.557579
-0.513577 1.266399 -0.559225
-0.511329 1.267819 -0.560297
-0.509076 1.269237 -0.561368
-0.506515 1.269891 -0.561862
-0.504254 1.271303 -0.562927
-0.501688 1.271950 -0.563416
-0.500317 1.275641 -0.566202
-0.497444 1.275521 -0.566111
-0.494869 1.276160 -0.566593
-0.492586 1.277557 -0.567648
-0.490007 1.278188 -0.568125
-0.488007 1.280344 -0.569752
-0.485999 1.282497 -0.571377
-0.483696 1.283884 -0.572424
-0.481674 1.286032 -0.574046
-0.478792 1.285883 -0.573933
-0.476476 1.287261 -0.574973
-0.474156 1.288636 -0.576011
-0.471273 1.288476 -0.575890
-0.471997 1.298280 -0.583290
-0.469924 1.300417 -0.584903
-0.466746 1.299481 -0.584197
-0.462213 1.294701 -0.580589
-0.460948 1.299132 -0.583934
-0.458591 1.300488 -0.584957
-0.456228 1.301841 -0.585979
-0.453330 1.301652 -0.585836
-0.450961 1.302999 -0.586853
-0.449113 1.305883 -0.589030
-0.446732 1.307224 -0.590042
-0.444087 1.307792 -0.590471
-0.441441 1.308356 -0.590896
-0.439305 1.310459 -0.592484
-0.436908 1.311788 -0.593487
-0.435009 1.314659 -0.595655
-0.432349 1.315211 -0.596071
-0.430184 1.317304 -0.597651
-0.428258 1.320169 -0.599813
-0.425586 1.320711 -0.600222
-0.423643 1.323571 -0.602381
-0.421204 1.324881 -0.603370
-0.418521 1.325413 -0.603772
-0.415837 1.325941 -0.604170
-0.413152 1.326465 -0.604566
-0.410700 1.327762 -0.605545
-0.408478 1.329831 -0.607107
-0.406479 1.332675 -0.609253
-0.403779 1.333186 -0.609639
-0.401991 1.336802 -0.612369
-0.399735 1.338862 -0.613924
-0.398822 1.345585 -0.618999
-0.396763 1.348420 -0.621139
-0.394250 1.349696 -0.622102
-0.391733 1.350969 -0.623063
-0.388992 1.351460 -0.623433
-0.386901 1.354285 -0.625565
-0.384583 1.356328 -0.627108
-0.382470 1.359148 -0.629237
-0.379712 1.359626 -0.629597
-0.377163 1.360881 -0.630544
-0.374817 1.362913 -0.632078
-0.373082 1.367285 -0.635378
-0.370715 1.369312 -0.636909
-0.368138 1.370555 -0.637847
-0.365355 1.371013 -0.638193
-0.362970 1.373032 -0.639716
-0.359391 1.370353 -0.637694
-0.357784 1.375495 -0.641576
-0.355379 1.377504 -0.643092
-0.353158 1.380294 -0.645198
-0.350927 1.383081 -0.647302
-0.348117 1.383515 -0.647630
-0.344743 1.381593 -0.646179
-0.342679 1.385156 -0.648868
-0.340048 1.386363 -0.649779
-0.337413 1.387566 -0.650688
-0.335496 1.391906 -0.653964
-0.332487 1.391534 -0.653682
-0.329836 1.392727 -0.654584
-0.326829 1.392346 -0.654296
-0.325040 1.397463 -0.658158
-0.322887 1.401006 -0.660832
-0.320037 1.401400 -0.661130
-0.317355 1.402578 -0.662019
-0.315003 1.405326 -0.664094
-0.312309 1.406497 -0.664978
-0.309448 1.406877 -0.665265
-0.306586 1.407253 -0.665549
-0.303723 1.407625 -0.665829
-0.301491 1.411146 -0.668487
-0.298776 1.412300 -0.669358
-0.296057 1.413449 -0.670225
-0.293027 1.413018 -0.669900
-0.290757 1.416527 -0.672549
-0.288621 1.420823 -0.675791
-0.286024 1.422749 -0.677245
-0.283273 1.423882 -0.678100
-0.280951 1.427381 -0.680741
-0.278187 1.428507 -0.681592
-0.275559 1.430420 -0.683036
-0.273063 1.433120 -0.685074
-0.270969 1.438189 -0.688900
-0.268309 1.440093 -0.690337
-0.264973 1.438039 -0.688787
-0.262042 1.438353 -0.689024
-0.259372 1.440246 -0.690452
-0.257081 1.444509 -0.693671
-0.254137 1.444813 -0.693900
-0.251067 1.444320 -0.693528
-0.248123 1.444615 -0.693750
-0.245544 1.447282 -0.695764
-0.242953 1.449946 -0.697775
-0.240352 1.452607 -0.699783
-0.237740 1.455265 -0.701790
-0.234887 1.456334 -0.702597
-0.232483 1.460571 -0.705795
-0.229615 1.461633 -0.706597
-0.226853 1.463485 -0.707994
-0.223867 1.463745 -0.708191
-0.221093 1.465590 -0.709583
-0.218103 1.465843 -0.709774
-0.215214 1.466885 -0.710561
-0.212524 1.469512 -0.712544
-0.210022 1.473724 -0.715724
-0.207111 1.474756 -0.716502
-0.204197 1.475784 -0.717278
-0.201654 1.479986 -0.720451
-0.198725 1.481007 -0.721221
-0.195701 1.481229 -0.721388
-0.192765 1.482241 -0.722153
-0.190000 1.484840 -0.724114
-0.187309 1.488231 -0.726674
-0.184269 1.488437 -0.726829
-0.181474 1.491025 -0.728783
-0.178749 1.494405 -0.731334
-0.175853 1.496190 -0.732682
-0.173026 1.498767 -0.734627
-0.170113 1.500545 -0.735969
-0.166973 1.499931 -0.735505
-0.164050 1.501701 -0.736841
-0.161190 1.504263 -0.738775
-0.158251 1.506025 -0.740105
-0.155570 1.510968 -0.743837
-0.152480 1.511130 -0.743959
-0.669209 1.174967 -0.487000
-0.665165 1.172948 -0.485482
-0.661975 1.172371 -0.485049
-0.658789 1.171789 -0.484611
-0.656443 1.172653 -0.485261
-0.655761 1.176422 -0.488094
-0.654234 1.178736 -0.489834
-0.652699 1.181050 -0.491574
-0.650745 1.182634 -0.492765
-0.648785 1.184217 -0.493955
-0.645187 1.182878 -0.492948
-0.642817 1.183723 -0.493584
-0.640446 1.184566 -0.494217
-0.639686 1.188330 -0.497047
-0.637304 1.189167 -0.497677
-0.636522 1.192931 -0.500507
-0.634130 1.193765 -0.501134
-0.631736 1.194595 -0.501758
-0.629341 1.195421 -0.502379
-0.626155 1.194775 -0.501893
-0.623367 1.194859 -0.501956
-0.621752 1.197145 -0.503675
-0.618962 1.197222 -0.503733
-0.616948 1.198767 -0.504895
-0.614930 1.200310 -0.506055
-0.613290 1.202589 -0.507769
-0.611260 1.204129 -0.508926
-0.608843 1.204927 -0.509526
-0.606425 1.205721 -0.510124
-0.604383 1.207253 -0.511275
-0.602713 1.209522 -0.512981
-0.603281 1.216237 -0.518030
-0.598601 1.212574 -0.515276
-0.599508 1.220034 -0.520885
-0.598536 1.223786 -0.523706
-0.594972 1.222337 -0.522616
-0.592883 1.223855 -0.523758
-0.587504 1.218674 -0.519863
-0.584330 1.217950 -0.519318
-0.580799 1.216475 -0.518209
-0.579075 1.218722 -0.519898
-0.576269 1.218729 -0.519903
-0.574177 1.220224 -0.521028
-0.570660 1.218729 -0.519904
-0.569626 1.222461 -0.522710
-0.566466 1.221705 -0.522141
-0.566813 1.228430 -0.527197
-0.564344 1.229166 -0.527751
-0.560832 1.227649 -0.526611
-0.557674 1.226877 -0.526030
-0.556239 1.229852 -0.528267
-0.556845 1.237332 -0.533891
-0.555717 1.241061 -0.536694
-0.553220 1.241781 -0.537236
-0.550048 1.240993 -0.536644
-0.545874 1.237941 -0.534349
-0.543050 1.237894 -0.534314
-0.541888 1.241613 -0.537109
-0.541704 1.247594 -0.541607
-0.540837 1.252069 -0.544972
-0.538643 1.253524 -0.546066
-0.536445 1.254977 -0.547158
-0.533594 1.254914 -0.547110
-0.531067 1.255604 -0.547629
-0.528538 1.256290 -0.548145
-0.527922 1.261518 -0.552075
-0.526015 1.263715 -0.553728
-0.522837 1.262877 -0.553098
-0.519664 1.262034 -0.552464
-0.517434 1.263464 -0.553539
-0.514888 1.264131 -0.554040
-0.513268 1.267075 -0.556254
-0.510714 1.267736 -0.556751
-0.508159 1.268394 -0.557245
-0.506819 1.272094 -0.560027
-0.504557 1.273508 -0.561090
-0.501989 1.274157 -0.561578
-0.499719 1.275565 -0.562637
-0.498039 1.278497 -0.564841
-0.495756 1.279900 -0.565897
-0.492880 1.279773 -0.565801
-0.490299 1.280406 -0.566277
-0.488007 1.281799 -0.567325
-0.486577 1.285486 -0.570097
-0.483984 1.286110 -0.570566
-0.481103 1.285964 -0.570456
-0.478792 1.287347 -0.571496
-0.476476 1.288727 -0.572533
-0.474717 1.291638 -0.574722
-0.472110 1.292246 -0.575179
-0.470888 1.296689 -0.578520
-0.467443 1.294986 -0.577240
-0.465376 1.297121 -0.578845
-0.461124 1.293101 -0.575822
-0.463384 1.307540 -0.586678
-0.458860 1.302742 -0.583071
-0.456763 1.304868 -0.584669
-0.453330 1.303138 -0.583369
-0.450961 1.304487 -0.584383
-0.448326 1.305061 -0.584815
-0.445950 1.306404 -0.585824
-0.443828 1.308515 -0.587411
-0.441956 1.311396 -0.589578
-0.439561 1.312731 -0.590581
-0.437161 1.314062 -0.591582
-0.435009 1.316164 -0.593163
-0.432599 1.317490 -0.594160
-0.429687 1.317264 -0.593990
-0.428258 1.321681 -0.597311
-0.425095 1.320674 -0.596554
-0.423399 1.324313 -0.599290
-0.421446 1.327176 -0.601442
-0.419002 1.328485 -0.602426
-0.416314 1.329014 -0.602824
-0.413625 1.329540 -0.603220
-0.410700 1.329285 -0.603028
-0.408244 1.330581 -0.604002
-0.406016 1.332650 -0.605558
-0.404009 1.335495 -0.607697
-0.401306 1.336004 -0.608080
-0.398602 1.336509 -0.608459
-0.396347 1.338568 -0.610007
-0.394084 1.340624 -0.611553
-0.393142 1.347354 -0.616614
-0.391513 1.351746 -0.619916
-0.389647 1.355358 -0.622631
-0.387550 1.358187 -0.624759
-0.385227 1.360234 -0.626298
-0.382896 1.362278 -0.627835
-0.380135 1.362758 -0.628195
-0.377372 1.363233 -0.628553
-0.374609 1.363705 -0.628907
-0.372463 1.366518 -0.631023
-0.370306 1.369330 -0.633137
-0.367935 1.371357 -0.634661
-0.365355 1.372599 -0.635594
-0.362970 1.374620 -0.637114
-0.360577 1.376638 -0.638632
-0.357588 1.376302 -0.638379
-0.354408 1.375178 -0.637534
-0.351426 1.374833 -0.637275
-0.349400 1.378407 -0.639961
-0.347171 1.381194 -0.642057
-0.345118 1.384764 -0.644741
-0.342493 1.385976 -0.645652
-0.340048 1.387970 -0.647151
-0.337413 1.389175 -0.648058
-0.334954 1.391163 -0.649552
-0.332487 1.393148 -0.651045
-0.329836 1.394344 -0.651944
-0.327180 1.395536 -0.652840
-0.324346 1.395937 -0.653142
-0.321855 1.397909 -0.654625
-0.319186 1.399091 -0.655513
-0.316681 1.401057 -0.656991
-0.314836 1.406172 -0.660837
-0.311649 1.404980 -0.659941
-0.308794 1.405360 -0.660226
-0.306101 1.406524 -0.661102
-0.303882 1.410052 -0.663755
-0.301650 1.413578 -0.666406
-0.298776 1.413944 -0.666681
-0.296212 1.415885 -0.668140
-0.293333 1.416243 -0.668409
-0.290908 1.418967 -0.670458
-0.288173 1.420109 -0.671316
-0.285433 1.421246 -0.672171
-0.282835 1.423171 -0.673618
-0.280374 1.425883 -0.675657
-0.277759 1.427801 -0.677100
-0.274855 1.428134 -0.677350
-0.273063 1.434794 -0.682357
-0.270144 1.435120 -0.682602
-0.267631 1.437817 -0.684631
-0.264705 1.438136 -0.684870
-0.261778 1.438450 -0.685106
-0.258850 1.438760 -0.685339
-0.256309 1.441444 -0.687357
-0.253883 1.444918 -0.689969
-0.251067 1.446010 -0.690790
-0.248617 1.449477 -0.693397
-0.246031 1.452149 -0.695406
-0.243194 1.453231 -0.696220
-0.240116 1.452721 -0.695837
-0.238090 1.459352 -0.700822
-0.235462 1.462011 -0.702821
-0.232710 1.463873 -0.704221
-0.229281 1.460965 -0.702035
-0.226304 1.461230 -0.702234
-0.223543 1.463080 -0.703624
-0.220880 1.465720 -0.705610
-0.218312 1.469153 -0.708191
-0.215523 1.470993 -0.709574
-0.212524 1.471238 -0.709759
-0.209724 1.473070 -0.711136
-0.206818 1.474103 -0.711913
-0.203909 1.475132 -0.712687
-0.200996 1.476157 -0.713457
-0.198171 1.477974 -0.714823
-0.195248 1.478992 -0.715588
-0.192321 1.480005 -0.716350
-0.189738 1.484199 -0.719504
-0.187223 1.489187 -0.723254
-0.184269 1.490190 -0.724008
-0.181147 1.489595 -0.723561
-0.178428 1.492979 -0.726105
-0.175774 1.497157 -0.729247
-0.172872 1.498941 -0.730588
-0.169813 1.499127 -0.730728
-0.166899 1.500903 -0.732063
-0.164050 1.503472 -0.733995
-0.161050 1.504444 -0.734725
-0.158387 1.509398 -0.738450
-0.155239 1.508766 -0.737975
-0.152158 1.508927 -0.738096
-0.149139 1.509882 -0.738814
-0.146422 1.514822 -0.742528
-0.143565 1.518162 -0.745040
-0.667088 1.172490 -0.482320
-0.662207 1.169015 -0.479717
-0.661554 1.172789 -0.482544
-0.661306 1.177291 -0.485917
-0.659368 1.178887 -0.487113
-0.656177 1.178298 -0.486672
-0.654234 1.179888 -0.487863
-0.653112 1.182933 -0.490145
-0.651568 1.185249 -0.491881
-0.648375 1.184645 -0.491428
-0.645596 1.184765 -0.491518
-0.642411 1.184150 -0.491057
-0.641256 1.187187 -0.493333
-0.640090 1.190225 -0.495609
-0.638912 1.193263 -0.497885
-0.636922 1.194834 -0.499062
-0.634130 1.194935 -0.499138
-0.630942 1.194297 -0.498660
-0.626572 1.191448 -0.496525
-0.622610 1.189327 -0.494935
-0.621013 1.191614 -0.496649
-0.620189 1.195373 -0.499466
-0.618184 1.196922 -0.500626
-0.615786 1.197730 -0.501232
-0.613772 1.199274 -0.502389
-0.613290 1.203771 -0.505758
-0.610112 1.203094 -0.505251
-0.607319 1.203151 -0.505294
-0.604908 1.203945 -0.505888
-0.602116 1.203994 -0.505925
-0.600455 1.206263 -0.507625
-0.596538 1.204079 -0.505989
-0.597855 1.212283 -0.512136
-0.598765 1.219751 -0.517731
-0.594099 1.216071 -0.514974
-0.586874 1.207173 -0.508307
-0.583720 1.206448 -0.507764
-0.586045 1.216895 -0.515592
-0.585056 1.220642 -0.518399
-0.579714 1.215435 -0.514498
-0.580515 1.222910 -0.520098
-0.578061 1.223666 -0.520664
-0.576318 1.225914 -0.522349
-0.574922 1.228908 -0.524592
-0.571040 1.226662 -0.522909
-0.567522 1.225157 -0.521782
-0.564712 1.225146 -0.521773
-0.562601 1.226630 -0.522885
-0.558403 1.223608 -0.520621
-0.559746 1.232595 -0.527355
-0.557613 1.234073 -0.528462
-0.559581 1.244573 -0.536330
-0.557419 1.246053 -0.537438
-0.555253 1.247530 -0.538545
-0.549711 1.241469 -0.534004
-0.547551 1.242936 -0.535103
-0.545386 1.244401 -0.536200
-0.544214 1.248127 -0.538992
-0.542034 1.249587 -0.540087
-0.539522 1.250290 -0.540613
-0.537662 1.252501 -0.542270
-0.536119 1.255467 -0.544492
-0.533270 1.255404 -0.544445
-0.530744 1.256094 -0.544962
-0.528859 1.258297 -0.546612
-0.527603 1.262014 -0.549398
-0.525063 1.262696 -0.549909
-0.522521 1.263375 -0.550417
-0.519350 1.262530 -0.549784
-0.517122 1.263961 -0.550856
-0.515510 1.266911 -0.553066
-0.513886 1.269859 -0.555275
-0.511637 1.271284 -0.556343
-0.508771 1.271181 -0.556266
-0.506515 1.272600 -0.557329
-0.503952 1.273252 -0.557818
-0.501688 1.274665 -0.558876
-0.499420 1.276074 -0.559932
-0.497147 1.277481 -0.560986
-0.495165 1.279649 -0.562611
-0.492586 1.280286 -0.563088
-0.490299 1.281685 -0.564136
-0.488007 1.283080 -0.565181
-0.485999 1.285239 -0.566799
-0.483984 1.287396 -0.568415
-0.481960 1.289551 -0.570030
-0.479360 1.290169 -0.570493
-0.476476 1.290016 -0.570378
-0.474437 1.292163 -0.571987
-0.472110 1.293540 -0.573018
-0.469779 1.294913 -0.574047
-0.466340 1.293206 -0.572769
-0.464555 1.296112 -0.574946
