# This PCD file was generated using the MATLAB® pcwrite function
# from Computer Vision System Toolbox®.
# .PCD v.7 - Point Cloud Data file format
VERSION .7
FIELDS x y z
SIZE 4 4 4
TYPE F F F
COUNT 1 1 1
WIDTH 1697
HEIGHT 1
VIEWPOINT 0 0 0 1 0 0 0
POINTS 1697
DATA ascii
0.428015 1.347873 -0.303556
0.430815 1.347993 -0.303617
0.431733 1.343022 -0.301111
0.434211 1.342288 -0.300741
0.436688 1.341550 -0.300369
0.439801 1.342501 -0.300848
0.442278 1.341754 -0.300472
0.444432 1.340158 -0.299668
0.447228 1.340249 -0.299714
0.449376 1.338647 -0.298906
0.451191 1.336198 -0.297671
0.452998 1.333747 -0.296436
0.455127 1.332137 -0.295625
0.458249 1.333051 -0.296085
0.461041 1.333117 -0.296119
0.463500 1.332337 -0.295726
0.466295 1.332395 -0.295755
0.468074 1.329926 -0.294510
0.468144 1.323258 -0.291149
0.468532 1.317433 -0.288213
0.471304 1.317480 -0.288237
0.474768 1.319198 -0.289103
0.478240 1.320910 -0.289966
0.481024 1.320940 -0.289981
0.483809 1.320966 -0.289994
0.486596 1.320987 -0.290005
0.490091 1.322673 -0.290855
0.489334 1.314335 -0.286652
0.492469 1.315180 -0.287078
0.494893 1.314351 -0.286660
0.498755 1.316851 -0.287920
0.498289 1.309352 -0.284140
0.502518 1.312675 -0.285815
0.506031 1.314325 -0.286647
0.509186 1.315136 -0.287056
0.510137 1.310961 -0.284951
0.513662 1.312594 -0.285774
0.515709 1.310903 -0.284922
0.517379 1.308381 -0.283651
0.520164 1.308341 -0.283631
0.521069 1.304160 -0.281523
0.524605 1.305767 -0.282333
0.527390 1.305715 -0.282307
0.533224 1.312262 -0.285607
0.531050 1.301470 -0.280167
0.533447 1.300581 -0.279719
0.535456 1.298865 -0.278854
0.537461 1.297146 -0.277988
0.539071 1.294602 -0.276706
0.541454 1.293701 -0.276252
0.544228 1.293617 -0.276209
0.547004 1.293529 -0.276165
0.549781 1.293435 -0.276118
0.552559 1.293337 -0.276068
0.553345 1.289139 -0.273952
0.554917 1.286579 -0.272662
0.557687 1.286470 -0.272607
0.560054 1.285540 -0.272138
0.562825 1.285423 -0.272079
0.566004 1.286116 -0.272429
0.568371 1.285173 -0.271953
0.570736 1.284226 -0.271476
0.572276 1.281648 -0.270176
0.574221 1.279881 -0.269286
0.576990 1.279738 -0.269214
0.578928 1.277966 -0.268321
0.581697 1.277814 -0.268244
0.584047 1.276846 -0.267756
0.586396 1.275875 -0.267267
0.588320 1.274090 -0.266367
0.590664 1.273112 -0.265874
0.593856 1.273747 -0.266194
0.596626 1.273567 -0.266104
0.598969 1.272577 -0.265604
0.600878 1.270776 -0.264697
0.602783 1.268973 -0.263788
0.605116 1.267973 -0.263284
0.608318 1.268576 -0.263588
0.609777 1.265961 -0.262270
0.612981 1.266554 -0.262569
0.614430 1.263934 -0.261248
0.616312 1.262114 -0.260331
0.618631 1.261093 -0.259816
0.621839 1.261667 -0.260106
0.624158 1.260637 -0.259586
0.626922 1.260402 -0.259468
0.627891 1.256970 -0.257738
0.631553 1.258322 -0.258419
0.634318 1.258073 -0.258294
0.638446 1.260206 -0.259369
0.641673 1.260740 -0.259638
0.641705 1.255707 -0.257102
0.644929 1.256233 -0.257367
0.646777 1.254374 -0.256430
0.649082 1.253305 -0.255891
0.649531 1.249067 -0.253755
0.651361 1.247203 -0.252815
0.654584 1.247707 -0.253069
0.658280 1.248993 -0.253718
0.661043 1.248695 -0.253567
0.664279 1.249179 -0.253811
0.665156 1.245721 -0.252068
0.666495 1.243051 -0.250723
0.668302 1.241166 -0.249772
0.670581 1.240064 -0.249217
0.673815 1.240525 -0.249449
0.676092 1.239414 -0.248889
0.677404 1.236734 -0.247539
0.679674 1.235618 -0.246976
0.682427 1.235278 -0.246805
0.687612 1.238835 -0.248598
0.695253 1.246277 -0.252349
-0.091335 1.590753 -0.424346
-0.088314 1.589048 -0.423489
-0.085243 1.585552 -0.421730
-0.082239 1.583837 -0.420868
-0.079217 1.581225 -0.419554
-0.076274 1.581287 -0.419585
-0.073330 1.581344 -0.419614
-0.070348 1.579610 -0.418742
-0.067320 1.575192 -0.416520
-0.064373 1.574342 -0.416093
-0.061443 1.574381 -0.416112
-0.058500 1.573522 -0.415680
-0.055530 1.569979 -0.413898
-0.052565 1.565537 -0.411664
-0.049638 1.563771 -0.410775
-0.046718 1.562000 -0.409885
-0.043801 1.559331 -0.408542
-0.040901 1.559338 -0.408546
-0.038000 1.557553 -0.407648
-0.035105 1.556658 -0.407198
-0.032209 1.556651 -0.407194
-0.029319 1.555746 -0.406739
-0.026432 1.554837 -0.406282
-0.023523 1.556604 -0.407171
-0.020753 1.545859 -0.401766
-0.017915 1.543150 -0.400404
-0.015102 1.539543 -0.398590
-0.012287 1.536826 -0.397223
-0.009465 1.534997 -0.396303
-0.006727 1.529591 -0.393584
-0.003822 1.532219 -0.394906
-0.000974 1.532164 -0.394878
0.002093 1.540142 -0.398891
0.004904 1.538291 -0.397960
0.007819 1.540008 -0.398824
0.010356 1.530112 -0.393846
0.013137 1.528248 -0.392909
0.015977 1.528166 -0.392868
0.018642 1.523616 -0.390579
0.021583 1.526203 -0.391881
0.024649 1.531464 -0.394527
0.027816 1.538506 -0.398068
0.030634 1.537508 -0.397567
0.033492 1.537399 -0.397512
0.035760 1.525684 -0.391619
0.038407 1.521997 -0.389765
0.041283 1.522768 -0.390153
0.044011 1.520858 -0.389192
0.046732 1.518943 -0.388229
0.049337 1.515241 -0.386367
0.052096 1.514210 -0.385848
0.054793 1.512284 -0.384880
0.057602 1.512137 -0.384806
0.060349 1.511094 -0.384281
0.063218 1.511830 -0.384651
0.066026 1.511670 -0.384571
0.068833 1.511506 -0.384488
0.071301 1.506880 -0.382162
0.073750 1.502252 -0.379834
0.076610 1.502967 -0.380193
0.079401 1.502786 -0.380102
0.082191 1.502601 -0.380009
0.084750 1.499739 -0.378570
0.087221 1.495983 -0.376681
0.089997 1.495785 -0.376581
0.092774 1.495584 -0.376480
0.095466 1.494487 -0.375929
0.098069 1.492497 -0.374927
0.100752 1.491392 -0.374372
0.103520 1.491174 -0.374262
0.106196 1.490061 -0.373703
0.108962 1.489834 -0.373588
0.111726 1.489603 -0.373472
0.114970 1.493814 -0.375590
0.117840 1.494462 -0.375916
0.120713 1.495106 -0.376240
0.122477 1.485968 -0.371644
0.124618 1.480384 -0.368835
0.126946 1.476575 -0.366919
0.129685 1.476315 -0.366789
0.133503 1.484933 -0.371123
0.136807 1.489104 -0.373221
0.139681 1.489717 -0.373529
0.141314 1.480561 -0.368924
0.143256 1.474067 -0.365658
0.144473 1.462248 -0.359714
0.146829 1.459300 -0.358231
0.149894 1.461671 -0.359423
0.153335 1.466696 -0.361951
0.157167 1.474374 -0.365812
0.158898 1.466977 -0.362092
0.160602 1.459579 -0.358371
0.162921 1.456609 -0.356877
0.166143 1.459837 -0.358501
0.170172 1.468372 -0.362793
0.172894 1.468045 -0.362629
0.174802 1.462403 -0.359792
0.177238 1.460300 -0.358734
0.179528 1.457308 -0.357229
0.181806 1.454313 -0.355723
0.184644 1.454853 -0.355994
0.187196 1.453619 -0.355374
0.189743 1.452382 -0.354751
0.192139 1.450258 -0.353683
0.194826 1.449897 -0.353501
0.197513 1.449532 -0.353318
0.200046 1.448280 -0.352688
0.202420 1.446141 -0.351612
0.204943 1.444882 -0.350979
0.207303 1.442737 -0.349900
0.209976 1.442352 -0.349707
0.212647 1.441964 -0.349511
0.214992 1.439808 -0.348427
0.217989 1.441174 -0.349114
0.220158 1.438130 -0.347583
0.222822 1.437725 -0.347380
0.225144 1.435556 -0.346288
0.227630 1.434263 -0.345638
0.230113 1.432967 -0.344986
0.233468 1.436065 -0.346545
0.236304 1.436519 -0.346773
0.238965 1.436090 -0.346557
0.241985 1.437413 -0.347222
0.244283 1.435217 -0.346118
0.246757 1.433897 -0.345454
0.247927 1.426428 -0.341698
0.249630 1.421593 -0.339266
0.251694 1.418510 -0.337715
0.254510 1.418934 -0.337928
0.257714 1.421106 -0.339020
0.260344 1.420642 -0.338788
0.262777 1.419299 -0.338112
0.265009 1.417077 -0.336994
0.267631 1.416602 -0.336755
0.270051 1.415248 -0.336075
0.272670 1.414766 -0.335832
0.275083 1.413405 -0.335147
0.277905 1.413789 -0.335341
0.280729 1.414168 -0.335531
0.283555 1.414543 -0.335720
0.285750 1.412293 -0.334588
0.287510 1.408295 -0.332577
0.289686 1.406040 -0.331443
0.292070 1.404655 -0.330746
0.294887 1.405010 -0.330925
0.297265 1.403618 -0.330225
0.300083 1.403964 -0.330399
0.302903 1.404306 -0.330571
0.305500 1.403772 -0.330302
0.307643 1.401494 -0.329157
0.310007 1.400084 -0.328447
0.312826 1.400408 -0.328610
0.314952 1.398121 -0.327460
0.317304 1.396700 -0.326745
0.319886 1.396144 -0.326466
0.322468 1.395584 -0.326184
0.324094 1.391550 -0.324155
0.326666 1.390983 -0.323870
0.329479 1.391279 -0.324019
0.331808 1.389838 -0.323294
0.334377 1.389259 -0.323003
0.336203 1.386080 -0.321404
0.339014 1.386359 -0.321545
0.341075 1.384040 -0.320378
0.345145 1.388634 -0.322688
0.347205 1.386306 -0.321518
0.350278 1.387431 -0.322084
0.353356 1.388550 -0.322646
0.357475 1.393116 -0.324943
0.358227 1.386459 -0.321595
0.359479 1.381529 -0.319115
0.361768 1.380045 -0.318369
0.363255 1.375975 -0.316322
0.363927 1.369321 -0.312975
0.368338 1.374716 -0.315688
0.368442 1.366340 -0.311475
0.375594 1.380318 -0.318506
0.378692 1.381389 -0.319045
0.380693 1.379020 -0.317853
0.383518 1.379223 -0.317955
0.384951 1.375133 -0.315898
0.385526 1.368469 -0.312546
0.384947 1.358379 -0.307472
0.387455 1.357718 -0.307139
0.389675 1.356197 -0.306374
0.393615 1.359806 -0.308189
0.396126 1.359131 -0.307850
0.398635 1.358452 -0.307508
0.402019 1.360333 -0.308454
0.404531 1.359645 -0.308108
0.407041 1.358953 -0.307760
0.409549 1.358257 -0.307410
0.411757 1.356704 -0.306629
0.413660 1.354297 -0.305418
0.414950 1.350185 -0.303350
0.416833 1.347775 -0.302138
0.419320 1.347063 -0.301780
0.422420 1.348049 -0.302276
0.424289 1.345630 -0.301059
0.426772 1.344907 -0.300695
0.429253 1.344180 -0.300330
0.432047 1.344298 -0.300389
0.433895 1.341868 -0.299167
0.437005 1.342824 -0.299648
0.439482 1.342082 -0.299275
0.442278 1.342181 -0.299325
0.444432 1.340585 -0.298522
0.445609 1.336450 -0.296442
0.447748 1.334849 -0.295637
0.450209 1.334090 -0.295255
0.452340 1.332483 -0.294447
0.454797 1.331717 -0.294061
0.457917 1.332632 -0.294522
0.460374 1.331857 -0.294132
0.462494 1.330236 -0.293317
0.464946 1.329454 -0.292923
0.467736 1.329508 -0.292951
0.473590 1.337118 -0.296778
0.472636 1.327923 -0.292154
0.472335 1.320414 -0.288376
0.477530 1.326324 -0.291349
0.479281 1.323842 -0.290101
0.481372 1.322196 -0.289273
0.477856 1.307159 -0.281710
0.481670 1.309698 -0.282987
0.484789 1.310557 -0.283419
0.491820 1.320597 -0.288468
0.495680 1.323107 -0.289731
0.494176 1.313099 -0.284697
0.494795 1.308100 -0.282183
0.498289 1.309766 -0.283021
0.502881 1.313922 -0.285111
0.505301 1.313076 -0.284686
0.508453 1.313890 -0.285095
0.510874 1.313036 -0.284666
0.513662 1.313008 -0.284652
0.514595 1.308828 -0.282550
0.515514 1.304649 -0.280448
0.514919 1.297158 -0.276680
0.516178 1.293811 -0.274996
0.517804 1.291291 -0.273729
0.520180 1.290422 -0.273292
0.527127 1.299461 -0.277838
0.527989 1.295277 -0.275734
0.530373 1.294392 -0.275289
0.535842 1.300098 -0.278158
0.537848 1.298378 -0.277293
0.539460 1.295832 -0.276013
0.541845 1.294930 -0.275559
0.544228 1.294024 -0.275103
0.547004 1.293935 -0.275059
0.548989 1.292201 -0.274186
0.551367 1.291284 -0.273725
0.553744 1.290363 -0.273262
0.555317 1.287801 -0.271974
0.557285 1.286056 -0.271096
0.559247 1.284309 -0.270217
0.562015 1.284192 -0.270158
0.564784 1.284071 -0.270097
0.566737 1.282314 -0.269214
0.569096 1.281369 -0.268738
0.571864 1.281235 -0.268671
0.574221 1.280282 -0.268192
0.575331 1.276887 -0.266484
0.578096 1.276741 -0.266411
0.581697 1.278214 -0.267151
0.585306 1.279678 -0.267888
0.586817 1.277084 -0.266583
0.590011 1.277727 -0.266907
0.591088 1.274319 -0.265193
0.595134 1.276570 -0.266325
0.596626 1.273965 -0.265015
0.600255 1.275395 -0.265734
0.603031 1.275204 -0.265638
0.607968 1.279037 -0.267566
0.609453 1.276418 -0.266248
0.607012 1.266559 -0.261290
0.609777 1.266355 -0.261187
0.611666 1.264541 -0.260274
0.615750 1.266735 -0.261378
0.616312 1.262507 -0.259252
0.618188 1.260684 -0.258335
0.620060 1.258859 -0.257417
0.622373 1.257832 -0.256900
0.624683 1.256800 -0.256381
0.627891 1.257361 -0.256663
0.631553 1.258713 -0.257344
0.633866 1.257668 -0.256818
0.638446 1.260598 -0.258292
0.640762 1.259542 -0.257760
0.642619 1.257687 -0.256827
0.645388 1.257418 -0.256692
0.648158 1.257144 -0.256554
0.650467 1.256072 -0.256015
0.652311 1.254205 -0.255076
0.654150 1.252336 -0.254136
0.655517 1.249674 -0.252797
0.659215 1.250960 -0.253444
0.662921 1.252237 -0.254086
0.664279 1.249566 -0.252743
0.665156 1.246108 -0.251003
0.667443 1.245009 -0.250451
0.669729 1.243908 -0.249897
0.671058 1.241232 -0.248551
0.673336 1.240125 -0.247994
0.676573 1.240581 -0.248224
0.678849 1.239465 -0.247662
0.677741 1.232871 -0.244346
0.681942 1.234879 -0.245356
0.685181 1.235315 -0.245575
0.691838 1.241205 -0.248537
-0.091178 1.587407 -0.419239
-0.088017 1.581232 -0.416147
-0.085076 1.581307 -0.416185
-0.082108 1.580485 -0.415773
-0.079193 1.581445 -0.416254
-0.076205 1.579719 -0.415390
-0.073267 1.579777 -0.415419
-0.070309 1.578935 -0.414997
-0.067268 1.573619 -0.412336
-0.064310 1.571874 -0.411462
-0.061345 1.569231 -0.410138
-0.058488 1.573736 -0.412394
-0.055519 1.570189 -0.410618
-0.052573 1.567532 -0.409287
-0.049631 1.563975 -0.407507
-0.046713 1.562203 -0.406619
-0.043805 1.561320 -0.406177
-0.040897 1.558644 -0.404838
-0.038000 1.554176 -0.402600
-0.035108 1.555962 -0.403494
-0.032223 1.554167 -0.402596
-0.029319 1.556838 -0.403933
-0.026467 1.551457 -0.401239
-0.023610 1.548755 -0.399886
-0.020784 1.544259 -0.397635
-0.017940 1.542442 -0.396725
-0.015074 1.542408 -0.396708
-0.012271 1.538794 -0.394898
-0.009378 1.540540 -0.395773
-0.006401 1.545857 -0.398435
-0.003508 1.546699 -0.398857
-0.000747 1.542174 -0.396591
0.002069 1.540325 -0.395665
0.005035 1.543836 -0.397423
0.007847 1.541979 -0.396493
0.010593 1.538330 -0.394666
0.013105 1.528421 -0.389705
0.015778 1.523871 -0.387426
0.018607 1.523784 -0.387383
0.021289 1.520120 -0.385548
0.024495 1.528960 -0.389975
0.027415 1.530647 -0.390819
0.030550 1.536797 -0.393898
0.033230 1.533114 -0.392054
0.035443 1.520495 -0.385736
0.037936 1.514126 -0.382547
0.040990 1.518471 -0.384723
0.043809 1.518345 -0.384660
0.046627 1.518216 -0.384595
0.049445 1.518081 -0.384528
0.052208 1.517050 -0.384011
0.054908 1.515121 -0.383046
0.057543 1.512296 -0.381631
0.060288 1.511253 -0.381108
0.062967 1.509312 -0.380137
0.065510 1.505583 -0.378270
0.068237 1.504527 -0.377741
0.071028 1.504359 -0.377657
0.073889 1.505079 -0.378017
0.076396 1.501335 -0.376142
0.079035 1.499371 -0.375159
0.081591 1.496511 -0.373727
0.084367 1.496322 -0.373632
0.087142 1.496129 -0.373536
0.089917 1.495931 -0.373437
0.092692 1.495729 -0.373336
0.095299 1.493741 -0.372340
0.097984 1.492640 -0.371789
0.100578 1.490644 -0.370790
0.103253 1.489535 -0.370234
0.105925 1.488422 -0.369677
0.108684 1.488195 -0.369563
0.111444 1.487964 -0.369448
0.114011 1.485949 -0.368439
0.116181 1.480370 -0.365645
0.118031 1.472119 -0.361514
0.121669 1.479880 -0.365400
0.125235 1.486744 -0.368837
0.127573 1.482930 -0.366927
0.129897 1.479113 -0.365016
0.131883 1.472626 -0.361768
0.134283 1.469693 -0.360299
0.137118 1.470311 -0.360609
0.140408 1.474477 -0.362695
0.143716 1.478638 -0.364778
0.146223 1.476576 -0.363746
0.148486 1.472735 -0.361822
0.150134 1.464452 -0.357675
0.153457 1.468594 -0.359749
0.155931 1.466519 -0.358710
0.159024 1.468875 -0.359890
0.159077 1.449940 -0.350409
0.161376 1.446970 -0.348922
0.164577 1.450203 -0.350541
0.166997 1.448112 -0.349494
0.169411 1.446018 -0.348445
0.171952 1.444806 -0.347839
0.175864 1.452448 -0.351665
0.178553 1.452112 -0.351496
0.181242 1.451772 -0.351326
0.184216 1.453198 -0.352040
0.186907 1.452849 -0.351865
0.190036 1.455150 -0.353017
0.191991 1.450370 -0.350624
0.194677 1.450009 -0.350443
0.197211 1.448760 -0.349818
0.199893 1.448390 -0.349633
0.202575 1.448017 -0.349446
0.205099 1.446756 -0.348815
0.208094 1.448141 -0.349508
0.210136 1.444224 -0.347547
0.212163 1.440305 -0.345585
0.215155 1.441677 -0.346271
0.218154 1.443043 -0.346956
0.220992 1.443523 -0.347196
0.223327 1.441354 -0.346110
0.225314 1.437420 -0.344140
0.227802 1.436126 -0.343492
0.230460 1.435709 -0.343283
0.233818 1.438809 -0.344836
0.235596 1.433983 -0.342419
0.237713 1.430914 -0.340883
0.240361 1.430482 -0.340666
0.243189 1.430925 -0.340888
0.246389 1.433120 -0.341987
0.248298 1.429160 -0.340004
0.250755 1.427833 -0.339340
0.253396 1.427380 -0.339113
0.255464 1.424290 -0.337566
0.257906 1.422953 -0.336896
0.260150 1.420735 -0.335786
0.262777 1.420267 -0.335552
0.265009 1.418043 -0.334438
0.267432 1.416691 -0.333761
0.269850 1.415337 -0.333083
0.272062 1.413103 -0.331965
0.274470 1.411742 -0.331283
0.277286 1.412127 -0.331476
0.279689 1.410759 -0.330791
0.282926 1.412884 -0.331855
0.285116 1.410633 -0.330728
0.287510 1.409253 -0.330037
0.289901 1.407869 -0.329344
0.292287 1.406483 -0.328650
0.295105 1.406838 -0.328828
0.297925 1.407188 -0.329003
0.300083 1.404918 -0.327866
0.302010 1.401774 -0.326292
0.304825 1.402112 -0.326461
0.307417 1.401575 -0.326193
0.309778 1.400164 -0.325486
0.312136 1.398749 -0.324777
0.315647 1.401680 -0.326245
0.317537 1.398517 -0.324661
0.320357 1.398829 -0.324818
0.322468 1.396531 -0.323667
0.324571 1.394229 -0.322514
0.325945 1.389321 -0.320057
0.327302 1.384413 -0.317600
0.330590 1.386443 -0.318616
0.333395 1.386733 -0.318761
0.335957 1.386151 -0.318470
0.338268 1.384699 -0.317743
0.340825 1.384110 -0.317448
0.343129 1.382652 -0.316717
0.344921 1.379460 -0.315119
0.348234 1.381454 -0.316118
0.352070 1.385170 -0.317978
0.354887 1.385423 -0.318105
0.360572 1.395167 -0.322984
0.359741 1.383326 -0.317055
0.365990 1.394778 -0.322789
0.365114 1.382938 -0.316861
0.368470 1.384892 -0.317839
0.370758 1.383395 -0.317089
0.373583 1.383615 -0.317200
0.373960 1.376088 -0.313431
0.377870 1.379743 -0.315261
0.381520 1.382530 -0.316657
0.381022 1.372423 -0.311596
0.381603 1.365757 -0.308258
0.381877 1.358234 -0.304491
0.385795 1.361866 -0.306310
0.388875 1.362917 -0.306836
0.392818 1.366534 -0.308647
0.394478 1.363290 -0.307023
0.396126 1.360045 -0.305398
0.399216 1.361076 -0.305915
0.401142 1.358682 -0.304716
0.403943 1.358849 -0.304800
0.405858 1.356449 -0.303598
0.408657 1.356608 -0.303677
0.411159 1.355909 -0.303327
0.413660 1.355206 -0.302976
0.416462 1.355352 -0.303048
0.418658 1.353789 -0.302266
0.420849 1.352223 -0.301482
0.423035 1.350654 -0.300696
0.424907 1.348232 -0.299483
0.426151 1.344108 -0.297418
0.428316 1.342532 -0.296629
0.430477 1.340953 -0.295839
0.432001 1.337675 -0.294197
0.435101 1.338635 -0.294678
0.437887 1.338742 -0.294732
0.440675 1.338845 -0.294783
0.443143 1.338096 -0.294408
0.445609 1.337343 -0.294031
0.448724 1.338277 -0.294499
0.450209 1.334981 -0.292849
0.452669 1.334217 -0.292466
0.455458 1.334293 -0.292504
0.457917 1.333521 -0.292118
0.460040 1.331903 -0.291307
0.462158 1.330281 -0.290495
0.463598 1.326973 -0.288839
0.462993 1.318617 -0.284655
0.464060 1.314470 -0.282578
0.466822 1.314524 -0.282606
0.470616 1.317094 -0.283892
0.474768 1.320494 -0.285595
0.476159 1.317176 -0.283933
0.477538 1.313857 -0.282272
0.478206 1.308863 -0.279771
0.485892 1.320611 -0.285653
0.486557 1.315609 -0.283149
0.488268 1.313116 -0.281901
0.492469 1.316470 -0.283580
0.494893 1.315640 -0.283165
0.496235 1.312304 -0.281494
0.498289 1.310635 -0.280658
0.498885 1.305630 -0.278153
0.504937 1.313116 -0.281901
0.504055 1.304779 -0.277726
0.507192 1.305594 -0.278134
0.504788 1.293941 -0.272300
0.511253 1.302224 -0.276447
0.510665 1.294728 -0.272694
0.513421 1.294699 -0.272679
0.516178 1.294665 -0.272662
0.519315 1.295454 -0.273057
0.522457 1.296237 -0.273449
0.525222 1.296187 -0.273425
0.528754 1.297785 -0.274224
0.532294 1.299375 -0.275021
0.533913 1.296833 -0.273748
0.536686 1.296763 -0.273713
0.539460 1.296688 -0.273675
0.540673 1.293316 -0.271987
0.543444 1.293234 -0.271945
0.546216 1.293146 -0.271902
0.548594 1.292232 -0.271444
0.550970 1.291315 -0.270985
0.553744 1.291214 -0.270934
0.556118 1.290289 -0.270471
0.556481 1.285266 -0.267956
0.558843 1.284336 -0.267491
0.561204 1.283403 -0.267023
0.563563 1.282466 -0.266554
0.565104 1.279893 -0.265266
0.567866 1.279765 -0.265202
0.571041 1.280448 -0.265544
0.574221 1.281124 -0.265882
0.576575 1.280167 -0.265403
0.580593 1.282458 -0.266550
0.582950 1.281491 -0.266066
0.584886 1.279708 -0.265173
0.582607 1.269813 -0.260219
0.583671 1.266411 -0.258515
0.590239 1.273536 -0.262083
0.595560 1.278218 -0.264427
0.597481 1.276419 -0.263526
0.597682 1.271386 -0.261007
0.597865 1.266357 -0.258488
0.601919 1.268589 -0.259606
0.605116 1.269200 -0.259912
0.607012 1.267389 -0.259005
0.608903 1.265576 -0.258097
0.610789 1.263761 -0.257189
0.615310 1.266762 -0.258691
0.617195 1.264938 -0.257778
0.619075 1.263112 -0.256864
0.619615 1.258881 -0.254745
0.621927 1.257853 -0.254230
0.623788 1.256022 -0.253314
0.626543 1.255786 -0.253195
0.630201 1.257142 -0.253874
0.633866 1.258489 -0.254549
0.636176 1.257439 -0.254023
0.638029 1.255589 -0.253097
0.640333 1.254532 -0.252568
0.643553 1.255061 -0.252832
0.645397 1.253201 -0.251901
0.647235 1.251340 -0.250969
0.649531 1.250269 -0.250433
0.651361 1.248402 -0.249498
0.654118 1.248116 -0.249355
0.655940 1.246244 -0.248417
0.659165 1.246738 -0.248665
0.660040 1.243282 -0.246934
0.661848 1.241402 -0.245993
0.664599 1.241096 -0.245840
0.667351 1.240784 -0.245684
0.670104 1.240467 -0.245525
0.671900 1.238575 -0.244578
0.674652 1.238250 -0.244415
0.676441 1.236353 -0.243465
0.678708 1.235236 -0.242906
0.681457 1.234897 -0.242736
0.683722 1.233773 -0.242173
0.689887 1.238889 -0.244735
-0.091241 1.589698 -0.418844
-0.088017 1.581731 -0.414863
-0.085076 1.581807 -0.414901
-0.082134 1.581878 -0.414937
-0.079193 1.581945 -0.414970
-0.076137 1.577535 -0.412767
-0.073162 1.575804 -0.411901
-0.070213 1.574962 -0.411481
-0.067268 1.574116 -0.411058
-0.064341 1.574159 -0.411080
-0.061401 1.573304 -0.410652
-0.058512 1.576021 -0.412010
-0.055551 1.573368 -0.410684
-0.052591 1.569815 -0.408909
-0.049610 1.561785 -0.404896
-0.046692 1.559117 -0.403563
-0.043788 1.557339 -0.402675
-0.040892 1.556451 -0.402231
-0.038000 1.554664 -0.401338
-0.035112 1.554662 -0.401337
-0.032226 1.553761 -0.400887
-0.029335 1.554644 -0.401328
-0.026453 1.553734 -0.400873
-0.023610 1.549241 -0.398628
-0.020900 1.534904 -0.391464
-0.018074 1.533087 -0.390556
-0.015242 1.532159 -0.390092
-0.012209 1.542854 -0.395437
-0.009221 1.549073 -0.398544
-0.006478 1.542765 -0.395392
-0.003717 1.538242 -0.393132
-0.000679 1.545340 -0.396679
0.002142 1.543491 -0.395755
0.004852 1.538061 -0.393042
0.007568 1.533521 -0.390773
0.010000 1.520929 -0.384481
0.012791 1.519958 -0.383996
0.015943 1.528817 -0.388423
0.018886 1.531413 -0.389720
0.021949 1.536685 -0.392354
0.024150 1.521394 -0.384713
0.027054 1.523082 -0.385557
0.029629 1.517616 -0.382825
0.032707 1.522870 -0.385451
0.035170 1.515609 -0.381822
0.038030 1.516386 -0.382211
0.040990 1.518945 -0.383490
0.043758 1.517926 -0.382981
0.046470 1.516010 -0.382023
0.049283 1.515876 -0.381956
0.052096 1.515737 -0.381887
0.054966 1.516487 -0.382262
0.057365 1.510089 -0.379065
0.060105 1.509045 -0.378543
0.062842 1.507997 -0.378019
0.065574 1.506945 -0.377493
0.068303 1.505888 -0.376965
0.070892 1.503043 -0.375544
0.073680 1.502871 -0.375458
0.076396 1.501802 -0.374923
0.078961 1.498945 -0.373496
0.081741 1.498760 -0.373403
0.084597 1.499463 -0.373755
0.087299 1.498377 -0.373212
0.089997 1.497288 -0.372668
0.092446 1.493520 -0.370785
0.095048 1.491531 -0.369791
0.097642 1.489539 -0.368796
0.100490 1.490216 -0.369134
0.103075 1.488216 -0.368135
0.105834 1.487993 -0.368023
0.108592 1.487767 -0.367910
0.110409 1.478630 -0.363345
0.113245 1.479286 -0.363673
0.116083 1.479938 -0.363999
0.119422 1.485036 -0.366546
0.121871 1.482118 -0.365088
0.123795 1.474748 -0.361405
0.125901 1.469156 -0.358611
0.130216 1.482240 -0.365149
0.132963 1.481975 -0.365016
0.134612 1.472815 -0.360439
0.137229 1.471654 -0.359859
0.140295 1.474045 -0.361054
0.143141 1.474653 -0.361357
0.145523 1.471703 -0.359883
0.147776 1.467861 -0.357964
0.150495 1.467569 -0.357818
0.153091 1.466385 -0.357226
0.154695 1.458095 -0.353084
0.157394 1.457792 -0.352932
0.160729 1.461921 -0.354996
0.164080 1.466044 -0.357056
0.166273 1.462179 -0.355125
0.168584 1.459198 -0.353635
0.171286 1.458874 -0.353473
0.173716 1.456772 -0.352423
0.176139 1.454667 -0.351371
0.178832 1.454331 -0.351203
0.181383 1.453105 -0.350590
0.183931 1.451875 -0.349975
0.186474 1.450641 -0.349359
0.189305 1.451173 -0.349625
0.191991 1.450816 -0.349447
0.194826 1.451340 -0.349708
0.197059 1.448321 -0.348200
0.199281 1.445300 -0.346690
0.201956 1.444928 -0.346504
0.204786 1.445434 -0.346757
0.207303 1.444170 -0.346125
0.210136 1.444668 -0.346374
0.212324 1.441630 -0.344856
0.215319 1.443002 -0.345542
0.217824 1.441722 -0.344902
0.220325 1.440439 -0.344261
0.223327 1.441797 -0.344940
0.226506 1.444031 -0.346056
0.229694 1.446260 -0.347170
0.232197 1.444959 -0.346520
0.232766 1.433967 -0.341027
0.235773 1.435303 -0.341695
0.238786 1.436634 -0.342360
0.241624 1.437079 -0.342582
0.244647 1.438400 -0.343242
0.247309 1.437956 -0.343021
0.248484 1.430477 -0.339283
0.248693 1.418605 -0.333351
0.251883 1.420790 -0.334443
0.255083 1.422970 -0.335532
0.258099 1.424266 -0.336180
0.259955 1.420292 -0.334194
0.262189 1.418070 -0.333084
0.264613 1.416722 -0.332410
0.266435 1.412741 -0.330421
0.268845 1.411388 -0.329745
0.271656 1.411783 -0.329942
0.274470 1.412173 -0.330137
0.277699 1.414309 -0.331204
0.279481 1.410314 -0.329208
0.281878 1.408942 -0.328522
0.284270 1.407566 -0.327835
0.286871 1.407061 -0.327582
0.289257 1.405678 -0.326891
0.292070 1.406038 -0.327071
0.294232 1.403775 -0.325940
0.297046 1.404127 -0.326116
0.298754 1.400112 -0.324110
0.301340 1.399585 -0.323847
0.304375 1.400796 -0.324452
0.306963 1.400259 -0.324184
0.309550 1.399719 -0.323914
0.311676 1.397433 -0.322772
0.313562 1.394275 -0.321193
0.315903 1.392854 -0.320483
0.318475 1.392299 -0.320206
0.321047 1.391741 -0.319927
0.323378 1.390309 -0.319212
0.326426 1.391480 -0.319797
0.329721 1.393513 -0.320813
0.334731 1.401613 -0.324860
0.336094 1.396693 -0.322402
0.337685 1.392639 -0.320376
0.338019 1.384253 -0.316186
0.338071 1.375003 -0.311564
0.339600 1.370952 -0.309539
0.342383 1.371225 -0.309676
0.345679 1.373224 -0.310675
0.348728 1.374352 -0.311238
0.353593 1.381523 -0.314821
0.356925 1.383500 -0.315810
0.358168 1.378566 -0.313344
0.359921 1.375357 -0.311740
0.361662 1.372146 -0.310136
0.365797 1.376692 -0.312408
0.367800 1.374336 -0.311230
0.370607 1.374562 -0.311343
0.372871 1.373061 -0.310593
0.376774 1.376720 -0.312421
0.377661 1.370911 -0.309519
0.380745 1.371979 -0.310052
0.382998 1.370464 -0.309295
0.382439 1.360360 -0.304247
0.382689 1.352837 -0.300487
0.385467 1.353036 -0.300587
0.389961 1.358373 -0.303254
0.393041 1.359417 -0.303775
0.395259 1.357885 -0.303010
0.397181 1.355495 -0.301816
0.399680 1.354814 -0.301475
0.401884 1.353274 -0.300706
0.404379 1.352585 -0.300362
0.407170 1.352746 -0.300442
0.410262 1.353757 -0.300947
0.412758 1.353055 -0.300596
0.415857 1.354055 -0.301096
0.418354 1.353344 -0.300741
0.420543 1.351778 -0.299958
0.421806 1.347655 -0.297898
0.424289 1.346935 -0.297538
0.426461 1.345361 -0.296752
0.428941 1.344634 -0.296389
0.431105 1.343054 -0.295599
0.433264 1.341471 -0.294808
0.435419 1.339885 -0.294015
0.438206 1.339992 -0.294069
0.440675 1.339246 -0.293696
0.443143 1.338497 -0.293322
0.444313 1.334358 -0.291254
0.447422 1.335295 -0.291722
0.448900 1.332000 -0.290075
0.451682 1.332082 -0.290116
0.453475 1.329627 -0.288890
0.457252 1.332233 -0.290192
0.459372 1.330615 -0.289383
0.461823 1.329836 -0.288994
0.463935 1.328212 -0.288182
0.466042 1.326584 -0.287369
0.465081 1.317384 -0.282772
0.464086 1.308191 -0.278178
0.468554 1.312446 -0.280304
0.473732 1.318369 -0.283264
0.479281 1.325119 -0.286637
0.481372 1.323471 -0.285814
0.485560 1.326848 -0.287501
0.486596 1.322679 -0.285418
0.489384 1.322695 -0.285426
0.491109 1.320197 -0.284178
0.493896 1.320205 -0.284182
0.497402 1.321878 -0.285017
0.501275 1.324378 -0.286267
0.501906 1.319364 -0.283762
0.502518 1.314353 -0.281257
0.502018 1.306844 -0.277505
0.505155 1.307663 -0.277915
0.507929 1.307645 -0.277906
0.511074 1.308453 -0.278309
0.512739 1.305933 -0.277050
0.515514 1.305901 -0.277034
0.513795 1.295912 -0.272043
0.513921 1.290076 -0.269126
0.516670 1.290040 -0.269109
0.528149 1.309036 -0.278600
0.532081 1.311458 -0.279811
0.532581 1.306434 -0.277300
0.528451 1.291502 -0.269839
0.530825 1.290615 -0.269396
0.534748 1.293024 -0.270600
0.539071 1.296248 -0.272211
0.541454 1.295346 -0.271760
0.542659 1.291970 -0.270073
0.544640 1.290240 -0.269208
0.547012 1.289328 -0.268753
0.550176 1.290055 -0.269116
0.551750 1.287494 -0.267836
0.553716 1.285752 -0.266966
0.556481 1.285645 -0.266913
0.559247 1.285534 -0.266857
0.561204 1.283782 -0.265981
0.563157 1.282027 -0.265105
0.565921 1.281903 -0.265043
0.568686 1.281775 -0.264978
0.571041 1.280825 -0.264504
0.575047 1.283131 -0.265656
0.577819 1.282986 -0.265584
0.580177 1.282023 -0.265103
0.584622 1.285120 -0.266650
0.587403 1.284958 -0.266569
0.589343 1.283168 -0.265675
0.590433 1.279755 -0.263969
0.592785 1.278772 -0.263478
0.595560 1.278594 -0.263389
0.598336 1.278412 -0.263298
0.597682 1.271760 -0.259974
0.598295 1.267536 -0.257864
0.597598 1.260894 -0.254545
0.602948 1.265542 -0.256867
0.605707 1.265345 -0.256769
0.608467 1.265143 -0.256668
0.609913 1.262524 -0.255359
0.612230 1.261510 -0.254853
0.614546 1.260494 -0.254344
0.615530 1.257067 -0.252632
0.618281 1.256846 -0.252522
0.622373 1.259022 -0.253609
0.624683 1.257989 -0.253093
0.626094 1.255355 -0.251777
0.628848 1.255114 -0.251657
0.631151 1.254071 -0.251135
0.633906 1.253822 -0.251011
0.636206 1.252771 -0.250486
0.638962 1.252512 -0.250356
0.642177 1.253043 -0.250622
0.644476 1.251980 -0.250090
0.646311 1.250119 -0.249160
0.649068 1.249841 -0.249022
0.648572 1.244015 -0.246110
0.650853 1.242941 -0.245574
0.654068 1.243445 -0.245825
0.658226 1.245522 -0.246863
0.660982 1.245222 -0.246714
0.662320 1.242552 -0.245380
0.664599 1.241457 -0.244832
0.667351 1.241146 -0.244677
0.671535 1.243187 -0.245697
0.671900 1.238936 -0.243572
0.674171 1.237826 -0.243018
0.676441 1.236712 -0.242461
0.678708 1.235595 -0.241903
0.680973 1.234474 -0.241343
0.682263 1.231787 -0.240000
0.685008 1.231441 -0.239827
-0.091053 1.586142 -0.411492
-0.087988 1.582641 -0.409755
-0.085076 1.583612 -0.410237
-0.082056 1.580997 -0.408940
-0.079144 1.581959 -0.409417
-0.076183 1.581125 -0.409004
-0.073267 1.582079 -0.409476
-0.070213 1.576757 -0.406837
-0.067268 1.575910 -0.406417
-0.064310 1.574162 -0.405549
-0.061401 1.575096 -0.406013
-0.058402 1.569756 -0.403364
-0.055498 1.570681 -0.403823
-0.052486 1.560852 -0.398948
-0.049589 1.560873 -0.398958
-0.046686 1.559993 -0.398522
-0.043791 1.560004 -0.398527
-0.040892 1.558219 -0.397642
-0.038000 1.556430 -0.396754
-0.035112 1.556427 -0.396753
-0.032216 1.558212 -0.397638
-0.029345 1.554618 -0.395855
-0.026453 1.555498 -0.396292
-0.023662 1.545624 -0.391394
-0.020690 1.554557 -0.395825
-0.017805 1.554528 -0.395811
-0.015032 1.547328 -0.392239
-0.012303 1.539228 -0.388222
-0.009361 1.543664 -0.390422
-0.006459 1.545408 -0.391287
-0.003550 1.547148 -0.392150
-0.000747 1.544405 -0.390790
0.001898 1.536284 -0.386762
0.004590 1.530846 -0.384065
0.007428 1.530778 -0.384030
0.010415 1.535182 -0.386215
0.013388 1.538685 -0.387953
0.015910 1.529649 -0.383471
0.018747 1.529563 -0.383428
0.021326 1.523205 -0.380274
0.024035 1.520424 -0.378895
0.026933 1.522116 -0.379734
0.029797 1.522907 -0.380126
0.033012 1.530854 -0.384068
0.035669 1.527161 -0.382236
0.038407 1.525254 -0.381290
0.040795 1.517079 -0.377236
0.043505 1.515164 -0.376286
0.046366 1.515929 -0.376665
0.049283 1.517584 -0.377486
0.051817 1.512973 -0.375199
0.054563 1.511936 -0.374685
0.057305 1.510895 -0.374168
0.060044 1.509849 -0.373650
0.062842 1.509694 -0.373573
0.065510 1.507746 -0.372607
0.068303 1.507582 -0.372525
0.070960 1.505626 -0.371555
0.073471 1.501879 -0.369696
0.076253 1.501703 -0.369609
0.079035 1.501522 -0.369519
0.081741 1.500443 -0.368984
0.084367 1.498467 -0.368004
0.086907 1.495595 -0.366579
0.089516 1.493611 -0.365596
0.092446 1.495195 -0.366381
0.094880 1.491418 -0.364508
0.097642 1.491208 -0.364404
0.100142 1.488317 -0.362970
0.102897 1.488099 -0.362861
0.105562 1.486984 -0.362308
0.108223 1.485865 -0.361754
0.110879 1.484743 -0.361197
0.113245 1.480941 -0.359311
0.116669 1.486943 -0.362288
0.118528 1.478677 -0.358188
0.122477 1.489125 -0.363370
0.124001 1.478179 -0.357941
0.126946 1.479705 -0.358698
0.128516 1.469646 -0.353709
0.131883 1.474728 -0.356229
0.134393 1.472679 -0.355213
0.137006 1.471517 -0.354637
0.140295 1.475692 -0.356707
0.143256 1.477191 -0.357451
0.145290 1.471567 -0.354661
0.147894 1.470389 -0.354077
0.149774 1.463870 -0.350844
0.152847 1.466242 -0.352020
0.156425 1.472164 -0.354958
0.159149 1.471858 -0.354806
0.162508 1.475991 -0.356856
0.164209 1.468568 -0.353174
0.167579 1.472691 -0.355219
0.169113 1.464375 -0.351094
0.171822 1.464049 -0.350932
0.173988 1.460169 -0.349008
0.176551 1.458948 -0.348402
0.178832 1.455949 -0.346915
0.181383 1.454721 -0.346305
0.184073 1.454376 -0.346134
0.186763 1.454026 -0.345961
0.189451 1.453673 -0.345786
0.192435 1.455087 -0.346487
0.194826 1.452953 -0.345429
0.196908 1.449045 -0.343490
0.199281 1.446905 -0.342429
0.201801 1.445647 -0.341805
0.204317 1.444385 -0.341179
0.205405 1.435158 -0.336602
0.209176 1.440966 -0.339483
0.211031 1.436157 -0.337098
0.214012 1.437533 -0.337780
0.216008 1.433603 -0.335831
0.219991 1.440270 -0.339138
0.221979 1.436332 -0.337185
0.225654 1.441220 -0.339609
0.228662 1.442571 -0.340279
0.230460 1.437741 -0.337883
0.232942 1.436437 -0.337236
0.232940 1.422786 -0.330465
0.236998 1.429412 -0.333752
0.238014 1.421049 -0.329604
0.242096 1.427662 -0.332884
0.243446 1.421059 -0.329609
0.246627 1.423257 -0.330699
0.248693 1.420170 -0.329168
0.251505 1.420600 -0.329381
0.254892 1.423662 -0.330900
0.256944 1.420565 -0.329364
0.259373 1.419223 -0.328698
0.261994 1.418756 -0.328467
0.264613 1.418285 -0.328233
0.266634 1.415176 -0.326691
0.269448 1.415576 -0.326889
0.271656 1.413338 -0.325779
0.274879 1.415483 -0.326843
0.277699 1.415868 -0.327034
0.279689 1.412744 -0.325484
0.281878 1.410493 -0.324368
0.283636 1.406488 -0.322382
0.286019 1.405108 -0.321697
0.288827 1.405474 -0.321879
0.291638 1.405836 -0.322058
0.294232 1.405318 -0.321801
0.296386 1.403049 -0.320676
0.299197 1.403398 -0.320849
0.301787 1.402869 -0.320586
0.304600 1.403208 -0.320755
0.306737 1.400926 -0.319622
0.309093 1.399512 -0.318921
0.311215 1.397224 -0.317786
0.313330 1.394933 -0.316650
0.315436 1.392639 -0.315512
0.318711 1.394697 -0.316533
0.321520 1.395008 -0.316687
0.324094 1.394444 -0.316407
0.325705 1.390397 -0.314400
0.328270 1.389826 -0.314117
0.329859 1.385776 -0.312108
0.331188 1.380856 -0.309668
0.334228 1.382013 -0.310242
0.336776 1.381429 -0.309952
0.339823 1.382576 -0.310521
0.340860 1.376782 -0.307647
0.344921 1.381387 -0.309931
0.347468 1.380786 -0.309633
0.350271 1.381047 -0.309762
0.353076 1.381303 -0.309890
0.354320 1.376365 -0.307440
0.356595 1.374885 -0.306706
0.357018 1.367353 -0.302970
0.361396 1.372780 -0.305662
0.363927 1.372153 -0.305351
0.366724 1.372386 -0.305466
0.368983 1.370888 -0.304724
0.370148 1.365940 -0.302269
0.374583 1.371331 -0.304943
0.376834 1.369823 -0.304195
0.379081 1.368311 -0.303445
0.381045 1.365937 -0.302268
0.382719 1.362700 -0.300662
0.385230 1.362040 -0.300335
0.386035 1.356223 -0.297449
0.389961 1.359851 -0.299249
0.393328 1.361754 -0.300193
0.396126 1.361935 -0.300283
0.398344 1.360397 -0.299520
0.400265 1.357999 -0.298330
0.402766 1.357312 -0.297990
0.404971 1.355765 -0.297222
0.406873 1.353360 -0.296029
0.409664 1.353517 -0.296107
0.411856 1.351961 -0.295336
0.413741 1.349548 -0.294138
0.416225 1.348840 -0.293787
0.419320 1.349833 -0.294280
0.422113 1.349969 -0.294347
0.424289 1.348396 -0.293567
0.426772 1.347671 -0.293207
0.429878 1.348644 -0.293690
0.431419 1.345359 -0.292061
0.433580 1.343773 -0.291274
0.435101 1.340485 -0.289643
0.437887 1.340593 -0.289697
0.440034 1.338998 -0.288906
0.443143 1.339945 -0.289375
0.445609 1.339191 -0.289001
0.447422 1.336738 -0.287785
0.448900 1.333438 -0.286148
0.451025 1.331829 -0.285350
0.453805 1.331908 -0.285389
0.456920 1.332827 -0.285845
0.458705 1.330362 -0.284622
0.460481 1.327896 -0.283399
0.462586 1.326271 -0.282593
0.467058 1.330544 -0.284712
0.469166 1.328910 -0.283902
0.467848 1.318855 -0.278914
0.468211 1.313014 -0.276017
0.476149 1.325673 -0.282296
0.479281 1.326547 -0.282730
0.482767 1.328256 -0.283577
0.482058 1.319887 -0.279427
0.485892 1.322427 -0.280686
0.486203 1.316578 -0.277785
0.490399 1.319943 -0.279454
0.489259 1.310746 -0.274892
0.497043 1.322465 -0.280705
0.497675 1.317448 -0.278216
0.501182 1.319114 -0.279043
0.499975 1.309922 -0.274484
0.499828 1.303241 -0.271170
0.502589 1.303231 -0.271165
0.507561 1.308215 -0.273637
0.512183 1.312354 -0.275690
0.511624 1.304838 -0.271962
0.513649 1.303145 -0.271122
0.517916 1.306434 -0.272754
0.523703 1.313033 -0.276027
0.525738 1.311324 -0.275179
0.520939 1.294692 -0.266930
0.524841 1.297129 -0.268138
0.530285 1.302869 -0.270985
0.531141 1.298670 -0.268903
0.533527 1.297778 -0.268460
0.535136 1.295231 -0.267197
0.538293 1.295984 -0.267570
0.540673 1.295081 -0.267122
0.543051 1.294174 -0.266673
0.545428 1.293264 -0.266221
0.547012 1.290704 -0.264951
0.548587 1.288143 -0.263681
0.551750 1.288867 -0.264040
0.555718 1.291227 -0.265211
0.558490 1.291117 -0.265156
0.560054 1.288543 -0.263880
0.562825 1.288425 -0.263821
0.565597 1.288303 -0.263760
0.566329 1.284086 -0.261669
0.571556 1.288859 -0.264036
0.572687 1.285455 -0.262348
0.571329 1.277155 -0.258231
0.572843 1.274571 -0.256949
0.577263 1.277686 -0.258494
0.583368 1.284047 -0.261650
0.582789 1.277382 -0.258343
0.582186 1.270721 -0.255040
0.584939 1.270561 -0.254960
0.587694 1.270397 -0.254879
0.591302 1.271848 -0.255599
0.589789 1.263573 -0.251494
0.598111 1.273920 -0.256626
0.598726 1.269689 -0.254528
0.598030 1.263036 -0.251228
0.599045 1.259618 -0.249532
0.604836 1.265073 -0.252238
0.608903 1.267289 -0.253337
0.611228 1.266276 -0.252835
0.613110 1.264454 -0.251931
0.613221 1.259416 -0.249432
0.616859 1.260805 -0.250121
0.620060 1.261384 -0.250408
0.621927 1.259552 -0.249499
0.623340 1.256916 -0.248192
0.625644 1.255880 -0.247678
0.628397 1.255640 -0.247559
0.630699 1.254596 -0.247042
0.633906 1.255146 -0.247314
0.636662 1.254891 -0.247187
0.639419 1.254631 -0.247059
0.641719 1.253570 -0.246532
0.644476 1.253301 -0.246399
0.646773 1.252232 -0.245869
0.648605 1.250365 -0.244943
0.650431 1.248497 -0.244016
0.653185 1.248211 -0.243874
0.655472 1.247128 -0.243337
0.658226 1.246833 -0.243191
0.659569 1.244163 -0.241866
0.661848 1.243070 -0.241324
0.663176 1.240396 -0.239998
0.665924 1.240086 -0.239844
0.669149 1.240559 -0.240079
0.672379 1.241024 -0.240310
0.675132 1.240698 -0.240148
0.675959 1.237226 -0.238425
0.678224 1.236107 -0.237871
0.679033 1.232635 -0.236149
0.681776 1.232295 -0.235980
0.685496 1.233514 -0.236584
-0.091084 1.587758 -0.410064
-0.087958 1.582463 -0.407445
-0.085048 1.583435 -0.407926
-0.082082 1.582610 -0.407518
-0.079095 1.580885 -0.406664
-0.076115 1.579154 -0.405809
-0.073120 1.576523 -0.404507
-0.070194 1.576576 -0.404533
-0.067233 1.574831 -0.403671
-0.064310 1.574875 -0.403692
-0.061345 1.572225 -0.402382
-0.058378 1.568674 -0.400626
-0.055446 1.566911 -0.399754
-0.052512 1.564247 -0.398436
-0.049568 1.558889 -0.395787
-0.046671 1.558009 -0.395351
-0.043784 1.558916 -0.395800
-0.040889 1.557130 -0.394917
-0.038000 1.554443 -0.393588
-0.035117 1.554441 -0.393587
-0.032244 1.551745 -0.392254
-0.029366 1.551734 -0.392248
-0.026467 1.554407 -0.393570
-0.023601 1.552594 -0.392674
-0.020763 1.548984 -0.390888
-0.017964 1.543577 -0.388214
-0.015018 1.548921 -0.390857
-0.012256 1.542609 -0.387736
-0.009361 1.544359 -0.388601
-0.006593 1.539831 -0.386362
-0.003654 1.543365 -0.388109
-0.000974 1.536139 -0.384536
0.001898 1.536975 -0.384949
0.004616 1.532430 -0.382702
0.007401 1.530569 -0.381781
0.010267 1.531392 -0.382188
0.013200 1.534002 -0.383479
0.016043 1.533920 -0.383438
0.018537 1.524875 -0.378965
0.021143 1.519410 -0.376262
0.024150 1.523793 -0.378430
0.027375 1.532650 -0.382811
0.030215 1.532546 -0.382759
0.032489 1.520795 -0.376948
0.035170 1.517996 -0.375564
0.037747 1.513403 -0.373292
0.040892 1.519549 -0.376331
0.043606 1.517633 -0.375384
0.046418 1.517503 -0.375320
0.049121 1.515579 -0.374368
0.051761 1.512756 -0.372972
0.054448 1.510823 -0.372016
0.057246 1.510676 -0.371943
0.060044 1.510525 -0.371869
0.062716 1.508580 -0.370907
0.065316 1.505737 -0.369501
0.068104 1.505573 -0.369420
0.070824 1.504511 -0.368894
0.073541 1.503444 -0.368367
0.076181 1.501479 -0.367395
0.078961 1.501298 -0.367306
0.081741 1.501113 -0.367214
0.084290 1.498242 -0.365794
0.086750 1.494475 -0.363931
0.089356 1.492490 -0.362950
0.092200 1.493182 -0.363292
0.094797 1.491190 -0.362307
0.097300 1.488301 -0.360878
0.099968 1.487194 -0.360330
0.102809 1.487869 -0.360664
0.105562 1.487646 -0.360554
0.108315 1.487420 -0.360442
0.111068 1.487188 -0.360328
0.113820 1.486953 -0.360211
0.116181 1.483145 -0.358328
0.118925 1.482902 -0.358208
0.121366 1.479979 -0.356762
0.123693 1.476161 -0.354874
0.126319 1.475014 -0.354307
0.128835 1.472972 -0.353297
0.132207 1.478056 -0.355811
0.135051 1.478679 -0.356119
0.138232 1.481969 -0.357746
0.140408 1.477238 -0.355407
0.142451 1.471614 -0.352626
0.144706 1.467769 -0.350724
0.146947 1.463920 -0.348821
0.149534 1.462739 -0.348236
0.151872 1.459774 -0.346770
0.154942 1.462144 -0.347942
0.157269 1.459172 -0.346472
0.159712 1.457086 -0.345441
0.162148 1.454997 -0.344408
0.165360 1.458236 -0.346010
0.167791 1.456139 -0.344972
0.170750 1.457592 -0.345691
0.172766 1.452823 -0.343332
0.175451 1.452491 -0.343168
0.178136 1.452155 -0.343002
0.180820 1.451814 -0.342834
0.184073 1.455019 -0.344418
0.187051 1.456443 -0.345123
0.190328 1.459636 -0.346702
0.191548 1.450412 -0.342140
0.193630 1.446505 -0.340208
0.195849 1.443483 -0.338713
0.198210 1.441343 -0.337655
0.200409 1.438315 -0.336157
0.202909 1.437054 -0.335534
0.206038 1.439330 -0.336660
0.208697 1.438947 -0.336470
0.211193 1.437674 -0.335841
0.213359 1.434629 -0.334335
0.215348 1.430697 -0.332390
0.217656 1.428531 -0.331319
0.219620 1.424595 -0.329373
0.222080 1.423307 -0.328735
0.224708 1.422898 -0.328533
0.228550 1.428664 -0.331385
0.232766 1.436187 -0.335105
0.234356 1.430468 -0.332277
0.236283 1.426512 -0.330321
0.238014 1.421673 -0.327928
0.241549 1.425646 -0.329892
0.244181 1.425207 -0.329675
0.245327 1.417717 -0.325971
0.247194 1.413749 -0.324009
0.250938 1.418582 -0.326399
0.254510 1.422528 -0.328350
0.256751 1.420309 -0.327253
0.259179 1.418967 -0.326589
0.261602 1.417621 -0.325923
0.264416 1.418028 -0.326125
0.266435 1.414918 -0.324587
0.269448 1.416196 -0.325219
0.271656 1.413957 -0.324112
0.274265 1.413471 -0.323871
0.276668 1.412103 -0.323195
0.278442 1.408102 -0.321216
0.280620 1.405852 -0.320103
0.283636 1.407103 -0.320722
0.286232 1.406598 -0.320472
0.288398 1.404338 -0.319355
0.290555 1.402075 -0.318236
0.293141 1.401559 -0.317980
0.295727 1.401039 -0.317723
0.298754 1.402263 -0.318328
0.301340 1.401734 -0.318067
0.303926 1.401201 -0.317803
0.304923 1.394553 -0.314516
0.307495 1.394014 -0.314249
0.309375 1.390855 -0.312687
0.312171 1.391181 -0.312848
0.315203 1.392375 -0.313438
0.317770 1.391820 -0.313164
0.320336 1.391262 -0.312888
0.322663 1.389829 -0.312179
0.325225 1.389262 -0.311899
0.327544 1.387822 -0.311187
0.330346 1.388118 -0.311333
0.332659 1.386671 -0.310617
0.334721 1.384351 -0.309470
0.339263 1.390712 -0.312616
0.341326 1.388384 -0.311465
0.343885 1.387789 -0.311170
0.345174 1.382854 -0.308730
0.348489 1.384853 -0.309718
0.351556 1.385978 -0.310275
0.351781 1.377575 -0.306119
0.354841 1.378694 -0.306672
0.358168 1.380672 -0.307651
0.362032 1.384373 -0.309481
0.360334 1.369918 -0.302333
0.360185 1.360655 -0.297752
0.362422 1.359167 -0.297016
0.366006 1.361991 -0.298412
0.370420 1.367394 -0.301084
0.374309 1.371064 -0.302899
0.379866 1.379895 -0.307266
0.379913 1.371488 -0.303109
0.380766 1.365668 -0.300230
0.381316 1.358988 -0.296927
0.383818 1.358330 -0.296602
0.386887 1.359387 -0.297124
0.389104 1.357861 -0.296370
0.391604 1.357191 -0.296039
0.394970 1.359092 -0.296978
0.398344 1.360985 -0.297915
0.400558 1.359443 -0.297152
0.402178 1.356185 -0.295541
0.404084 1.353782 -0.294352
0.406575 1.353088 -0.294009
0.409365 1.353246 -0.294088
0.412157 1.353399 -0.294163
0.414345 1.351839 -0.293391
0.415921 1.348567 -0.291774
0.418403 1.347855 -0.291421
0.421191 1.347992 -0.291489
0.423053 1.345567 -0.290290
0.425529 1.344844 -0.289932
0.428316 1.344968 -0.289994
0.430163 1.342534 -0.288790
0.431686 1.339248 -0.287165
0.434784 1.340212 -0.287641
0.437887 1.341169 -0.288115
0.440034 1.339574 -0.287326
0.441854 1.337127 -0.286116
0.443665 1.334678 -0.284905
0.446120 1.333923 -0.284531
0.448573 1.333163 -0.284156
0.450696 1.331554 -0.283360
0.453475 1.331633 -0.283399
0.456256 1.331708 -0.283436
0.458705 1.330933 -0.283053
0.460816 1.329309 -0.282250
0.463261 1.328527 -0.281863
0.466042 1.328584 -0.281891
0.468825 1.328637 -0.281917
0.472294 1.330369 -0.282774
0.475084 1.330410 -0.282794
0.477875 1.330447 -0.282812
0.476852 1.321231 -0.278255
0.474401 1.308661 -0.272038
0.477155 1.308697 -0.272056
0.483429 1.317119 -0.276221
0.487264 1.319656 -0.277476
0.486493 1.311290 -0.273339
0.488545 1.309631 -0.272518
0.489876 1.306294 -0.270868
0.493715 1.308812 -0.272113
0.496119 1.307978 -0.271701
0.498885 1.307976 -0.271699
0.499828 1.303796 -0.269632
0.503322 1.305454 -0.270452
0.508297 1.310439 -0.272918
0.511444 1.311249 -0.273318
0.511624 1.305394 -0.270422
0.512530 1.301205 -0.268351
0.514170 1.298680 -0.267102
0.518436 1.301967 -0.268728
0.524983 1.310223 -0.272811
0.522457 1.298559 -0.267043
0.529033 1.306797 -0.271116
0.528371 1.299283 -0.267400
0.531910 1.300877 -0.268189
0.532755 1.296676 -0.266111
0.534361 1.294129 -0.264851
0.537514 1.294883 -0.265224
0.540673 1.295631 -0.265594
0.545013 1.298846 -0.267184
0.547398 1.297932 -0.266732
0.548198 1.293721 -0.264650
0.545410 1.282108 -0.258907
0.547364 1.280371 -0.258048
0.551714 1.283561 -0.259625
0.555677 1.285920 -0.260792
0.556826 1.282528 -0.259115
0.560799 1.284874 -0.260275
0.563157 1.283935 -0.259810
0.563062 1.278084 -0.256916
0.563767 1.273871 -0.254833
0.564457 1.269660 -0.252751
0.567611 1.270348 -0.253091
0.570355 1.270215 -0.253025
0.577263 1.278226 -0.256987
0.581697 1.281334 -0.258524
0.580272 1.273039 -0.254422
0.581344 1.269631 -0.252736
0.584517 1.270285 -0.253060
0.589815 1.274991 -0.255387
0.591302 1.272385 -0.254098
0.591498 1.267347 -0.251607
0.591248 1.261502 -0.248716
0.593990 1.261324 -0.248628
0.598894 1.265184 -0.250537
0.601647 1.264994 -0.250443
0.605272 1.266412 -0.251144
0.608030 1.266210 -0.251045
0.610351 1.265198 -0.250544
0.611790 1.262572 -0.249245
0.613221 1.259945 -0.247946
0.616416 1.260531 -0.248236
0.619615 1.261111 -0.248523
0.621927 1.260081 -0.248013
0.622892 1.256642 -0.246313
0.625195 1.255606 -0.245801
0.628848 1.256967 -0.246474
0.629794 1.253524 -0.244771
0.633452 1.254874 -0.245438
0.635295 1.253023 -0.244523
0.638048 1.252765 -0.244396
0.639884 1.250909 -0.243478
0.643556 1.252234 -0.244133
0.646311 1.251962 -0.243998
0.648141 1.250095 -0.243075
0.649966 1.248226 -0.242151
0.652252 1.247148 -0.241617
0.654536 1.246066 -0.241083
0.658226 1.247355 -0.241720
0.660040 1.245474 -0.240789
0.661848 1.243590 -0.239858
0.663176 1.240915 -0.238535
0.665448 1.239816 -0.237991
0.668195 1.239501 -0.237836
0.669985 1.237608 -0.236899
0.673691 1.238857 -0.237517
0.675477 1.236956 -0.236577
0.676775 1.234269 -0.235248
0.678549 1.232365 -0.234307
0.683235 1.235158 -0.235688
0.687935 1.237941 -0.237064
-0.094762 1.608743 -0.416227
-0.090959 1.585510 -0.404801
-0.087839 1.580209 -0.402194
-0.084880 1.579388 -0.401790
-0.081925 1.578562 -0.401383
-0.079022 1.579526 -0.401857
-0.076069 1.578691 -0.401447
-0.073100 1.576954 -0.400592
-0.070117 1.574315 -0.399295
-0.067128 1.570774 -0.397553
-0.064200 1.569920 -0.397133
-0.061289 1.569959 -0.397152
-0.058329 1.566404 -0.395404
-0.055425 1.566433 -0.395419
-0.052486 1.562869 -0.393666
-0.049568 1.560197 -0.392352
-0.046676 1.560213 -0.392359
-0.043781 1.559327 -0.391924
-0.040890 1.559334 -0.391927
-0.038000 1.557542 -0.391046
-0.035118 1.554847 -0.389721
-0.032244 1.553046 -0.388835
-0.029366 1.553035 -0.388829
-0.026495 1.552122 -0.388380
-0.023645 1.549409 -0.387046
-0.020910 1.537720 -0.381297
-0.018111 1.534102 -0.379518
-0.015242 1.535863 -0.380384
-0.012366 1.537619 -0.381248
-0.009221 1.552830 -0.388728
