# This PCD file was generated using the MATLAB® pcwrite function
# from Computer Vision System Toolbox®.
# .PCD v.7 - Point Cloud Data file format
VERSION .7
FIELDS x y z
SIZE 4 4 4
TYPE F F F
COUNT 1 1 1
WIDTH 1701
HEIGHT 1
VIEWPOINT 0 0 0 1 0 0 0
POINTS 1701
DATA ascii
0.049238 1.427696 0.016638
0.051602 1.425605 0.017143
0.054217 1.427391 0.016712
0.056440 1.423353 0.017687
0.059058 1.425130 0.017258
0.061542 1.424964 0.017298
0.063955 1.423823 0.017574
0.066438 1.423648 0.017616
0.068845 1.422499 0.017893
0.071171 1.420378 0.018406
0.073647 1.420190 0.018451
0.076043 1.419030 0.018732
0.078517 1.418834 0.018779
0.080906 1.417666 0.019061
0.083548 1.419399 0.018642
0.085848 1.417254 0.019161
0.087963 1.413169 0.020147
0.090154 1.410049 0.020901
0.092797 1.411766 0.020486
0.095069 1.409606 0.021008
0.097718 1.411313 0.020596
0.100080 1.410114 0.020885
0.102537 1.409877 0.020943
0.104691 1.406735 0.021701
0.107040 1.405524 0.021994
0.109490 1.405276 0.022054
0.112045 1.405991 0.021881
0.114279 1.403801 0.022410
0.116835 1.404507 0.022240
0.119171 1.403276 0.022537
0.121390 1.401076 0.023069
0.123717 1.399838 0.023368
0.126272 1.400527 0.023201
0.129186 1.404107 0.022336
0.131273 1.400926 0.023105
0.133348 1.397743 0.023874
0.135413 1.394556 0.024644
0.138344 1.398117 0.023783
0.140780 1.397816 0.023856
0.143344 1.398475 0.023697
0.145650 1.397201 0.024005
0.148349 1.398815 0.023615
0.150385 1.395606 0.024390
0.152680 1.394322 0.024700
0.155110 1.393996 0.024779
0.157399 1.392704 0.025091
0.159684 1.391408 0.025404
0.162251 1.392033 0.025253
0.164676 1.391691 0.025336
0.166954 1.390383 0.025651
0.169081 1.388111 0.026200
0.171948 1.390641 0.025589
0.174824 1.393165 0.024980
0.176639 1.388960 0.025995
0.178749 1.386673 0.026548
0.181008 1.385343 0.026869
0.183421 1.384969 0.026959
0.185994 1.385551 0.026819
0.188407 1.385169 0.026911
0.190656 1.383824 0.027236
0.192737 1.381517 0.027793
0.195476 1.383040 0.027425
0.197885 1.382642 0.027522
0.200123 1.381282 0.027850
0.202357 1.379918 0.028180
0.205281 1.382380 0.027585
0.207864 1.382922 0.027454
0.210273 1.382503 0.027555
0.212681 1.382080 0.027657
0.215810 1.385477 0.026837
0.218405 1.386000 0.026710
0.220820 1.385563 0.026816
0.222305 1.380346 0.028076
0.224334 1.377993 0.028645
0.227112 1.379455 0.028291
0.229514 1.379003 0.028401
0.232301 1.380455 0.028050
0.234705 1.379994 0.028161
0.236521 1.376670 0.028964
0.238523 1.374296 0.029538
0.241314 1.375730 0.029191
0.244917 1.380967 0.027926
0.248133 1.384293 0.027123
0.250135 1.381902 0.027700
0.251717 1.377607 0.028738
0.253700 1.375212 0.029316
0.256095 1.374715 0.029436
0.259545 1.378964 0.028410
0.261947 1.378458 0.028532
0.264347 1.377947 0.028656
0.265881 1.373636 0.029697
0.268055 1.372169 0.030051
0.269785 1.368803 0.030864
0.271946 1.367331 0.031220
0.274104 1.365856 0.031576
0.276482 1.365324 0.031705
0.278859 1.364789 0.031834
0.281691 1.366142 0.031507
0.284300 1.366544 0.031410
0.286447 1.365049 0.031771
0.289057 1.365442 0.031676
0.293550 1.373388 0.029757
-0.522706 1.601408 -0.028036
-0.521053 1.605950 -0.029141
-0.519956 1.612354 -0.030699
-0.515998 1.609442 -0.029991
-0.512616 1.608386 -0.029734
-0.509520 1.608256 -0.029703
-0.505310 1.604388 -0.028761
-0.503057 1.607045 -0.029408
-0.499693 1.605963 -0.029145
-0.496608 1.605809 -0.029107
-0.492163 1.600975 -0.027931
-0.488279 1.598001 -0.027208
-0.485214 1.597827 -0.027165
-0.481883 1.596710 -0.026893
-0.479089 1.597460 -0.027076
-0.476293 1.598206 -0.027257
-0.473758 1.599885 -0.027666
-0.470437 1.598745 -0.027389
-0.466863 1.596660 -0.026881
-0.463555 1.595507 -0.026601
-0.459230 1.590590 -0.025405
-0.455686 1.588483 -0.024892
-0.452906 1.589189 -0.025064
-0.449875 1.588949 -0.025005
-0.446349 1.586822 -0.024488
-0.442337 1.582804 -0.023510
-0.438832 1.580662 -0.022989
-0.436067 1.581339 -0.023154
-0.433300 1.582012 -0.023317
-0.429812 1.579850 -0.022792
-0.427525 1.582400 -0.023412
-0.424520 1.582114 -0.023342
-0.421987 1.583711 -0.023731
-0.418516 1.581526 -0.023199
-0.414590 1.577443 -0.022206
-0.411601 1.577133 -0.022131
-0.408385 1.575873 -0.021824
-0.405855 1.577445 -0.022206
-0.403096 1.578066 -0.022358
-0.398995 1.573000 -0.021125
-0.395801 1.571715 -0.020812
-0.392612 1.570424 -0.020498
-0.389211 1.568178 -0.019952
-0.386901 1.570669 -0.020558
-0.383724 1.569360 -0.020239
-0.379488 1.563299 -0.018765
-0.376331 1.561976 -0.018443
-0.372761 1.558747 -0.017657
-0.369827 1.558362 -0.017564
-0.367102 1.558923 -0.017700
-0.363967 1.557576 -0.017372
-0.360432 1.554321 -0.016580
-0.357312 1.552962 -0.016250
-0.354397 1.552549 -0.016149
-0.351485 1.552130 -0.016047
-0.348379 1.550754 -0.015713
-0.345085 1.548419 -0.015144
-0.342570 1.549891 -0.015502
-0.340432 1.553266 -0.016324
-0.338094 1.555685 -0.016912
-0.335374 1.556192 -0.017035
-0.332653 1.556694 -0.017158
-0.328459 1.549550 -0.015420
-0.326661 1.554818 -0.016701
-0.321776 1.543837 -0.014030
-0.319971 1.549096 -0.015309
-0.317617 1.551484 -0.015890
-0.314203 1.548130 -0.015074
-0.310280 1.541897 -0.013558
-0.305694 1.531828 -0.011108
-0.302676 1.530364 -0.010752
-0.300338 1.532727 -0.011327
-0.298660 1.538917 -0.012833
-0.296465 1.542232 -0.013639
-0.292625 1.535958 -0.012113
-0.290264 1.538305 -0.012684
-0.285976 1.529139 -0.010454
-0.282354 1.523801 -0.009155
-0.279691 1.524213 -0.009255
-0.276873 1.523661 -0.009121
-0.274363 1.525024 -0.009452
-0.271395 1.523501 -0.009082
-0.267985 1.519091 -0.008009
-0.265035 1.517557 -0.007636
-0.262822 1.520824 -0.008431
-0.260309 1.522164 -0.008757
-0.257791 1.523501 -0.009082
-0.254847 1.521947 -0.008704
-0.251770 1.519426 -0.008091
-0.248840 1.517861 -0.007710
-0.245916 1.516291 -0.007328
-0.243401 1.517605 -0.007647
-0.240617 1.516988 -0.007497
-0.237705 1.515402 -0.007112
-0.234929 1.514775 -0.006959
-0.232155 1.514143 -0.006805
-0.229259 1.512542 -0.006416
-0.226245 1.509972 -0.005790
-0.223607 1.510289 -0.005867
-0.220848 1.509637 -0.005709
-0.218092 1.508980 -0.005549
-0.215456 1.509283 -0.005623
-0.212819 1.509581 -0.005695
-0.210409 1.511806 -0.006237
-0.207433 1.509200 -0.005603
-0.204577 1.507553 -0.005202
-0.201619 1.504936 -0.004565
-0.198778 1.503279 -0.004162
-0.196361 1.505482 -0.004698
-0.193731 1.505748 -0.004763
-0.190999 1.505043 -0.004591
-0.188072 1.502400 -0.003948
-0.184862 1.496850 -0.002598
-0.182344 1.498064 -0.002893
-0.179633 1.497339 -0.002717
-0.177295 1.500480 -0.003481
-0.174493 1.498779 -0.003067
-0.171075 1.490297 -0.001004
-0.168211 1.487617 -0.000352
-0.166125 1.493644 -0.001818
-0.163684 1.495796 -0.002341
-0.160334 1.487291 -0.000272
-0.157737 1.487497 -0.000322
-0.154904 1.484792 0.000336
-0.153079 1.494675 -0.002069
-0.149943 1.488086 -0.000466
-0.147711 1.493119 -0.001690
-0.144674 1.487488 -0.000320
-0.141379 1.477973 0.001995
-0.138595 1.475238 0.002660
-0.136152 1.477346 0.002147
-0.133572 1.477510 0.002107
-0.130867 1.475730 0.002540
-0.128291 1.475886 0.002503
-0.125773 1.477007 0.002230
-0.123252 1.478123 0.001958
-0.120393 1.473415 0.003104
-0.117929 1.475493 0.002598
-0.115457 1.477567 0.002094
-0.112878 1.477696 0.002062
-0.110298 1.477821 0.002032
-0.107576 1.475030 0.002711
-0.105047 1.476116 0.002447
-0.102295 1.472345 0.003364
-0.099725 1.472452 0.003338
-0.097154 1.472554 0.003313
-0.094584 1.472652 0.003289
-0.091940 1.470804 0.003739
-0.089267 1.467980 0.004426
-0.086606 1.465152 0.005114
-0.084048 1.465232 0.005095
-0.081491 1.465308 0.005076
-0.078877 1.463437 0.005531
-0.076323 1.463504 0.005515
-0.073793 1.464538 0.005263
-0.071237 1.464597 0.005249
-0.068660 1.463679 0.005472
-0.066028 1.459843 0.006406
-0.063481 1.459889 0.006395
-0.060933 1.459930 0.006385
-0.058413 1.461910 0.005903
-0.055849 1.460970 0.006131
-0.053278 1.459055 0.006597
-0.050715 1.457136 0.007064
-0.048172 1.457155 0.007060
-0.045634 1.458142 0.006820
-0.043086 1.457181 0.007053
-0.040541 1.456216 0.007288
-0.038000 1.455246 0.007524
-0.035462 1.454273 0.007761
-0.032932 1.452323 0.008235
-0.030413 1.449397 0.008947
-0.027884 1.449382 0.008951
-0.025364 1.448391 0.009192
-0.022847 1.447396 0.009434
-0.020334 1.446397 0.009677
-0.017797 1.447336 0.009449
-0.015256 1.448271 0.009221
-0.012711 1.449202 0.008995
-0.010221 1.447214 0.009478
-0.007738 1.445222 0.009963
-0.005217 1.445169 0.009976
-0.002720 1.444139 0.010226
-0.000148 1.446020 0.009769
0.002319 1.444011 0.010258
0.004838 1.443941 0.010275
0.007326 1.442895 0.010529
0.009777 1.440874 0.011021
0.012116 1.435935 0.012222
0.014620 1.435848 0.012244
0.017086 1.434785 0.012502
0.019509 1.432748 0.012998
0.021924 1.430707 0.013494
0.024419 1.430603 0.013520
0.026914 1.430495 0.013546
0.029551 1.433295 0.012865
0.031953 1.431237 0.013365
0.034297 1.428205 0.014103
0.036683 1.426140 0.014606
0.039333 1.428922 0.013929
0.041713 1.426848 0.014433
0.044317 1.428651 0.013995
0.046689 1.426569 0.014501
0.049238 1.427394 0.014301
0.051665 1.426274 0.014573
0.054023 1.424180 0.015082
0.056308 1.421114 0.015828
0.058786 1.420952 0.015868
0.061473 1.423693 0.015201
0.063955 1.423522 0.015242
0.066438 1.423347 0.015285
0.068695 1.420261 0.016036
0.071094 1.419110 0.016316
0.073569 1.418923 0.016362
0.076203 1.420668 0.015937
0.078353 1.416599 0.016927
0.080990 1.418336 0.016504
0.083292 1.416196 0.017025
0.085935 1.417924 0.016604
0.088319 1.416744 0.016892
0.090608 1.414592 0.017415
0.092797 1.411470 0.018175
0.095163 1.410278 0.018465
0.097526 1.409083 0.018755
0.100080 1.409818 0.018577
0.102537 1.409582 0.018634
0.104793 1.407408 0.019163
0.107143 1.406198 0.019457
0.109699 1.406916 0.019283
0.112257 1.407629 0.019109
0.114603 1.406407 0.019407
0.116945 1.405180 0.019705
0.119394 1.404915 0.019770
0.121843 1.404646 0.019835
0.124291 1.404373 0.019901
0.126622 1.403131 0.020204
0.129068 1.402849 0.020272
0.131393 1.401599 0.020576
0.133714 1.400346 0.020881
0.136154 1.400052 0.020953
0.138720 1.400719 0.020790
0.141161 1.400417 0.020864
0.143344 1.398184 0.021407
0.145259 1.394021 0.022420
0.147688 1.393708 0.022496
0.150385 1.395317 0.022105
0.153223 1.397884 0.021480
0.155384 1.395632 0.022028
0.157817 1.395302 0.022108
0.160107 1.394006 0.022424
0.162394 1.392706 0.022740
0.164965 1.393326 0.022589
0.167393 1.392980 0.022673
0.169820 1.392629 0.022759
0.171649 1.388432 0.023780
0.174219 1.389035 0.023633
0.176639 1.388673 0.023721
0.178749 1.386387 0.024277
0.181008 1.385058 0.024601
0.183105 1.382765 0.025158
0.185514 1.382388 0.025250
0.188084 1.382966 0.025110
0.190493 1.382581 0.025203
0.192406 1.379316 0.025998
0.194976 1.379881 0.025860
0.197548 1.380442 0.025724
0.200123 1.380998 0.025588
0.202701 1.381549 0.025454
0.205107 1.381139 0.025554
0.207864 1.382638 0.025189
0.210273 1.382219 0.025291
0.212323 1.379884 0.025860
0.215268 1.382324 0.025266
0.217859 1.382848 0.025138
0.219532 1.378592 0.026174
0.221562 1.376244 0.026745
0.223584 1.373893 0.027317
0.226545 1.376310 0.026729
0.228942 1.375859 0.026839
0.231531 1.376357 0.026717
0.233345 1.373039 0.027525
0.235149 1.369718 0.028333
0.237732 1.370205 0.028214
0.240716 1.372592 0.027634
0.245118 1.381636 0.025433
0.247524 1.381153 0.025551
0.249930 1.380667 0.025669
0.250686 1.372571 0.027639
0.253076 1.372079 0.027758
0.255047 1.369683 0.028341
0.258066 1.372034 0.027769
0.261095 1.374377 0.027199
0.263274 1.372919 0.027554
0.265665 1.372406 0.027679
0.268055 1.371889 0.027805
0.270444 1.371368 0.027931
0.273054 1.371791 0.027829
0.274773 1.368420 0.028649
0.276707 1.365994 0.029239
0.278632 1.363565 0.029830
0.281006 1.363026 0.029961
0.283379 1.362483 0.030093
0.286215 1.363827 0.029766
0.288590 1.363275 0.029900
0.295431 1.380663 0.025670
-0.522706 1.601351 -0.028431
-0.521053 1.605893 -0.029537
-0.519956 1.612297 -0.031097
-0.517418 1.614043 -0.031522
-0.513745 1.612058 -0.031038
-0.510081 1.610064 -0.030553
-0.505868 1.606197 -0.029611
-0.504443 1.611656 -0.030940
-0.501346 1.611511 -0.030905
-0.498525 1.612294 -0.031096
-0.493525 1.605593 -0.029464
-0.488279 1.597945 -0.027601
-0.485483 1.598706 -0.027787
-0.482417 1.598526 -0.027743
-0.479620 1.599278 -0.027926
-0.476557 1.599087 -0.027879
-0.472972 1.597016 -0.027375
-0.469656 1.595875 -0.027097
-0.466087 1.593789 -0.026589
-0.462269 1.590757 -0.025850
-0.459230 1.590535 -0.025796
-0.456701 1.592186 -0.026198
-0.454167 1.593834 -0.026600
-0.450376 1.590775 -0.025855
-0.446846 1.588649 -0.025337
-0.443325 1.586515 -0.024817
-0.440059 1.585316 -0.024525
-0.436798 1.584111 -0.024232
-0.433542 1.582900 -0.023937
-0.430533 1.582625 -0.023870
-0.427525 1.582345 -0.023801
-0.424283 1.581115 -0.023502
-0.420341 1.577046 -0.022511
-0.417349 1.576747 -0.022438
-0.413663 1.573607 -0.021673
-0.411601 1.577079 -0.022519
-0.408385 1.575818 -0.022212
-0.405628 1.576444 -0.022364
-0.402421 1.575171 -0.022054
-0.399442 1.574840 -0.021974
-0.396465 1.574503 -0.021892
-0.393272 1.573213 -0.021577
-0.390301 1.572865 -0.021493
-0.386468 1.568717 -0.020482
-0.383294 1.567408 -0.020164
-0.380127 1.566092 -0.019843
-0.376965 1.564771 -0.019521
-0.373809 1.563444 -0.019198
-0.370659 1.562110 -0.018873
-0.367102 1.558869 -0.018084
-0.364171 1.558473 -0.017988
-0.361040 1.557122 -0.017658
-0.358116 1.556715 -0.017559
-0.355194 1.556304 -0.017459
-0.352473 1.556839 -0.017589
-0.349554 1.556417 -0.017487
-0.346444 1.555037 -0.017151
-0.342377 1.548884 -0.015652
-0.339097 1.546537 -0.015080
-0.336204 1.546091 -0.014972
-0.334062 1.549457 -0.015792
-0.333396 1.560459 -0.018471
-0.329563 1.555227 -0.017197
-0.326297 1.552854 -0.016619
-0.321596 1.542828 -0.014177
-0.318004 1.538527 -0.013129
-0.314961 1.537087 -0.012779
-0.311397 1.532772 -0.011728
-0.309586 1.538017 -0.013005
-0.306209 1.534647 -0.012184
-0.303527 1.535100 -0.012295
-0.300506 1.533632 -0.011937
-0.297159 1.530243 -0.011112
-0.295474 1.536430 -0.012619
-0.291972 1.532071 -0.011557
-0.288163 1.525788 -0.010027
-0.282458 1.507987 -0.005691
-0.282829 1.526628 -0.010231
-0.279691 1.524161 -0.009631
-0.278884 1.536088 -0.012535
-0.274363 1.524972 -0.009828
-0.272001 1.527292 -0.010393
-0.268733 1.523843 -0.009553
-0.266513 1.527115 -0.010350
-0.263552 1.525578 -0.009976
-0.260742 1.524997 -0.009834
-0.257791 1.523449 -0.009457
-0.254847 1.521896 -0.009079
-0.251909 1.520337 -0.008699
-0.248977 1.518773 -0.008318
-0.246052 1.517203 -0.007936
-0.243267 1.516591 -0.007787
-0.240749 1.517900 -0.008105
-0.238097 1.518241 -0.008189
-0.235186 1.516651 -0.007801
-0.232155 1.514092 -0.007178
-0.229509 1.514419 -0.007258
-0.226616 1.512813 -0.006867
-0.223485 1.509273 -0.006004
-0.220848 1.509586 -0.006081
-0.218211 1.509894 -0.006156
-0.215573 1.510197 -0.006229
-0.212704 1.508566 -0.005832
-0.210069 1.508860 -0.005904
-0.207433 1.509149 -0.005974
-0.204796 1.509434 -0.006044
-0.201727 1.505851 -0.005171
-0.198459 1.500330 -0.003826
-0.196047 1.502532 -0.004363
-0.193217 1.500865 -0.003957
-0.190797 1.503060 -0.004491
-0.187476 1.496549 -0.002905
-0.183984 1.488098 -0.000847
-0.181481 1.489310 -0.001142
-0.180009 1.501158 -0.004028
-0.178126 1.509137 -0.005971
-0.175308 1.507437 -0.005557
-0.172942 1.510571 -0.006320
-0.168908 1.495311 -0.002604
-0.165869 1.490690 -0.001478
-0.163015 1.488000 -0.000823
-0.160170 1.485305 -0.000167
-0.157416 1.483573 0.000255
-0.154669 1.481836 0.000678
-0.152695 1.489782 -0.001257
-0.149943 1.488037 -0.000832
-0.147491 1.490162 -0.001350
-0.144746 1.488407 -0.000922
-0.142495 1.493432 -0.002146
-0.140023 1.495546 -0.002661
-0.136881 1.487961 -0.000814
-0.134734 1.494914 -0.002507
-0.131935 1.492166 -0.001838
-0.129084 1.488444 -0.000931
-0.125951 1.479868 0.001158
-0.123022 1.474195 0.002539
-0.120560 1.476277 0.002032
-0.117766 1.472534 0.002944
-0.115405 1.476548 0.001966
-0.112928 1.478618 0.001462
-0.110444 1.480684 0.000959
-0.107812 1.479834 0.001166
-0.105137 1.478009 0.001610
-0.102513 1.477150 0.001819
-0.099934 1.477257 0.001793
-0.097154 1.472506 0.002951
-0.094545 1.471633 0.003163
-0.091976 1.471727 0.003140
-0.089337 1.469874 0.003592
-0.086672 1.467046 0.004280
-0.084017 1.464213 0.004970
-0.081461 1.464289 0.004952
-0.078905 1.464360 0.004934
-0.076402 1.466370 0.004445
-0.073818 1.465461 0.004666
-0.071260 1.465520 0.004652
-0.068660 1.463632 0.005112
-0.066086 1.462710 0.005336
-0.063550 1.463727 0.005089
-0.060996 1.463768 0.005079
-0.058469 1.465748 0.004597
-0.055861 1.461894 0.005535
-0.053257 1.457065 0.006711
-0.050697 1.455145 0.007179
-0.048165 1.456136 0.006937
-0.045629 1.457123 0.006697
-0.043082 1.456162 0.006931
-0.040541 1.456168 0.006930
-0.038000 1.453256 0.007639
-0.035469 1.450339 0.008349
-0.032939 1.450333 0.008351
-0.030413 1.449350 0.008590
-0.027863 1.452250 0.007884
-0.025364 1.448344 0.008835
-0.022816 1.450264 0.008368
-0.020322 1.447321 0.009084
-0.017741 1.451175 0.008146
-0.015177 1.453082 0.007681
-0.012624 1.454012 0.007455
-0.010125 1.452024 0.007939
-0.007613 1.451003 0.008188
-0.005081 1.450950 0.008201
-0.002500 1.452834 0.007742
-0.000043 1.449858 0.008466
0.002207 1.440080 0.010848
0.004719 1.440009 0.010865
0.007169 1.437992 0.011356
0.009710 1.438885 0.011139
0.012151 1.436860 0.011632
0.014657 1.436773 0.011654
0.017163 1.436681 0.011676
0.019669 1.436586 0.011699
0.022050 1.433573 0.012433
0.024507 1.432499 0.012695
0.026914 1.430449 0.013194
0.029504 1.432278 0.012748
0.031953 1.431191 0.013013
0.034449 1.431070 0.013042
0.036736 1.427064 0.014018
0.039387 1.429846 0.013341
0.041713 1.426803 0.014082
0.044259 1.427635 0.013879
0.046630 1.425554 0.014386
0.049238 1.427348 0.013949
0.051539 1.424289 0.014694
0.054217 1.427044 0.014023
0.056639 1.425915 0.014298
0.059058 1.424784 0.014574
0.061333 1.421709 0.015322
0.063669 1.419600 0.015836
0.066438 1.423302 0.014934
0.068770 1.421185 0.015450
0.071018 1.418096 0.016203
0.073412 1.416940 0.016484
0.075882 1.416749 0.016530
0.078435 1.417522 0.016342
0.080906 1.417323 0.016391
0.083207 1.415183 0.016912
0.085500 1.413039 0.017434
0.087874 1.411860 0.017721
0.090336 1.411645 0.017774
0.093166 1.415295 0.016885
0.095257 1.411201 0.017882
0.097430 1.408072 0.018644
0.099982 1.408807 0.018465
0.102537 1.409537 0.018287
0.104894 1.408331 0.018581
0.106937 1.404220 0.019582
0.109072 1.401073 0.020348
0.111726 1.402754 0.019939
0.114711 1.407328 0.018825
0.117274 1.408033 0.018653
0.119506 1.405836 0.019188
0.121730 1.403636 0.019724
0.123831 1.400468 0.020496
0.126506 1.402121 0.020093
0.128950 1.401840 0.020162
0.131273 1.400591 0.020466
0.133592 1.399337 0.020771
0.136031 1.399044 0.020843
0.138595 1.399711 0.020680
0.141288 1.401337 0.020284
0.143602 1.400067 0.020593
0.145781 1.397830 0.021138
0.147952 1.395591 0.021684
0.150920 1.399125 0.020823
0.153087 1.396877 0.021370
0.155384 1.395588 0.021684
0.157260 1.391410 0.022702
0.159825 1.392039 0.022549
0.162536 1.393624 0.022163
0.164532 1.390398 0.022948
0.166808 1.389091 0.023267
0.168933 1.386820 0.023820
0.172097 1.391271 0.022736
0.174219 1.388991 0.023291
0.176639 1.388629 0.023379
0.178904 1.387303 0.023702
0.181321 1.386934 0.023792
0.183738 1.386560 0.023883
0.185834 1.384263 0.024443
0.188245 1.383882 0.024536
0.190820 1.384455 0.024396
0.193562 1.385981 0.024024
0.195476 1.382712 0.024820
0.197548 1.380399 0.025384
0.199953 1.379998 0.025482
0.202701 1.381506 0.025114
0.206323 1.387794 0.023583
0.209092 1.389291 0.023218
0.211689 1.389826 0.023088
0.213038 1.383665 0.024588
0.215990 1.386104 0.023994
0.217859 1.382805 0.024798
0.220084 1.381414 0.025137
0.222305 1.380020 0.025476
0.224334 1.377668 0.026049
0.227112 1.379129 0.025693
0.229705 1.379631 0.025571
0.232108 1.379175 0.025682
0.234317 1.377762 0.026026
0.235933 1.373487 0.027067
0.238127 1.372068 0.027413
0.240318 1.370646 0.027759
0.244313 1.377786 0.026020
0.247524 1.381111 0.025210
0.250339 1.382526 0.024866
0.251717 1.377282 0.026143
0.253076 1.372037 0.027420
0.255047 1.369641 0.028004
0.257432 1.369142 0.028125
0.260243 1.370538 0.027786
0.263274 1.372877 0.027216
0.265665 1.372364 0.027341
0.267401 1.369002 0.028160
0.269565 1.367535 0.028517
0.271946 1.367011 0.028645
0.274773 1.368378 0.028312
0.277381 1.368792 0.028211
0.279765 1.368255 0.028342
0.281463 1.364876 0.029164
0.283840 1.364333 0.029297
0.285984 1.362840 0.029660
0.289524 1.367012 0.028644
0.292610 1.369288 0.028090
-0.523862 1.604659 -0.032208
-0.521915 1.608271 -0.033095
-0.519671 1.610950 -0.033752
-0.517702 1.614558 -0.034638
-0.514592 1.614437 -0.034608
-0.510362 1.610581 -0.033662
-0.506984 1.609514 -0.033400
-0.502779 1.605642 -0.032449
-0.499141 1.603626 -0.031955
-0.496882 1.606274 -0.032605
-0.493253 1.604246 -0.032107
-0.489632 1.602210 -0.031607
-0.486289 1.601102 -0.031335
-0.483486 1.601860 -0.031521
-0.480948 1.603549 -0.031936
-0.477349 1.601487 -0.031430
-0.474021 1.600355 -0.031152
-0.470177 1.597341 -0.030412
-0.467122 1.597133 -0.030361
-0.464326 1.597858 -0.030539
-0.460252 1.593884 -0.029563
-0.457208 1.593658 -0.029508
-0.453662 1.591547 -0.028990
-0.450626 1.591308 -0.028931
-0.447344 1.590124 -0.028641
-0.444313 1.589875 -0.028579
-0.441285 1.589620 -0.028517
-0.437772 1.587475 -0.027990
-0.434510 1.586266 -0.027694
-0.431734 1.586935 -0.027858
-0.428479 1.585714 -0.027558
-0.425230 1.584486 -0.027257
-0.420576 1.577589 -0.025564
-0.418049 1.579180 -0.025954
-0.415286 1.579821 -0.026112
-0.412291 1.579513 -0.026036
-0.408613 1.576363 -0.025263
-0.404948 1.573206 -0.024488
-0.401746 1.571933 -0.024175
-0.398772 1.571600 -0.024094
-0.396244 1.573156 -0.024476
-0.392392 1.569024 -0.023462
-0.389429 1.568675 -0.023376
-0.386035 1.566424 -0.022823
-0.383294 1.567011 -0.022968
-0.380766 1.568543 -0.023343
-0.377176 1.565325 -0.022554
-0.374228 1.564948 -0.022461
-0.371075 1.563616 -0.022134
-0.367514 1.560377 -0.021339
-0.364171 1.558081 -0.020775
-0.360837 1.555779 -0.020210
-0.357915 1.555372 -0.020111
-0.355194 1.555912 -0.020243
-0.352275 1.555496 -0.020141
-0.349162 1.554121 -0.019804
-0.346250 1.553694 -0.019699
-0.342762 1.550402 -0.018891
-0.340051 1.550916 -0.019017
-0.337338 1.551426 -0.019142
-0.334999 1.553839 -0.019734
-0.331725 1.551477 -0.019155
-0.329931 1.556746 -0.020448
-0.326661 1.554373 -0.019865
-0.322859 1.549129 -0.018578
-0.319614 1.546743 -0.017993
-0.315138 1.537660 -0.015763
-0.312274 1.537171 -0.015643
-0.310107 1.540503 -0.016461
-0.307757 1.542875 -0.017043
-0.304378 1.539502 -0.016215
-0.300169 1.531336 -0.014211
-0.298326 1.536566 -0.015495
-0.296300 1.540836 -0.016543
-0.293768 1.542230 -0.016885
-0.288001 1.524451 -0.012521
-0.284537 1.520080 -0.011448
-0.282354 1.523372 -0.012256
-0.278596 1.517070 -0.010709
-0.278111 1.530908 -0.014106
-0.274669 1.526514 -0.013027
-0.272454 1.529793 -0.013832
-0.268434 1.521546 -0.011808
-0.265479 1.520013 -0.011432
-0.262822 1.520396 -0.011526
-0.260309 1.521736 -0.011854
-0.257649 1.522111 -0.011946
-0.255129 1.523442 -0.012273
-0.252466 1.523808 -0.012363
-0.249390 1.521283 -0.011743
-0.246459 1.519715 -0.011358
-0.243535 1.518141 -0.010972
-0.240485 1.515600 -0.010348
-0.237836 1.515941 -0.010432
-0.234671 1.512425 -0.009569
-0.232028 1.512756 -0.009650
-0.229509 1.514046 -0.009967
-0.226739 1.513404 -0.009810
-0.223607 1.509866 -0.008941
-0.220968 1.510179 -0.009018
-0.218329 1.510487 -0.009093
-0.215456 1.508861 -0.008694
-0.212704 1.508195 -0.008531
-0.210069 1.508489 -0.008603
-0.207544 1.509743 -0.008911
-0.204796 1.509063 -0.008744
-0.201943 1.507413 -0.008339
-0.198884 1.503826 -0.007458
-0.196256 1.504096 -0.007525
-0.193525 1.503396 -0.007353
-0.190898 1.503657 -0.007417
-0.188370 1.504881 -0.007717
-0.185253 1.500301 -0.006593
-0.182823 1.502482 -0.007128
-0.178880 1.489189 -0.003866
-0.176741 1.494260 -0.005111
-0.173405 1.486756 -0.003269
-0.171697 1.496656 -0.005699
-0.168472 1.490109 -0.004091
-0.165955 1.491295 -0.004383
-0.163098 1.488607 -0.003723
-0.160170 1.484945 -0.002824
-0.157737 1.487086 -0.003349
-0.155375 1.490191 -0.004112
-0.152848 1.491356 -0.004398
-0.149718 1.484769 -0.002781
-0.146686 1.479145 -0.001400
-0.144603 1.486108 -0.003110
-0.142146 1.488224 -0.003629
-0.139615 1.489367 -0.003910
-0.136616 1.483723 -0.002524
-0.133831 1.480981 -0.001851
-0.131432 1.484049 -0.002604
-0.128718 1.482266 -0.002167
-0.125714 1.475632 -0.000538
-0.122965 1.472869 0.000140
-0.120504 1.474951 -0.000371
-0.117820 1.473149 0.000071
-0.115353 1.475222 -0.000437
-0.113080 1.481170 -0.001897
-0.110395 1.479355 -0.001452
-0.107529 1.473655 -0.000053
-0.104865 1.471830 0.000395
-0.102426 1.474852 -0.000347
-0.099892 1.475930 -0.000611
-0.097074 1.470210 0.000793
-0.094507 1.470308 0.000769
-0.091940 1.470402 0.000746
-0.089372 1.470491 0.000724
-0.086738 1.468634 0.001179
-0.084174 1.468715 0.001160
-0.081639 1.469762 0.000903
-0.079101 1.470804 0.000647
-0.076323 1.463105 0.002537
-0.073744 1.462197 0.002760
-0.071192 1.462255 0.002745
-0.068639 1.462309 0.002732
-0.066124 1.464301 0.002243
-0.063515 1.461434 0.002947
-0.060933 1.459533 0.003414
-0.058385 1.459569 0.003404
-0.055825 1.458631 0.003635
-0.053268 1.457687 0.003866
-0.050715 1.456740 0.004099
-0.048172 1.456760 0.004094
-0.045629 1.456775 0.004090
-0.043075 1.453872 0.004803
-0.040522 1.445138 0.006947
-0.038000 1.448053 0.006231
-0.035464 1.452907 0.005040
-0.032921 1.454843 0.004565
-0.030371 1.456775 0.004090
-0.027842 1.454817 0.004571
-0.025303 1.454798 0.004576
-0.022774 1.453803 0.004820
-0.020298 1.448920 0.006018
-0.017727 1.451801 0.005311
-0.015224 1.449822 0.005797
-0.012659 1.451723 0.005330
-0.010260 1.444881 0.007010
-0.007654 1.448716 0.006068
-0.005081 1.450604 0.005605
-0.002525 1.451517 0.005381
-0.000227 1.442717 0.007541
0.002095 1.435856 0.009225
0.004690 1.438698 0.008527
0.007169 1.437653 0.008784
0.009743 1.439515 0.008327
0.012081 1.434579 0.009538
0.014584 1.434492 0.009560
0.017163 1.436342 0.009106
0.019709 1.437217 0.008891
0.022217 1.437117 0.008916
0.024594 1.434102 0.009656
0.027096 1.433993 0.009682
0.029456 1.430971 0.010424
0.032002 1.431824 0.010215
0.034550 1.432674 0.010006
0.037154 1.434488 0.009561
0.039603 1.433389 0.009831
0.042048 1.432286 0.010101
0.044432 1.430209 0.010611
0.046808 1.428128 0.011122
0.049421 1.429921 0.010682
0.051728 1.426863 0.011432
0.054281 1.427678 0.011232
0.056573 1.424612 0.011985
0.059126 1.425418 0.011787
0.061473 1.423314 0.012303
0.063884 1.422175 0.012583
0.066364 1.422000 0.012626
0.068920 1.422789 0.012432
0.071401 1.422606 0.012477
0.073569 1.418546 0.013474
0.076123 1.419323 0.013283
0.078353 1.416223 0.014044
0.080739 1.415056 0.014330
0.083121 1.413885 0.014618
0.085500 1.412711 0.014906
0.087874 1.411532 0.015195
0.090608 1.414218 0.014536
0.093074 1.413998 0.014590
0.095540 1.413773 0.014645
0.097909 1.412578 0.014939
0.100080 1.409446 0.015707
0.102537 1.409210 0.015765
0.104995 1.408970 0.015824
0.107554 1.409691 0.015647
0.109908 1.408477 0.015945
0.112151 1.406293 0.016481
0.114495 1.405070 0.016781
0.117055 1.405775 0.016608
0.119506 1.405510 0.016673
0.121843 1.404276 0.016976
0.124061 1.402074 0.017517
0.126506 1.401797 0.017585
0.129186 1.403445 0.017180
0.131273 1.400267 0.017960
0.133958 1.401906 0.017558
0.136402 1.401612 0.017630
0.138845 1.401315 0.017703
0.141542 1.402939 0.017304
0.143859 1.401670 0.017616
0.145911 1.398471 0.018401
0.147820 1.394307 0.019423
0.150117 1.393027 0.019737
0.152816 1.394631 0.019344
0.155797 1.398153 0.018479
0.157538 1.393014 0.019741
0.159966 1.392680 0.019823
0.162394 1.392343 0.019905
0.164965 1.392962 0.019753
0.167101 1.390694 0.020310
0.169524 1.390345 0.020396
0.171948 1.389991 0.020483
0.174673 1.391553 0.020099
0.177251 1.392150 0.019953
0.179523 1.390824 0.020278
0.181790 1.389494 0.020605
0.183896 1.387201 0.021167
0.186153 1.385864 0.021496
0.188569 1.385482 0.021589
0.190983 1.385096 0.021684
0.193397 1.384706 0.021780
0.195643 1.383354 0.022112
0.197548 1.380085 0.022914
0.200293 1.381597 0.022543
0.203045 1.383105 0.022173
0.206497 1.388433 0.020865
0.208741 1.387060 0.021202
0.211689 1.389507 0.020601
0.214111 1.389082 0.020706
0.216532 1.388652 0.020811
0.217312 1.379625 0.023027
0.219900 1.380145 0.022900
0.222676 1.381614 0.022539
0.225645 1.384032 0.021945
0.227868 1.382629 0.022290
0.229705 1.379317 0.023103
0.231723 1.376955 0.023682
0.234122 1.376496 0.023795
0.236521 1.376032 0.023909
0.239116 1.376517 0.023790
0.242112 1.378900 0.023205
0.245520 1.383180 0.022154
0.248133 1.383649 0.022039
0.249726 1.379359 0.023092
0.251717 1.376969 0.023679
0.253700 1.374576 0.024266
0.255466 1.371230 0.025088
0.258066 1.371680 0.024977
0.261095 1.374023 0.024402
0.263274 1.372565 0.024760
0.265232 1.370156 0.025351
0.267182 1.367745 0.025943
0.269785 1.368173 0.025838
0.272389 1.368596 0.025734
0.274997 1.369015 0.025631
0.277381 1.368482 0.025762
0.279538 1.367000 0.026126
0.281691 1.365514 0.026491
0.283610 1.363080 0.027088
0.286679 1.365367 0.026527
0.289991 1.368592 0.025735
0.294256 1.375585 0.024019
-0.522202 1.609131 -0.033805
-0.519956 1.611811 -0.034464
-0.517418 1.613556 -0.034893
-0.514310 1.613435 -0.034863
-0.510643 1.611444 -0.034374
-0.507263 1.610377 -0.034111
-0.503611 1.608371 -0.033618
-0.499968 1.606357 -0.033124
-0.496334 1.604336 -0.032627
-0.493797 1.606045 -0.033047
-0.490985 1.606815 -0.033236
-0.487634 1.605710 -0.032964
-0.483754 1.602726 -0.032231
-0.480682 1.602543 -0.032186
-0.476557 1.598608 -0.031219
-0.472972 1.596537 -0.030710
-0.469395 1.594459 -0.030199
-0.466346 1.594250 -0.030148
-0.463298 1.594035 -0.030095
-0.460507 1.594754 -0.030272
-0.457462 1.594528 -0.030216
-0.454419 1.594297 -0.030159
-0.450626 1.591240 -0.029408
-0.447841 1.591937 -0.029579
-0.444560 1.590747 -0.029287
-0.441285 1.589551 -0.028993
-0.437772 1.587407 -0.028466
-0.434752 1.587140 -0.028400
-0.431494 1.585924 -0.028102
-0.428718 1.586589 -0.028265
-0.425230 1.584418 -0.027732
-0.421517 1.581297 -0.026964
-0.418283 1.580056 -0.026659
-0.415286 1.579754 -0.026585
-0.412291 1.579445 -0.026509
-0.408613 1.576296 -0.025735
-0.405175 1.574084 -0.025192
-0.402196 1.573758 -0.025112
-0.399665 1.575319 -0.025495
-0.396244 1.573089 -0.024947
-0.393491 1.573694 -0.025096
-0.389865 1.570503 -0.024312
-0.386901 1.570149 -0.024225
-0.383724 1.568841 -0.023903
-0.381192 1.570374 -0.024280
-0.377176 1.565258 -0.023023
-0.374228 1.564881 -0.022930
-0.371075 1.563549 -0.022603
-0.368133 1.563161 -0.022507
-0.364785 1.560866 -0.021943
-0.361446 1.558565 -0.021378
-0.358719 1.559111 -0.021512
-0.354995 1.554894 -0.020475
-0.352275 1.555429 -0.020607
-0.348967 1.553103 -0.020035
-0.346056 1.552675 -0.019930
-0.343340 1.553195 -0.020058
-0.340623 1.553710 -0.020184
-0.337527 1.552313 -0.019841
-0.335187 1.554727 -0.020434
-0.332096 1.553320 -0.020088
-0.330483 1.559543 -0.021618
-0.326297 1.552398 -0.019862
-0.323942 1.554794 -0.020451
-0.318004 1.538079 -0.016343
-0.314961 1.536639 -0.015989
-0.313326 1.542843 -0.017514
-0.311322 1.547133 -0.018568
-0.308273 1.545680 -0.018211
-0.303867 1.536567 -0.015971
-0.301517 1.538930 -0.016552
-0.298660 1.538416 -0.016426
-0.295804 1.537898 -0.016298
-0.291972 1.531626 -0.014757
-0.288001 1.524388 -0.012978
-0.285336 1.524809 -0.013081
-0.282512 1.524267 -0.012948
-0.279691 1.523720 -0.012814
-0.276563 1.521250 -0.012207
-0.273445 1.518773 -0.011598
-0.272303 1.528769 -0.014055
-0.269481 1.528203 -0.013916
-0.265479 1.519950 -0.011887
-0.262822 1.520333 -0.011981
-0.260309 1.521672 -0.012310
-0.257934 1.523969 -0.012875
-0.255411 1.525301 -0.013202
-0.252605 1.524706 -0.013056
-0.249802 1.524105 -0.012908
-0.246595 1.520614 -0.012050
-0.243803 1.520003 -0.011900
-0.240485 1.515536 -0.010802
-0.237444 1.512989 -0.010176
-0.234800 1.513325 -0.010259
-0.232155 1.513656 -0.010340
-0.229259 1.512056 -0.009947
-0.226492 1.511414 -0.009789
-0.224095 1.513659 -0.010341
-0.221209 1.512044 -0.009944
-0.218211 1.509460 -0.009309
-0.215223 1.506870 -0.008672
-0.212475 1.506203 -0.008509
-0.209956 1.507461 -0.008818
-0.207656 1.510646 -0.009600
-0.204577 1.507070 -0.008722
-0.202051 1.508316 -0.009028
-0.199415 1.508591 -0.009096
-0.196465 1.505965 -0.008450
-0.193628 1.504300 -0.008041
-0.190999 1.504561 -0.008105
-0.188271 1.503852 -0.007931
-0.185253 1.500239 -0.007043
-0.181673 1.490820 -0.004728
-0.178974 1.490094 -0.004550
-0.176371 1.490331 -0.004608
-0.173949 1.492498 -0.005140
-0.171608 1.495628 -0.005909
-0.168646 1.491982 -0.005013
-0.166125 1.493169 -0.005305
-0.163098 1.488545 -0.004169
-0.160662 1.490691 -0.004696
-0.157577 1.485089 -0.003319
-0.154590 1.480449 -0.002179
-0.151851 1.478708 -0.001751
-0.149118 1.476962 -0.001322
-0.146905 1.481990 -0.002558
-0.144674 1.487016 -0.003793
-0.142216 1.489132 -0.004313
-0.139479 1.487369 -0.003880
-0.136284 1.478818 -0.001778
-0.133637 1.478013 -0.001580
-0.130867 1.475265 -0.000905
-0.128230 1.474451 -0.000705
-0.125121 1.465878 0.001402
-0.123080 1.474748 -0.000778
-0.120895 1.481678 -0.002481
-0.118577 1.486664 -0.003706
-0.115562 1.479040 -0.001833
-0.112776 1.475290 -0.000911
-0.110249 1.476385 -0.001180
-0.107529 1.473595 -0.000494
-0.104820 1.470800 0.000192
-0.102208 1.469941 0.000404
-0.099725 1.471988 -0.000100
-0.097154 1.472091 -0.000125
-0.094584 1.472189 -0.000149
-0.092049 1.473253 -0.000410
-0.089442 1.472372 -0.000194
-0.086871 1.472457 -0.000215
-0.084268 1.471567 0.000004
-0.081728 1.472614 -0.000253
-0.078989 1.466862 0.001160
-0.076375 1.464987 0.001621
-0.073769 1.463109 0.002083
-0.071192 1.462196 0.002307
-0.068597 1.460308 0.002771
-0.066067 1.461329 0.002520
-0.063481 1.459433 0.002986
-0.060964 1.461416 0.002499
-0.058413 1.461452 0.002490
-0.055873 1.462456 0.002243
-0.053331 1.463455 0.001998
-0.050749 1.460566 0.002708
-0.048193 1.459614 0.002942
-0.045629 1.456716 0.003654
-0.043086 1.456727 0.003651
-0.040532 1.450906 0.005082
-0.038000 1.451880 0.004843
-0.035475 1.447022 0.006036
-0.032921 1.454785 0.004129
-0.030397 1.451860 0.004847
-0.027912 1.445048 0.006522
-0.025373 1.446971 0.006049
-0.022942 1.438208 0.008203
-0.020456 1.436238 0.008687
-0.017978 1.434264 0.009172
-0.015397 1.439083 0.007988
-0.012677 1.450694 0.005134
-0.010010 1.457445 0.003475
-0.007466 1.457396 0.003487
-0.005013 1.453459 0.004455
-0.002671 1.445634 0.006378
-0.000358 1.437806 0.008302
0.001956 1.430945 0.009988
0.004512 1.432816 0.009528
0.007326 1.442448 0.007160
0.009976 1.446252 0.006226
0.012430 1.444227 0.006723
0.014547 1.433465 0.009368
0.017240 1.438226 0.008198
0.019589 1.434248 0.009176
0.022468 1.442881 0.007054
0.024725 1.436955 0.008511
0.027459 1.441697 0.007345
0.029692 1.435764 0.008803
0.032197 1.435647 0.008832
0.034601 1.433586 0.009339
0.037154 1.434431 0.009131
0.039657 1.434301 0.009163
0.041936 1.430290 0.010149
0.044317 1.428213 0.010659
0.046749 1.427102 0.010932
0.049238 1.426956 0.010968
0.051790 1.427775 0.010767
0.054281 1.427621 0.010805
0.056573 1.424556 0.011558
0.058922 1.422455 0.012074
0.061403 1.422289 0.012115
0.063884 1.422119 0.012157
0.066364 1.421944 0.012200
0.068845 1.421765 0.012244
0.071401 1.422550 0.012051
0.073804 1.421394 0.012335
0.076283 1.421202 0.012382
0.078517 1.418103 0.013144
0.080906 1.416936 0.013431
0.083548 1.418667 0.013005
0.086110 1.419427 0.012819
0.088585 1.419214 0.012871
0.090879 1.417064 0.013399
0.093074 1.413942 0.014166
0.095446 1.412751 0.014459
0.097813 1.411556 0.014753
0.100275 1.411324 0.014810
0.102736 1.411087 0.014868
0.105096 1.409881 0.015165
0.107554 1.409636 0.015225
0.110012 1.409387 0.015286
0.112364 1.408169 0.015585
0.114495 1.405015 0.016360
0.117055 1.405720 0.016187
0.119171 1.402560 0.016964
0.122069 1.406151 0.016081
0.124291 1.403948 0.016623
0.126739 1.403671 0.016691
0.129186 1.403390 0.016760
0.131393 1.401176 0.017304
0.133958 1.401851 0.017138
0.136402 1.401558 0.017210
0.138845 1.401260 0.017283
0.140399 1.394216 0.019015
0.142829 1.393911 0.019090
0.145650 1.396491 0.018455
0.148217 1.397140 0.018296
0.150653 1.396823 0.018374
0.152816 1.394577 0.018926
0.155247 1.394251 0.019006
0.157538 1.392960 0.019323
0.160248 1.394549 0.018933
0.162679 1.394211 0.019016
0.164676 1.390986 0.019808
0.166954 1.389680 0.020129
0.169672 1.391251 0.019743
0.172247 1.391857 0.019594
0.174975 1.393419 0.019211
0.176945 1.390177 0.020007
0.179213 1.388851 0.020333
0.181634 1.388481 0.020424
0.184054 1.388107 0.020516
0.186953 1.390604 0.019902
0.189377 1.390221 0.019997
0.191310 1.386959 0.020798
0.193727 1.386568 0.020894
0.195476 1.382344 0.021933
0.198054 1.382903 0.021795
0.200463 1.382501 0.021894
0.202873 1.382095 0.021994
0.205455 1.382641 0.021859
0.207689 1.381270 0.022196
0.211335 1.387542 0.020655
0.213932 1.388073 0.020524
0.215990 1.385733 0.021099
0.218041 1.383391 0.021675
0.220268 1.382001 0.022017
0.223047 1.383469 0.021656
0.225458 1.383025 0.021765
0.227301 1.379715 0.022578
0.229514 1.378310 0.022924
0.232108 1.378808 0.022801
0.234511 1.378348 0.022914
0.237304 1.379789 0.022560
0.239313 1.377416 0.023144
0.242112 1.378847 0.022792
0.244716 1.379322 0.022675
0.247322 1.379791 0.022560
0.249317 1.377405 0.023146
0.251717 1.376916 0.023267
0.252868 1.370723 0.024788
0.255256 1.370228 0.024910
0.257432 1.368780 0.025266
0.260456 1.371124 0.024690
0.262844 1.370616 0.024815
0.265232 1.370104 0.024941
0.267619 1.369588 0.025067
0.270005 1.369068 0.025195
0.272833 1.370438 0.024859
0.274997 1.368962 0.025221
0.277381 1.368430 0.025352
0.279538 1.366948 0.025716
0.280778 1.361680 0.027011
0.284070 1.364918 0.026215
0.287142 1.367204 0.025653
0.289757 1.367595 0.025557
0.293315 1.371757 0.024534
-0.522490 1.609908 -0.035086
-0.521385 1.616309 -0.036664
-0.518554 1.617126 -0.036865
-0.514875 1.615144 -0.036377
-0.511765 1.615018 -0.036346
-0.508379 1.613953 -0.036083
-0.504721 1.611949 -0.035589
-0.501622 1.611804 -0.035554
-0.496882 1.606051 -0.034136
-0.494069 1.606826 -0.034327
-0.490985 1.606662 -0.034286
-0.487634 1.605557 -0.034014
-0.484021 1.603510 -0.033509
-0.480417 1.601455 -0.033003
-0.476557 1.598456 -0.032264
-0.473496 1.598260 -0.032216
-0.469916 1.596184 -0.031704
-0.466087 1.593162 -0.030959
-0.463041 1.592946 -0.030906
-0.459230 1.589909 -0.030157
-0.456447 1.590621 -0.030333
-0.454419 1.594146 -0.031202
-0.451377 1.593910 -0.031143
-0.447841 1.591786 -0.030620
-0.443078 1.584952 -0.028936
-0.440304 1.585636 -0.029104
-0.437529 1.586315 -0.029272
-0.434510 1.586048 -0.029206
-0.430773 1.582947 -0.028442
-0.427525 1.581725 -0.028140
-0.424283 1.580496 -0.027837
-0.421517 1.581148 -0.027998
-0.418516 1.580852 -0.027925
-0.415517 1.580549 -0.027851
-0.411831 1.577407 -0.027076
-0.408385 1.575203 -0.026533
-0.405402 1.574882 -0.026454
-0.402421 1.574556 -0.026373
-0.398995 1.572332 -0.025825
-0.395579 1.570101 -0.025275
-0.392832 1.570705 -0.025424
-0.390083 1.571304 -0.025572
-0.387550 1.572846 -0.025952
-0.386086 1.579126 -0.027500
-0.381831 1.573073 -0.026008
-0.377388 1.566061 -0.024280
-0.374228 1.564735 -0.023953
-0.371075 1.563403 -0.023625
-0.367927 1.562065 -0.023295
-0.364171 1.557870 -0.022261
-0.360837 1.555568 -0.021693
-0.357915 1.555162 -0.021593
-0.354995 1.554750 -0.021492
-0.352078 1.554333 -0.021389
-0.348771 1.552007 -0.020816
-0.346056 1.552531 -0.020945
-0.342955 1.551145 -0.020603
-0.340051 1.550706 -0.020495
-0.336960 1.549309 -0.020151
-0.334062 1.548860 -0.020040
-0.328940 1.536956 -0.017106
-0.326252 1.537447 -0.017227
-0.322652 1.533160 -0.016171
-0.320332 1.535550 -0.016760
-0.318004 1.537937 -0.017348
-0.315138 1.537453 -0.017229
-0.313852 1.545568 -0.019229
-0.310975 1.545077 -0.019108
-0.307585 1.541711 -0.018278
-0.303697 1.535468 -0.016740
-0.301012 1.535916 -0.016850
-0.299493 1.543061 -0.018611
-0.296795 1.543502 -0.018720
-0.293605 1.541065 -0.018119
-0.290425 1.538621 -0.017517
-0.286775 1.533296 -0.016204
-0.283461 1.529880 -0.015362
-0.280943 1.531253 -0.015701
-0.276873 1.523029 -0.013674
-0.273292 1.517674 -0.012354
-0.270942 1.519990 -0.012925
-0.269481 1.528063 -0.014915
-0.266809 1.528453 -0.015011
-0.263406 1.524036 -0.013922
-0.260597 1.523455 -0.013779
-0.257791 1.522869 -0.013634
-0.255129 1.523239 -0.013726
-0.252327 1.522643 -0.013579
-0.249252 1.520119 -0.012957
-0.246323 1.518551 -0.012570
-0.243133 1.515053 -0.011708
-0.240749 1.517323 -0.012267
-0.237836 1.515739 -0.011877
-0.235186 1.516076 -0.011960
-0.232409 1.515444 -0.011804
-0.229635 1.514808 -0.011648
-0.226863 1.514167 -0.011490
-0.224460 1.516412 -0.012043
-0.221569 1.514798 -0.011645
-0.218448 1.511251 -0.010771
-0.215573 1.509626 -0.010370
-0.212704 1.507995 -0.009969
-0.210069 1.508289 -0.010041
-0.207433 1.508579 -0.010112
-0.204577 1.506933 -0.009707
-0.201727 1.505283 -0.009300
-0.199096 1.505558 -0.009368
-0.196361 1.504863 -0.009197
-0.193731 1.505129 -0.009262
-0.190393 1.498629 -0.007660
-0.187476 1.495987 -0.007009
-0.185057 1.498170 -0.007547
-0.182919 1.503250 -0.008799
-0.180574 1.506393 -0.009574
-0.176833 1.495031 -0.006773
-0.174221 1.495264 -0.006831
-0.171697 1.496460 -0.007125
-0.168821 1.493782 -0.006466
-0.167236 1.505611 -0.009381
-0.163935 1.498087 -0.007527
-0.161399 1.499266 -0.007817
-0.157657 1.485923 -0.004529
-0.154590 1.480316 -0.003147
-0.152618 1.488256 -0.005104
-0.150093 1.489417 -0.005390
-0.147711 1.492509 -0.006152
-0.144460 1.483977 -0.004049
-0.141728 1.482218 -0.003615
-0.138867 1.478517 -0.002703
-0.136417 1.480623 -0.003222
-0.133895 1.481757 -0.003502
-0.130804 1.474165 -0.001631
-0.128169 1.473351 -0.001430
-0.125892 1.478347 -0.002661
-0.123367 1.479464 -0.002936
-0.120783 1.479606 -0.002972
-0.118091 1.477805 -0.002528
-0.115510 1.477939 -0.002561
-0.112776 1.475159 -0.001875
-0.110200 1.475283 -0.001906
-0.107529 1.473464 -0.001458
-0.104865 1.471639 -0.001008
-0.102295 1.471750 -0.001035
-0.099767 1.472827 -0.001301
-0.097194 1.472930 -0.001326
-0.094584 1.472058 -0.001111
-0.092049 1.473122 -0.001373
-0.089477 1.473211 -0.001396
-0.086904 1.473296 -0.001416
-0.084299 1.472407 -0.001197
-0.081669 1.470542 -0.000738
-0.079073 1.469643 -0.000516
-0.076454 1.467769 -0.000054
-0.073818 1.464920 0.000648
-0.071237 1.464008 0.000873
-0.068639 1.462121 0.001338
-0.066067 1.461200 0.001565
-0.063481 1.459304 0.002032
-0.060948 1.460315 0.001783
-0.058413 1.461323 0.001535
-0.055849 1.460384 0.001766
-0.053289 1.459442 0.001998
-0.050741 1.459466 0.001992
-0.048172 1.456572 0.002705
-0.045624 1.455616 0.002941
-0.043068 1.451743 0.003896
-0.040529 1.448837 0.004612
-0.038000 1.447868 0.004851
-0.035466 1.451750 0.003894
-0.032900 1.460482 0.001742
-0.030366 1.457558 0.002462
-0.027870 1.450747 0.004141
-0.025434 1.440047 0.006778
-0.022847 1.446820 0.005109
-0.020285 1.449705 0.004398
-0.017894 1.439964 0.006799
-0.015397 1.438957 0.007047
-0.012781 1.444742 0.005621
-0.010125 1.451492 0.003957
-0.007508 1.455325 0.003013
-0.005126 1.448477 0.004701
-0.002842 1.438713 0.007107
-0.000227 1.442533 0.006166
0.002375 1.445379 0.005464
0.004868 1.444338 0.005721
0.007231 1.439411 0.006935
0.009743 1.439332 0.006955
0.012255 1.439249 0.006975
0.014437 1.430429 0.009149
0.017010 1.432278 0.008693
0.019348 1.428302 0.009673
0.021798 1.427233 0.009936
0.024332 1.428100 0.009723
0.027005 1.431872 0.008793
0.029739 1.436609 0.007626
0.032148 1.434552 0.008133
0.034601 1.433461 0.008401
0.037050 1.432367 0.008671
0.039603 1.433207 0.008464
0.042104 1.433073 0.008497
0.044604 1.432935 0.008531
0.046927 1.429886 0.009283
0.049238 1.426832 0.010035
0.051728 1.426682 0.010072
0.054281 1.427497 0.009871
0.056705 1.426370 0.010149
0.058922 1.422332 0.011144
0.061124 1.418292 0.012140
0.063669 1.419090 0.011943
0.066145 1.418916 0.011986
0.068695 1.419705 0.011792
0.071248 1.420491 0.011598
0.073726 1.420303 0.011644
0.076203 1.420112 0.011692
0.078517 1.417981 0.012217
0.080823 1.415846 0.012743
0.083207 1.414675 0.013031
0.086023 1.418337 0.012129
0.088497 1.418125 0.012181
0.090698 1.415007 0.012950
0.093166 1.414787 0.013004
0.095540 1.413596 0.013297
0.097909 1.412401 0.013592
0.100763 1.416034 0.012697
0.103332 1.416763 0.012517
0.105601 1.414589 0.013053
0.107554 1.409515 0.014303
0.109908 1.408301 0.014603
0.112257 1.407083 0.014903
0.115035 1.409722 0.014252
0.117494 1.409460 0.014317
0.120063 1.410159 0.014145
0.122296 1.407960 0.014687
0.124291 1.403828 0.015705
0.126972 1.405480 0.015298
0.129542 1.406162 0.015130
0.131753 1.403948 0.015675
0.133714 1.399804 0.016697
0.136278 1.400474 0.016532
0.138720 1.400177 0.016605
0.141161 1.399875 0.016679
0.143344 1.397644 0.017229
0.146042 1.399260 0.016831
0.148481 1.398946 0.016908
0.151456 1.402477 0.016038
0.153359 1.398306 0.017066
0.155659 1.397018 0.017383
0.157817 1.394764 0.017939
0.160107 1.393469 0.018258
0.162251 1.391209 0.018815
0.165254 1.394711 0.017952
0.167539 1.393404 0.018274
0.169672 1.391133 0.018834
0.171948 1.389819 0.019158
0.174673 1.391381 0.018773
0.176792 1.389099 0.019335
0.178904 1.386815 0.019898
0.181321 1.386445 0.019989
0.184054 1.387989 0.019609
0.186153 1.385694 0.020174
0.188569 1.385312 0.020269
0.190983 1.384926 0.020364
0.193397 1.384536 0.020460
0.195309 1.381269 0.021265
0.197885 1.381829 0.021127
0.200123 1.380471 0.021462
0.202529 1.380065 0.021562
0.205107 1.380612 0.021427
0.208039 1.383065 0.020822
0.211335 1.387424 0.019748
0.213217 1.384134 0.020559
0.215810 1.384661 0.020429
0.217859 1.382320 0.021006
0.220084 1.380929 0.021349
0.222490 1.380490 0.021457
0.224896 1.380047 0.021566
0.227490 1.380553 0.021442
0.229705 1.379147 0.021788
0.231916 1.377739 0.022135
0.234317 1.377280 0.022248
0.236912 1.377768 0.022128
0.239313 1.377300 0.022243
0.241115 1.373974 0.023063
0.243911 1.375401 0.022711
0.246511 1.375872 0.022595
0.249112 1.376338 0.022480
0.251098 1.373950 0.023069
0.253076 1.371558 0.023658
0.255466 1.371063 0.023780
0.258066 1.371513 0.023670
0.260456 1.371009 0.023794
0.262415 1.368605 0.024386
0.264799 1.368093 0.024512
0.267182 1.367578 0.024639
0.269565 1.367059 0.024767
0.272389 1.368429 0.024429
0.274997 1.368848 0.024326
0.277831 1.370208 0.023991
0.280445 1.370616 0.023891
0.282833 1.370074 0.024024
0.284990 1.368584 0.024391
0.287606 1.368979 0.024294
0.290224 1.369369 0.024198
0.295196 1.379192 0.021777
-0.521340 1.605955 -0.035760
-0.519385 1.609563 -0.036652
-0.518270 1.615960 -0.038236
-0.514028 1.612115 -0.037284
-0.511485 1.613851 -0.037714
-0.508100 1.612787 -0.037450
-0.504998 1.612648 -0.037416
-0.501071 1.609704 -0.036687
-0.497430 1.607686 -0.036188
-0.493797 1.605660 -0.035686
-0.491256 1.607364 -0.036108
-0.488441 1.608129 -0.036298
-0.485090 1.607019 -0.036023
-0.480948 1.603095 -0.035052
-0.476821 1.599162 -0.034078
-0.473758 1.598966 -0.034030
-0.469916 1.595953 -0.033284
-0.466863 1.595745 -0.033232
-0.464069 1.596469 -0.033412
-0.461274 1.597189 -0.033590
-0.458984 1.599781 -0.034231
-0.455679 1.598613 -0.033942
-0.451377 1.593680 -0.032721
-0.447592 1.590617 -0.031963
-0.444066 1.588487 -0.031436
-0.441040 1.588231 -0.031373
-0.437772 1.587029 -0.031075
-0.434510 1.585820 -0.030776
-0.431494 1.585547 -0.030708
-0.428241 1.584326 -0.030406
-0.425467 1.584985 -0.030569
-0.422457 1.584696 -0.030497
-0.419450 1.584401 -0.030424
-0.416444 1.584100 -0.030350
-0.413211 1.582850 -0.030041
-0.409070 1.577813 -0.028794
-0.405855 1.576548 -0.028481
-0.402871 1.576223 -0.028400
-0.399665 1.574947 -0.028084
-0.396244 1.572717 -0.027533
-0.393491 1.573322 -0.027682
-0.390519 1.572975 -0.027596
-0.387766 1.573570 -0.027744
-0.384583 1.572263 -0.027420
-0.380979 1.569055 -0.026626
-0.377810 1.567736 -0.026300
-0.374857 1.567360 -0.026207
-0.371698 1.566029 -0.025877
-0.368752 1.565643 -0.025782
-0.365194 1.562400 -0.024979
-0.361649 1.559150 -0.024175
-0.357915 1.554941 -0.023133
-0.355194 1.555481 -0.023266
-0.352275 1.555065 -0.023163
-0.349554 1.555595 -0.023295
-0.346638 1.555168 -0.023189
-0.343340 1.552831 -0.022611
-0.340241 1.551440 -0.022266
-0.336960 1.549090 -0.021685
-0.334437 1.550548 -0.022046
-0.331539 1.550094 -0.021933
-0.326620 1.539140 -0.019222
-0.323016 1.534854 -0.018161
-0.320512 1.536289 -0.018516
-0.318004 1.537721 -0.018871
-0.313898 1.530550 -0.017096
-0.312624 1.538661 -0.019103
-0.310107 1.540079 -0.019454
-0.309304 1.551057 -0.022171
-0.304378 1.539079 -0.019207
-0.302023 1.541442 -0.019792
-0.298660 1.538058 -0.018954
-0.295309 1.534668 -0.018115
-0.290012 1.519779 -0.014430
-0.288001 1.524036 -0.015483
-0.285336 1.524457 -0.015588
