# This PCD file was generated using the MATLAB® pcwrite function
# from Computer Vision System Toolbox®.
# .PCD v.7 - Point Cloud Data file format
VERSION .7
FIELDS x y z
SIZE 4 4 4
TYPE F F F
COUNT 1 1 1
WIDTH 1698
HEIGHT 1
VIEWPOINT 0 0 0 1 0 0 0
POINTS 1698
DATA ascii
0.372630 1.631342 -0.351589
0.374910 1.628019 -0.350116
0.377888 1.627357 -0.349823
0.379911 1.623140 -0.347953
0.384081 1.626908 -0.349624
0.386331 1.623571 -0.348144
0.390762 1.628212 -0.350202
0.392269 1.622208 -0.347540
0.395236 1.621519 -0.347234
0.397207 1.617283 -0.345356
0.400666 1.618357 -0.345832
0.404130 1.619424 -0.346305
0.408106 1.622253 -0.347560
0.410307 1.618887 -0.346067
0.412497 1.615519 -0.344574
0.414157 1.610383 -0.342297
0.417883 1.612307 -0.343150
0.421618 1.614224 -0.344000
0.425097 1.615252 -0.344455
0.428317 1.615392 -0.344517
0.431271 1.614646 -0.344187
0.433416 1.611253 -0.342682
0.436363 1.610499 -0.342348
0.439035 1.608860 -0.341621
0.441703 1.607217 -0.340893
0.443814 1.603813 -0.339383
0.447301 1.604799 -0.339820
0.451629 1.608411 -0.341422
0.454851 1.608505 -0.341464
0.455815 1.601578 -0.338392
0.458459 1.599911 -0.337653
0.463954 1.607001 -0.340797
0.464019 1.597442 -0.336558
0.466650 1.595763 -0.335814
0.469275 1.594081 -0.335068
0.472189 1.593269 -0.334708
0.476277 1.595948 -0.335896
0.479193 1.595125 -0.335531
0.482406 1.595171 -0.335551
0.485022 1.593466 -0.334795
0.488235 1.593501 -0.334811
0.491147 1.592659 -0.334438
0.494666 1.593554 -0.334834
0.497578 1.592702 -0.334457
0.499259 1.588365 -0.332534
0.502162 1.587506 -0.332153
0.505062 1.586641 -0.331770
0.508274 1.586641 -0.331769
0.510859 1.584899 -0.330997
0.513754 1.584021 -0.330608
0.516649 1.583139 -0.330216
0.519541 1.582251 -0.329823
0.522111 1.580494 -0.329044
0.524354 1.577867 -0.327879
0.527236 1.576967 -0.327480
0.531093 1.578656 -0.328229
0.533650 1.576882 -0.327442
0.536530 1.575968 -0.327037
0.538748 1.573323 -0.325864
0.540957 1.570676 -0.324691
0.544159 1.570612 -0.324662
0.548369 1.573125 -0.325777
0.550905 1.571327 -0.324979
0.553775 1.570385 -0.324562
0.555622 1.566860 -0.322998
0.559851 1.569347 -0.324101
0.560999 1.564098 -0.321774
0.567308 1.571719 -0.325153
0.570525 1.571609 -0.325104
0.573744 1.571492 -0.325052
0.575914 1.568801 -0.323859
0.576316 1.561830 -0.320768
0.577046 1.555716 -0.318057
0.578111 1.550460 -0.315727
0.581297 1.550328 -0.315668
0.583768 1.548485 -0.314851
0.588394 1.551755 -0.316301
0.592312 1.553310 -0.316990
0.600232 1.564226 -0.321831
0.601264 1.558950 -0.319491
0.601911 1.552824 -0.316775
0.600328 1.541601 -0.311799
0.603511 1.541430 -0.311723
0.610408 1.549741 -0.315408
0.613610 1.549552 -0.315324
0.617936 1.551901 -0.316366
0.622274 1.554240 -0.317403
0.624355 1.551491 -0.316184
0.626807 1.549587 -0.315340
0.628873 1.546833 -0.314119
0.630165 1.542389 -0.312148
0.634517 1.544696 -0.313171
0.637336 1.543621 -0.312694
0.640152 1.542541 -0.312216
0.644134 1.543983 -0.312855
0.645779 1.540368 -0.311252
0.648982 1.540116 -0.311140
0.651398 1.538177 -0.310281
0.654600 1.537915 -0.310164
0.657803 1.537646 -0.310045
0.660210 1.535696 -0.309180
0.664212 1.537092 -0.309800
0.667820 1.537644 -0.310044
0.671433 1.538188 -0.310286
0.673429 1.535383 -0.309042
0.676230 1.534245 -0.308537
0.678620 1.532269 -0.307661
0.682645 1.533625 -0.308262
0.685442 1.532473 -0.307751
0.688238 1.531317 -0.307239
0.691031 1.530155 -0.306724
0.694654 1.530653 -0.306944
0.697864 1.530312 -0.306793
0.700236 1.528306 -0.305904
0.703023 1.527126 -0.305380
0.705808 1.525941 -0.304855
0.707743 1.523096 -0.303594
0.710094 1.521077 -0.302699
0.712440 1.519055 -0.301802
0.715210 1.517855 -0.301270
0.717547 1.515826 -0.300370
-0.090800 1.796882 -0.421280
-0.087396 1.793306 -0.419702
-0.084055 1.791553 -0.418928
-0.080743 1.790709 -0.418556
-0.077435 1.789860 -0.418181
-0.074187 1.791750 -0.419015
-0.070845 1.789061 -0.417828
-0.067561 1.789110 -0.417850
-0.064249 1.787326 -0.417063
-0.060944 1.785535 -0.416273
-0.057677 1.786484 -0.416691
-0.054354 1.781938 -0.414686
-0.051069 1.780132 -0.413889
-0.047776 1.775576 -0.411878
-0.044507 1.772844 -0.410673
-0.041253 1.772852 -0.410676
-0.038000 1.771940 -0.410274
-0.034752 1.770108 -0.409465
-0.031500 1.771015 -0.409865
-0.028266 1.768257 -0.408649
-0.025036 1.766409 -0.407833
-0.021795 1.766386 -0.407823
-0.018554 1.766357 -0.407810
-0.015337 1.764494 -0.406988
-0.012114 1.763541 -0.406567
-0.008926 1.760752 -0.405337
-0.005731 1.758874 -0.404508
-0.002523 1.757905 -0.404081
0.000681 1.756931 -0.403651
0.003926 1.757782 -0.404026
0.007077 1.754968 -0.402785
0.010270 1.753979 -0.402348
0.013460 1.752985 -0.401910
0.016705 1.753814 -0.402276
0.019890 1.752810 -0.401833
0.023039 1.750886 -0.400984
0.026180 1.748958 -0.400133
0.029314 1.747024 -0.399279
0.032518 1.746914 -0.399231
0.035722 1.746799 -0.399180
0.038884 1.745764 -0.398724
0.041998 1.743811 -0.397862
0.045150 1.742767 -0.397401
0.048158 1.738976 -0.395728
0.051444 1.740664 -0.396473
0.054737 1.742345 -0.397215
0.057775 1.739454 -0.395939
0.061126 1.742039 -0.397080
0.064209 1.740052 -0.396203
0.067745 1.745366 -0.398548
0.070709 1.741541 -0.396860
0.073902 1.741365 -0.396782
0.076593 1.733879 -0.393479
0.079578 1.730955 -0.392189
0.082685 1.729852 -0.391702
0.086332 1.736046 -0.394435
0.089445 1.734932 -0.393944
0.092411 1.731989 -0.392645
0.095367 1.729040 -0.391344
0.098086 1.723351 -0.388834
0.100938 1.719482 -0.387127
0.104325 1.721994 -0.388235
0.107882 1.726324 -0.390146
0.110964 1.725177 -0.389639
0.112955 1.712173 -0.383901
0.115750 1.708283 -0.382185
0.119490 1.714415 -0.384891
0.122988 1.717806 -0.386387
0.126226 1.718458 -0.386674
0.129191 1.716371 -0.385754
0.132148 1.714280 -0.384831
0.135289 1.714006 -0.384710
0.138332 1.712816 -0.384185
0.141173 1.709801 -0.382854
0.144204 1.708602 -0.382325
0.147232 1.707399 -0.381794
0.150256 1.706190 -0.381261
0.153488 1.706797 -0.381529
0.156615 1.706489 -0.381393
0.159741 1.706175 -0.381255
0.162756 1.704948 -0.380713
0.165539 1.701898 -0.379367
0.168887 1.703388 -0.380025
0.171774 1.701238 -0.379076
0.175009 1.701809 -0.379328
0.177766 1.698742 -0.377975
0.180877 1.698395 -0.377821
0.183865 1.697135 -0.377265
0.186973 1.696778 -0.377108
0.189827 1.694601 -0.376148
0.193059 1.695142 -0.376386
0.194859 1.685700 -0.372220
0.197945 1.685326 -0.372055
0.201299 1.686760 -0.372688
0.205609 1.694533 -0.376118
0.207888 1.688704 -0.373546
0.211816 1.693745 -0.375770
0.213790 1.686098 -0.372395
0.216878 1.685693 -0.372217
0.219820 1.684379 -0.371637
0.222904 1.683964 -0.371454
0.225988 1.683545 -0.371269
0.229369 1.684931 -0.371880
0.232001 1.681788 -0.370494
0.234468 1.677738 -0.368707
0.236611 1.671877 -0.366120
0.239984 1.673244 -0.366723
0.243679 1.676411 -0.368121
0.248667 1.686796 -0.372703
0.251271 1.683627 -0.371305
0.253210 1.676844 -0.368312
0.256445 1.677279 -0.368504
0.259349 1.675905 -0.367898
0.262080 1.673624 -0.366891
0.264803 1.671339 -0.365883
0.267002 1.666347 -0.363680
0.270225 1.666758 -0.363862
0.273276 1.666264 -0.363643
0.276325 1.665764 -0.363423
0.279016 1.663460 -0.362406
0.282060 1.662951 -0.362182
0.285104 1.662438 -0.361955
0.288330 1.662818 -0.362123
0.291001 1.660497 -0.361099
0.293665 1.658172 -0.360073
0.296510 1.656741 -0.359442
0.299541 1.656205 -0.359205
0.302571 1.655664 -0.358966
0.305406 1.654220 -0.358329
0.308237 1.652772 -0.357690
0.311260 1.652217 -0.357445
0.314283 1.651657 -0.357198
0.317104 1.650195 -0.356553
0.320122 1.649626 -0.356302
0.323140 1.649052 -0.356049
0.326569 1.650263 -0.356583
0.328964 1.646994 -0.355141
0.331558 1.644616 -0.354091
0.334566 1.644024 -0.353830
0.337786 1.644320 -0.353961
0.341223 1.645505 -0.354484
0.344449 1.645790 -0.354609
0.346150 1.639820 -0.351975
0.348270 1.635634 -0.350128
0.352147 1.638584 -0.351429
0.356929 1.645093 -0.354302
0.359264 1.641785 -0.352842
0.362266 1.641149 -0.352561
0.364583 1.637835 -0.351099
0.369188 1.643422 -0.353564
0.369876 1.633870 -0.349349
0.373798 1.636775 -0.350631
0.373969 1.625444 -0.345631
0.380019 1.636339 -0.350439
0.381580 1.630338 -0.347791
0.386002 1.634994 -0.349846
0.387057 1.627213 -0.346412
0.390032 1.626532 -0.346112
0.393986 1.629394 -0.347374
0.396718 1.627815 -0.346678
0.397456 1.619143 -0.342851
0.400415 1.618446 -0.342543
0.401861 1.612431 -0.339889
0.406076 1.616151 -0.341531
0.408519 1.613670 -0.340436
0.411982 1.614723 -0.340901
0.415451 1.615770 -0.341363
0.418925 1.616810 -0.341822
0.422404 1.617844 -0.342278
0.425097 1.616224 -0.341563
0.428051 1.615482 -0.341236
0.431271 1.615617 -0.341295
0.433954 1.613984 -0.340575
0.436633 1.612348 -0.339853
0.438490 1.608066 -0.337963
0.441429 1.607303 -0.337627
0.442712 1.601258 -0.334959
0.447578 1.606642 -0.337335
0.450513 1.605864 -0.336992
0.455131 1.610350 -0.338971
0.457792 1.608683 -0.338235
0.457039 1.596485 -0.332853
0.462240 1.602706 -0.335598
0.465168 1.601905 -0.335245
0.468962 1.603727 -0.336049
0.472182 1.603790 -0.336077
0.473650 1.598599 -0.333786
0.475982 1.596030 -0.332653
0.478898 1.595207 -0.332289
0.481217 1.592633 -0.331153
0.483228 1.589182 -0.329631
0.487333 1.591838 -0.330803
0.490845 1.592741 -0.331201
0.493754 1.591894 -0.330827
0.496661 1.591043 -0.330452
0.498337 1.586704 -0.328537
0.501853 1.587585 -0.328926
0.505062 1.587591 -0.328929
0.507961 1.586721 -0.328545
0.510859 1.585847 -0.328159
0.514070 1.585837 -0.328155
0.516966 1.584953 -0.327765
0.519541 1.583197 -0.326990
0.522111 1.581438 -0.326214
0.524998 1.580541 -0.325818
0.526912 1.577043 -0.324274
0.530768 1.578734 -0.325021
0.532995 1.576095 -0.323856
0.536530 1.576908 -0.324215
0.539409 1.575989 -0.323809
0.541953 1.574202 -0.323021
0.544493 1.572411 -0.322230
0.547363 1.571478 -0.321819
0.550231 1.570542 -0.321405
0.553098 1.569600 -0.320990
0.555962 1.568654 -0.320572
0.558825 1.567703 -0.320153
0.562030 1.567607 -0.320111
0.565926 1.569222 -0.320823
0.568443 1.567398 -0.320018
0.572698 1.569857 -0.321103
0.575563 1.568880 -0.320672
0.577371 1.565328 -0.319105
0.577753 1.558353 -0.316027
0.578466 1.552236 -0.313328
0.581654 1.552104 -0.313270
0.581618 1.544279 -0.309817
0.591634 1.560358 -0.316912
0.598459 1.568733 -0.320608
0.601685 1.568567 -0.320534
0.601994 1.561581 -0.317452
0.603744 1.558003 -0.315873
0.605482 1.554424 -0.314294
0.607208 1.550844 -0.312714
0.610037 1.549812 -0.312258
0.611372 1.545379 -0.310302
0.615314 1.546885 -0.310967
0.618135 1.545839 -0.310505
0.620954 1.544789 -0.310042
0.621115 1.537810 -0.306962
0.626587 1.542676 -0.309110
0.629783 1.542458 -0.309013
0.634133 1.544768 -0.310033
0.635792 1.541160 -0.308441
0.640927 1.545142 -0.310198
0.644912 1.546584 -0.310834
0.647342 1.544649 -0.309980
0.649375 1.541870 -0.308754
0.651398 1.539088 -0.307527
0.654205 1.537985 -0.307040
0.657406 1.537717 -0.306922
0.661406 1.539122 -0.307541
0.663411 1.536326 -0.306308
0.667418 1.537717 -0.306921
0.670222 1.536588 -0.306423
0.673834 1.537128 -0.306662
0.676636 1.535989 -0.306159
0.679845 1.535681 -0.306023
0.683465 1.536201 -0.306253
0.686265 1.535047 -0.305743
0.689477 1.534721 -0.305600
0.691031 1.531060 -0.303984
0.693822 1.529894 -0.303469
0.696610 1.528723 -0.302953
0.700655 1.530039 -0.303534
0.704286 1.530517 -0.303745
0.705808 1.526842 -0.302123
0.708591 1.525652 -0.301598
0.710946 1.523630 -0.300706
0.713295 1.521605 -0.299812
0.716497 1.521229 -0.299646
0.722713 1.526629 -0.302029
-0.090912 1.800671 -0.422517
-0.087474 1.796179 -0.420536
-0.084079 1.792597 -0.418956
-0.080743 1.790838 -0.418181
-0.077456 1.790904 -0.418210
-0.074187 1.791879 -0.418640
-0.070880 1.791020 -0.418261
-0.067561 1.789240 -0.417476
-0.064263 1.788370 -0.417092
-0.060956 1.786579 -0.416302
-0.057687 1.787528 -0.416721
-0.054397 1.786642 -0.416330
-0.051097 1.783921 -0.415130
-0.047791 1.778449 -0.412717
-0.044517 1.775717 -0.411512
-0.041259 1.775725 -0.411516
-0.038000 1.774813 -0.411113
-0.034747 1.772980 -0.410305
-0.031500 1.771142 -0.409495
-0.028256 1.770214 -0.409085
-0.025022 1.768366 -0.408270
-0.021795 1.766513 -0.407453
-0.018554 1.766485 -0.407441
-0.015350 1.763706 -0.406215
-0.012128 1.762753 -0.405795
-0.008910 1.761794 -0.405372
-0.005678 1.761745 -0.405350
-0.002466 1.760776 -0.404923
0.000723 1.758887 -0.404090
0.003926 1.757908 -0.403658
0.007126 1.756924 -0.403224
0.010323 1.755934 -0.402788
0.013543 1.755854 -0.402753
0.016645 1.752111 -0.401102
0.019921 1.753851 -0.401869
0.023039 1.751012 -0.400617
0.026250 1.750912 -0.400573
0.029351 1.748064 -0.399317
0.032557 1.747954 -0.399268
0.035762 1.747839 -0.399217
0.038967 1.747718 -0.399164
0.042129 1.746679 -0.398706
0.045241 1.744720 -0.397842
0.048393 1.743671 -0.397379
0.051542 1.742616 -0.396914
0.054484 1.737902 -0.394835
0.057408 1.733183 -0.392754
0.060586 1.733028 -0.392686
0.063595 1.730127 -0.391407
0.067112 1.735443 -0.393751
0.069938 1.729793 -0.391259
0.073047 1.728704 -0.390779
0.076153 1.727611 -0.390297
0.079384 1.728340 -0.390618
0.083215 1.737279 -0.394561
0.086400 1.737083 -0.394474
0.089375 1.734144 -0.393178
0.092554 1.733938 -0.393087
0.095586 1.731902 -0.392189
0.098686 1.730773 -0.391692
0.101705 1.728728 -0.390790
0.104325 1.722117 -0.387874
0.107721 1.724624 -0.388980
0.111128 1.727124 -0.390082
0.113541 1.718678 -0.386357
0.116348 1.714787 -0.384641
0.119578 1.715449 -0.384934
0.122988 1.717929 -0.386027
0.126136 1.717669 -0.385913
0.129191 1.716494 -0.385394
0.132242 1.715313 -0.384874
0.135385 1.715039 -0.384753
0.138430 1.713849 -0.384228
0.141471 1.712654 -0.383701
0.144407 1.710544 -0.382771
0.147438 1.709341 -0.382240
0.150465 1.708132 -0.381707
0.153488 1.706919 -0.381172
0.156723 1.707520 -0.381437
0.159741 1.706297 -0.380897
0.162867 1.705979 -0.380757
0.165766 1.703837 -0.379813
0.168887 1.703509 -0.379668
0.171891 1.702268 -0.379121
0.174890 1.701022 -0.378571
0.177646 1.697954 -0.377218
0.181243 1.701240 -0.378667
0.183741 1.696348 -0.376510
0.186973 1.696899 -0.376753
0.189827 1.694722 -0.375793
0.192930 1.694356 -0.375631
0.195642 1.691263 -0.374267
0.199797 1.698143 -0.377301
0.201433 1.687786 -0.372734
0.205067 1.691028 -0.374164
0.207613 1.687012 -0.372393
0.210285 1.683899 -0.371020
0.212945 1.680783 -0.369645
0.216165 1.681285 -0.369867
0.219531 1.682688 -0.370485
0.222174 1.679558 -0.369105
0.225101 1.678235 -0.368522
0.228173 1.677813 -0.368336
0.231547 1.679194 -0.368945
0.234468 1.677857 -0.368355
0.237075 1.674708 -0.366966
0.239984 1.673362 -0.366373
0.243363 1.674723 -0.366973
0.247068 1.677884 -0.368367
0.250463 1.679232 -0.368962
0.253210 1.676963 -0.367961
0.257105 1.681008 -0.369745
0.260182 1.680534 -0.369536
0.262417 1.675546 -0.367336
0.264803 1.671458 -0.365533
0.267346 1.668268 -0.364126
0.270399 1.667778 -0.363910
0.273627 1.668183 -0.364089
0.276502 1.666783 -0.363471
0.279732 1.667178 -0.363646
0.282060 1.663069 -0.361833
0.285650 1.665254 -0.362797
0.287594 1.659339 -0.360189
0.291187 1.661513 -0.361148
0.294414 1.661884 -0.361311
0.297455 1.661351 -0.361076
0.300113 1.659016 -0.360046
0.302956 1.657576 -0.359411
0.305795 1.656132 -0.358774
0.308237 1.652889 -0.357344
0.311260 1.652333 -0.357099
0.314084 1.650877 -0.356457
0.316500 1.647623 -0.355022
0.320122 1.649742 -0.355956
0.323344 1.650064 -0.356098
0.326157 1.648589 -0.355448
0.328548 1.645320 -0.354006
0.332186 1.647416 -0.354931
0.334566 1.644140 -0.353486
0.337786 1.644436 -0.353617
0.340793 1.643834 -0.353351
0.343799 1.643227 -0.353083
0.347241 1.644400 -0.353601
0.350908 1.646460 -0.354509
0.352590 1.640484 -0.351873
0.356036 1.641641 -0.352384
0.359938 1.644576 -0.353678
0.363173 1.644829 -0.353790
0.365953 1.643295 -0.353113
0.368728 1.641757 -0.352435
0.371267 1.639325 -0.351362
0.373564 1.636000 -0.349896
0.376791 1.636230 -0.349997
0.380256 1.637343 -0.350488
0.382534 1.634007 -0.349017
0.383840 1.627116 -0.345978
0.388266 1.631766 -0.348029
0.393199 1.638183 -0.350859
0.397175 1.641040 -0.352119
0.397706 1.631476 -0.347901
0.399197 1.625461 -0.345248
0.401166 1.621217 -0.343376
0.405138 1.624055 -0.344628
0.406584 1.618034 -0.341973
0.408775 1.614668 -0.340489
0.411982 1.614837 -0.340563
0.416486 1.619419 -0.342583
0.419967 1.620457 -0.343042
0.423191 1.620606 -0.343107
0.425889 1.618985 -0.342392
0.428051 1.615595 -0.340897
0.429934 1.611322 -0.339013
0.432879 1.610572 -0.338682
0.436092 1.610699 -0.338738
0.439307 1.610820 -0.338791
0.442524 1.610935 -0.338842
0.444365 1.606647 -0.336951
0.448687 1.610270 -0.338549
0.449397 1.602461 -0.335105
0.454570 1.608706 -0.337859
0.456380 1.604406 -0.335963
0.458743 1.601860 -0.334840
0.460812 1.598434 -0.333329
0.469191 1.614286 -0.340320
0.473008 1.616102 -0.341121
0.474508 1.610906 -0.338829
0.476282 1.606585 -0.336924
0.478335 1.603138 -0.335404
0.478011 1.592697 -0.330799
0.480324 1.590123 -0.329664
0.482630 1.587547 -0.328528
0.485529 1.586713 -0.328160
0.489938 1.590236 -0.329714
0.493146 1.590262 -0.329725
0.496355 1.590282 -0.329734
0.499567 1.590297 -0.329741
0.502471 1.589437 -0.329361
0.505684 1.589441 -0.329363
0.508586 1.588570 -0.328979
0.511487 1.587695 -0.328593
0.513754 1.585079 -0.327440
0.516649 1.584196 -0.327050
0.519541 1.583308 -0.326658
0.522111 1.581548 -0.325882
0.525320 1.581518 -0.325869
0.528208 1.580616 -0.325471
0.531419 1.580574 -0.325453
0.533977 1.578798 -0.324670
0.536530 1.577018 -0.323885
0.539739 1.576962 -0.323860
0.542285 1.575174 -0.323071
0.545494 1.575108 -0.323042
0.547698 1.572450 -0.321870
0.551242 1.573235 -0.322216
0.553436 1.570570 -0.321041
0.556643 1.570483 -0.321003
0.559509 1.569532 -0.320583
0.563061 1.570294 -0.320919
0.566272 1.570190 -0.320873
0.566362 1.562358 -0.317419
0.571304 1.566536 -0.319262
0.573812 1.564703 -0.318454
0.578075 1.567150 -0.319533
0.580934 1.566164 -0.319098
0.583082 1.563463 -0.317907
0.586291 1.563323 -0.317845
0.587710 1.558907 -0.315898
0.591634 1.560467 -0.316585
0.592312 1.554340 -0.313884
0.595147 1.553332 -0.313439
0.597615 1.551466 -0.312616
0.602278 1.554706 -0.314045
0.606586 1.557084 -0.315094
0.609057 1.555202 -0.314264
0.609294 1.548220 -0.311184
0.611745 1.546335 -0.310353
0.616063 1.548688 -0.311391
0.620016 1.550185 -0.312051
0.624355 1.552520 -0.313081
0.629463 1.556540 -0.314854
0.632303 1.555472 -0.314382
0.634375 1.552708 -0.313164
0.634901 1.546564 -0.310454
0.636178 1.542111 -0.308490
0.640152 1.543562 -0.309130
0.643745 1.544163 -0.309395
0.648124 1.546441 -0.310400
0.648590 1.540293 -0.307689
0.651792 1.540035 -0.307575
0.653809 1.537251 -0.306347
0.658200 1.539503 -0.307340
0.661406 1.539228 -0.307219
0.665013 1.539786 -0.307465
0.667418 1.537823 -0.306599
0.671433 1.539206 -0.307209
0.673429 1.536397 -0.305971
0.677450 1.537767 -0.306575
0.679845 1.535787 -0.305701
0.683055 1.535473 -0.305563
0.685442 1.533485 -0.304686
0.688651 1.533161 -0.304543
0.691031 1.531166 -0.303663
0.693405 1.529167 -0.302782
0.695775 1.527166 -0.301899
0.698558 1.525992 -0.301382
0.701760 1.525643 -0.301228
0.706231 1.527777 -0.302169
0.707743 1.524100 -0.300548
0.711372 1.524563 -0.300752
0.713722 1.522537 -0.299858
0.716926 1.522161 -0.299692
0.720130 1.521779 -0.299524
0.723335 1.521391 -0.299353
0.729143 1.525944 -0.301361
-0.090828 1.798690 -0.419095
-0.087448 1.796026 -0.417924
-0.084128 1.795187 -0.417555
-0.080766 1.792513 -0.416379
-0.077518 1.794409 -0.417213
-0.074226 1.794470 -0.417240
-0.070915 1.793609 -0.416862
-0.067530 1.788167 -0.414469
-0.064277 1.790043 -0.415294
-0.060968 1.788251 -0.414506
-0.057645 1.784624 -0.412912
-0.054371 1.784652 -0.412925
-0.051062 1.780099 -0.410923
-0.047797 1.780117 -0.410931
-0.044521 1.777384 -0.409730
-0.041264 1.779222 -0.410538
-0.038000 1.775563 -0.408929
-0.034747 1.773729 -0.408123
-0.031497 1.772806 -0.407718
-0.028251 1.771878 -0.407310
-0.025008 1.770944 -0.406899
-0.021795 1.767259 -0.405280
-0.018575 1.765400 -0.404462
-0.015337 1.765366 -0.404448
-0.012058 1.768074 -0.405638
-0.008816 1.768029 -0.405618
-0.005626 1.765234 -0.404390
-0.002389 1.765180 -0.404366
0.000827 1.764205 -0.403937
0.003972 1.760480 -0.402300
0.007126 1.757664 -0.401062
0.010349 1.757590 -0.401029
0.013515 1.755680 -0.400190
0.016675 1.753765 -0.399348
0.019890 1.753675 -0.399309
0.023072 1.752665 -0.398865
0.026285 1.752565 -0.398821
0.029461 1.751544 -0.398372
0.032634 1.750519 -0.397922
0.035842 1.750404 -0.397871
0.039051 1.750283 -0.397818
0.042216 1.749243 -0.397361
0.045377 1.748198 -0.396901
0.048535 1.747147 -0.396440
0.051639 1.745178 -0.395574
0.054737 1.743203 -0.394706
0.057932 1.743053 -0.394640
0.061126 1.742897 -0.394571
0.064935 1.752791 -0.398920
0.068263 1.754451 -0.399650
0.070709 1.742399 -0.394352
0.073597 1.737654 -0.392267
0.076655 1.735646 -0.391384
0.079836 1.735460 -0.391303
0.082884 1.733442 -0.390416
0.086264 1.735986 -0.391534
0.089445 1.735785 -0.391446
0.092483 1.733753 -0.390552
0.094634 1.720760 -0.384841
0.097786 1.720545 -0.384747
0.100861 1.719413 -0.384249
0.104874 1.729228 -0.388563
0.107962 1.728085 -0.388061
0.110473 1.720550 -0.384749
0.113875 1.723047 -0.385847
0.116263 1.714592 -0.382131
0.120188 1.722551 -0.385629
0.122988 1.718649 -0.383913
0.126136 1.718389 -0.383799
0.129283 1.718124 -0.383683
0.132336 1.716943 -0.383164
0.135672 1.718491 -0.383844
0.138723 1.717300 -0.383320
0.141669 1.715193 -0.382394
0.144508 1.712171 -0.381066
0.147540 1.710966 -0.380537
0.150883 1.712488 -0.381206
0.154019 1.712184 -0.381072
0.156831 1.709144 -0.379736
0.159741 1.707011 -0.378798
0.162978 1.707602 -0.379058
0.165992 1.706369 -0.378516
0.169002 1.705131 -0.377972
0.172007 1.703888 -0.377426
0.175246 1.704459 -0.377677
0.178487 1.705025 -0.377925
0.180755 1.698316 -0.374976
0.183741 1.697055 -0.374422
0.186973 1.697607 -0.374665
0.190335 1.699061 -0.375304
0.193317 1.697786 -0.374743
0.196425 1.697414 -0.374580
0.199136 1.694314 -0.373218
0.200361 1.681232 -0.367467
0.204117 1.685384 -0.369292
0.206789 1.682274 -0.367925
0.211120 1.690040 -0.371339
0.213509 1.685107 -0.369171
0.217591 1.691046 -0.371781
0.220831 1.691541 -0.371999
0.222612 1.682974 -0.368233
0.225396 1.680744 -0.367253
0.227724 1.675795 -0.365078
0.232606 1.686227 -0.369663
0.235386 1.683983 -0.368677
0.238467 1.683544 -0.368484
0.241548 1.683100 -0.368288
0.244312 1.680843 -0.367296
0.246908 1.677678 -0.365905
0.249655 1.675413 -0.364910
0.252720 1.674951 -0.364707
0.256115 1.676290 -0.365295
0.259682 1.678526 -0.366278
0.262080 1.674438 -0.364481
0.264462 1.670348 -0.362683
0.267174 1.668058 -0.361677
0.270399 1.668470 -0.361858
0.273802 1.669777 -0.362433
0.277034 1.670178 -0.362609
0.279910 1.668771 -0.361990
0.282421 1.665559 -0.360579
0.285468 1.665045 -0.360353
0.288514 1.664526 -0.360124
0.291373 1.663102 -0.359499
0.293852 1.659876 -0.358080
0.297077 1.660242 -0.358241
0.299923 1.658805 -0.357610
0.303149 1.659161 -0.357767
0.305406 1.655022 -0.355947
0.308629 1.655368 -0.356099
0.311853 1.655710 -0.356249
0.315081 1.656045 -0.356397
0.317908 1.654582 -0.355754
0.320528 1.652218 -0.354715
0.323344 1.650746 -0.354068
0.326569 1.651063 -0.354207
0.329796 1.651373 -0.354343
0.333234 1.652573 -0.354871
0.334988 1.646609 -0.352249
0.338212 1.646905 -0.352379
0.340793 1.644513 -0.351328
0.344016 1.644799 -0.351454
0.347023 1.644187 -0.351185
0.350029 1.643569 -0.350913
0.352147 1.639376 -0.349070
0.354920 1.637858 -0.348403
0.359488 1.643471 -0.350870
0.362720 1.643726 -0.350982
0.365953 1.643974 -0.351091
0.369878 1.646890 -0.352373
0.373352 1.648017 -0.352868
0.374498 1.640236 -0.349448
0.375380 1.631566 -0.345637
0.377651 1.628235 -0.344173
0.380626 1.627569 -0.343880
0.382879 1.624231 -0.342414
0.385847 1.623556 -0.342117
0.388570 1.621989 -0.341428
0.393250 1.627518 -0.343858
0.396965 1.629488 -0.344724
0.400192 1.629677 -0.344807
0.404421 1.633406 -0.346446
0.405642 1.626495 -0.343409
0.408106 1.624013 -0.342318
0.410563 1.621528 -0.341225
0.414039 1.622578 -0.341687
0.416745 1.620969 -0.340980
0.419706 1.620240 -0.340659
0.422929 1.620390 -0.340725
0.426680 1.622300 -0.341565
0.429113 1.619790 -0.340461
0.433408 1.623452 -0.342071
0.435568 1.620051 -0.340576
0.439339 1.621936 -0.341405
0.440669 1.615886 -0.338745
0.444168 1.616880 -0.339182
0.447673 1.617867 -0.339616
0.449242 1.612691 -0.337341
0.451071 1.608393 -0.335452
0.453167 1.604973 -0.333949
0.457509 1.608577 -0.335533
0.460731 1.608661 -0.335570
0.465954 1.614881 -0.338303
0.469766 1.616704 -0.339105
0.471274 1.611508 -0.336821
0.474217 1.610692 -0.336462
0.474820 1.602867 -0.333023
0.477453 1.601171 -0.332277
0.477715 1.592474 -0.328455
0.481217 1.593396 -0.328860
0.484125 1.592564 -0.328494
0.489438 1.598712 -0.331197
0.492962 1.599612 -0.331592
0.494970 1.596145 -0.330068
0.497272 1.593548 -0.328927
0.501103 1.595304 -0.329699
0.502162 1.589216 -0.327023
0.505373 1.589221 -0.327025
0.508586 1.589220 -0.327025
0.511801 1.589213 -0.327022
0.514070 1.586595 -0.325871
0.517283 1.586579 -0.325864
0.520498 1.586557 -0.325854
0.523393 1.585663 -0.325461
0.526287 1.584763 -0.325066
0.528532 1.582127 -0.323907
0.530768 1.579488 -0.322747
0.532995 1.576847 -0.321586
0.535872 1.575933 -0.321184
0.538748 1.575013 -0.320780
0.541621 1.574089 -0.320374
0.544827 1.574024 -0.320346
0.547698 1.573090 -0.319935
0.551580 1.574738 -0.320659
0.554791 1.574655 -0.320623
0.557324 1.572845 -0.319827
0.559851 1.571031 -0.319030
0.562030 1.568354 -0.317853
0.565581 1.569111 -0.318186
0.566709 1.563852 -0.315874
0.571652 1.568031 -0.317712
0.573462 1.564483 -0.316152
0.577723 1.566931 -0.317228
0.578460 1.560807 -0.314536
0.579176 1.554685 -0.311845
0.584865 1.560538 -0.314418
0.588427 1.561250 -0.314731
0.593434 1.565371 -0.316542
0.596651 1.565214 -0.316473
0.600232 1.565903 -0.316776
0.600169 1.558062 -0.313330
0.602644 1.556189 -0.312506
0.606954 1.558567 -0.313552
0.610906 1.560086 -0.314219
0.611151 1.553097 -0.311147
0.614729 1.553757 -0.311437
0.617187 1.551863 -0.310605
0.622274 1.555903 -0.312381
0.626244 1.557388 -0.313034
0.627187 1.552090 -0.310705
0.627730 1.545946 -0.308004
0.630548 1.544880 -0.307536
0.635285 1.548036 -0.308923
0.638107 1.546958 -0.308449
0.642090 1.548407 -0.309086
0.643745 1.544788 -0.307495
0.648124 1.547068 -0.308497
0.650159 1.544285 -0.307274
0.653368 1.544024 -0.307160
0.655391 1.541236 -0.305934
0.658597 1.540966 -0.305815
0.661406 1.539851 -0.305325
0.665013 1.540409 -0.305570
0.667418 1.538445 -0.304707
0.670626 1.538153 -0.304579
0.673023 1.536182 -0.303712
0.676636 1.536716 -0.303947
0.679845 1.536408 -0.303812
0.683055 1.536093 -0.303674
0.685854 1.534939 -0.303166
0.689477 1.535448 -0.303390
0.691445 1.532617 -0.302146
0.694238 1.531449 -0.301632
0.697028 1.530277 -0.301117
0.701494 1.532425 -0.302061
0.703444 1.529580 -0.300811
0.706653 1.529223 -0.300654
0.707743 1.524715 -0.298672
0.712223 1.526834 -0.299604
0.712868 1.521495 -0.297257
0.716068 1.521120 -0.297092
0.718408 1.519087 -0.296199
-0.087501 1.798714 -0.416233
-0.084177 1.797874 -0.415865
-0.080811 1.795198 -0.414693
-0.077456 1.792516 -0.413519
-0.074149 1.791661 -0.413144
-0.070828 1.789884 -0.412367
-0.067498 1.787187 -0.411185
-0.064179 1.784483 -0.410001
-0.060882 1.782691 -0.409216
-0.057614 1.782725 -0.409231
-0.054380 1.786417 -0.410848
-0.051097 1.785525 -0.410458
-0.047807 1.782795 -0.409262
-0.044528 1.780060 -0.408065
-0.041260 1.778236 -0.407266
-0.038000 1.775490 -0.406064
-0.034748 1.773656 -0.405260
-0.031497 1.773648 -0.405257
-0.028256 1.771803 -0.404449
-0.024994 1.773617 -0.405243
-0.021769 1.770845 -0.404030
-0.018523 1.770817 -0.404017
-0.015313 1.768035 -0.402799
-0.012100 1.766164 -0.401980
-0.008832 1.767952 -0.402763
-0.005608 1.766987 -0.402340
-0.002427 1.764185 -0.401113
0.000764 1.762294 -0.400285
0.003972 1.761314 -0.399856
0.007126 1.758497 -0.398622
0.010296 1.756591 -0.397788
0.013515 1.756511 -0.397753
0.016734 1.756426 -0.397716
0.019921 1.755420 -0.397275
0.023105 1.754410 -0.396833
0.026285 1.753394 -0.396388
0.029498 1.753289 -0.396342
0.032672 1.752263 -0.395893
0.035883 1.752147 -0.395842
0.039051 1.751111 -0.395388
0.042260 1.750986 -0.395333
0.045423 1.749939 -0.394875
0.048629 1.749804 -0.394816
0.051688 1.746918 -0.393552
0.054939 1.747687 -0.393889
0.058246 1.749365 -0.394624
0.061451 1.749209 -0.394555
0.064935 1.753620 -0.396487
0.067400 1.741564 -0.391208
0.070649 1.742308 -0.391533
0.073841 1.742131 -0.391456
0.077158 1.743778 -0.392178
0.079965 1.738107 -0.389694
0.082884 1.734260 -0.388010
0.085992 1.733150 -0.387524
0.089166 1.732949 -0.387436
0.091982 1.728175 -0.385345
0.094854 1.724311 -0.383653
0.097786 1.721355 -0.382359
0.101092 1.722962 -0.383062
0.104168 1.721824 -0.382564
0.108203 1.731638 -0.386862
0.111128 1.728663 -0.385559
0.113624 1.721120 -0.382256
0.116605 1.719049 -0.381349
0.120100 1.722450 -0.382838
0.122988 1.719457 -0.381528
0.126045 1.718285 -0.381014
0.129283 1.718933 -0.381298
0.132524 1.719574 -0.381579
0.135672 1.719299 -0.381459
0.138723 1.718107 -0.380937
0.141769 1.716911 -0.380413
0.144912 1.716621 -0.380286
0.147849 1.714504 -0.379359
0.150883 1.713293 -0.378829
0.154019 1.712988 -0.378695
0.157155 1.712679 -0.378560
0.160180 1.711454 -0.378023
0.163201 1.710224 -0.377485
0.166332 1.709900 -0.377343
0.168887 1.705021 -0.375206
0.171891 1.703778 -0.374662
0.175009 1.703440 -0.374514
0.178246 1.704006 -0.374762
0.181121 1.701840 -0.373813
0.184112 1.700578 -0.373261
0.187098 1.699312 -0.372706
0.190335 1.699858 -0.372946
0.193188 1.697673 -0.371989
0.196817 1.700934 -0.373417
0.200194 1.702372 -0.374046
0.203577 1.703804 -0.374674
0.206288 1.700693 -0.373311
0.207338 1.686690 -0.367180
0.210006 1.683574 -0.365815
0.212945 1.682268 -0.365243
0.216307 1.683678 -0.365861
0.219243 1.682362 -0.365284
0.221589 1.677417 -0.363119
0.225101 1.679718 -0.364127
0.228173 1.679295 -0.363941
0.230942 1.677056 -0.362961
0.233550 1.673908 -0.361582
0.237230 1.677091 -0.362976
0.241392 1.682982 -0.365556
0.244312 1.681628 -0.364963
0.246908 1.678462 -0.363577
0.249816 1.677100 -0.362980
0.253700 1.681156 -0.364756
0.255950 1.676170 -0.362573
0.258348 1.672084 -0.360784
0.260900 1.668900 -0.359389
0.263611 1.666614 -0.358388
0.267518 1.670641 -0.360152
0.270399 1.669248 -0.359542
0.273802 1.670556 -0.360115
0.276325 1.667351 -0.358711
0.279374 1.666846 -0.358490
0.282421 1.666336 -0.358267
0.285468 1.665821 -0.358041
0.288330 1.664401 -0.357420
0.291558 1.664777 -0.357584
0.294414 1.663348 -0.356959
0.297266 1.661915 -0.356331
0.299732 1.658678 -0.354914
0.302764 1.658136 -0.354676
0.305795 1.657589 -0.354437
0.309021 1.657935 -0.354588
0.311853 1.656480 -0.353951
0.314881 1.655918 -0.353705
0.317506 1.653557 -0.352671
0.320933 1.654780 -0.353207
0.323344 1.651514 -0.351776
0.326569 1.651830 -0.351915
0.329380 1.650349 -0.351266
0.332606 1.650655 -0.351400
0.334777 1.646479 -0.349572
0.337146 1.643195 -0.348134
0.340578 1.644382 -0.348654
0.344016 1.645563 -0.349171
0.347023 1.644950 -0.348902
0.349809 1.643438 -0.348240
0.353255 1.644603 -0.348750
0.357376 1.648439 -0.350430
0.359264 1.643342 -0.348198
0.362720 1.644489 -0.348700
0.365496 1.642954 -0.348028
0.369648 1.646764 -0.349696
0.371730 1.642545 -0.347849
0.374265 1.640106 -0.346781
0.377026 1.638554 -0.346102
0.377414 1.628099 -0.341523
0.380388 1.627432 -0.341232
0.382879 1.624983 -0.340159
0.385121 1.621641 -0.338696
0.388326 1.621850 -0.338787
0.392760 1.626495 -0.340821
0.396965 1.630242 -0.342462
0.400192 1.630431 -0.342545
0.403420 1.630615 -0.342625
0.404634 1.623702 -0.339598
0.408868 1.627422 -0.341227
0.410563 1.622277 -0.338974
0.414811 1.625984 -0.340597
0.415969 1.619064 -0.337567
0.419446 1.620104 -0.338023
0.422929 1.621139 -0.338476
0.426680 1.623050 -0.339313
0.429113 1.620538 -0.338213
0.432874 1.622437 -0.339044
0.435030 1.619035 -0.337555
0.438527 1.620041 -0.337995
0.437129 1.605173 -0.331485
0.439785 1.603531 -0.330766
0.443263 1.604525 -0.331201
0.450628 1.617835 -0.337029
0.451908 1.611774 -0.334375
0.451483 1.600438 -0.329411
0.453556 1.597017 -0.327913
0.459027 1.604133 -0.331029
0.464526 1.611237 -0.334140
0.468329 1.613063 -0.334940
0.469251 1.606113 -0.331896
0.473345 1.608805 -0.333075
0.475405 1.605358 -0.331565
0.479805 1.608912 -0.333122
0.481263 1.603706 -0.330843
0.483595 1.601125 -0.329712
0.485321 1.596792 -0.327815
0.487333 1.593332 -0.326300
0.490240 1.592490 -0.325931
0.494362 1.595134 -0.327089
0.499107 1.599513 -0.329006
0.502333 1.599524 -0.329011
0.504325 1.596044 -0.327487
0.504752 1.588209 -0.324057
0.508898 1.590820 -0.325200
0.510859 1.587334 -0.323673
0.515017 1.589931 -0.324811
0.517600 1.588176 -0.324042
0.521136 1.589022 -0.324412
0.523393 1.586390 -0.323260
0.526287 1.585490 -0.322866
0.528855 1.583719 -0.322090
0.531419 1.581944 -0.321313
0.533977 1.580166 -0.320535
0.536859 1.579250 -0.320133
0.539078 1.576599 -0.318973
0.541953 1.575674 -0.318568
0.545161 1.575608 -0.318539
0.548705 1.576399 -0.318885
0.551242 1.574597 -0.318096
0.554453 1.574514 -0.318060
0.557324 1.573565 -0.317644
0.559509 1.570889 -0.316472
0.563404 1.572512 -0.317183
0.566617 1.572408 -0.317138
0.569831 1.572298 -0.317089
0.571304 1.567890 -0.315159
0.574863 1.568630 -0.315483
0.580538 1.574507 -0.318057
0.577400 1.558949 -0.311244
0.579886 1.557106 -0.310437
0.582724 1.556116 -0.310003
0.587352 1.559397 -0.311440
0.593074 1.565232 -0.313995
0.595928 1.564221 -0.313552
0.598416 1.562352 -0.312734
0.599075 1.556215 -0.310047
0.601178 1.553489 -0.308853
0.604745 1.554169 -0.309151
0.610536 1.559947 -0.311681
0.611522 1.554656 -0.309364
0.615102 1.555315 -0.309653
0.617187 1.552570 -0.308451
0.623026 1.558310 -0.310964
0.625866 1.557251 -0.310500
0.627187 1.552797 -0.308550
0.626206 1.543262 -0.304375
0.630548 1.545583 -0.305391
0.634901 1.547895 -0.306404
0.637721 1.546817 -0.305932
0.640927 1.546579 -0.305827
0.643356 1.544647 -0.304982
0.646561 1.544399 -0.304873
0.649375 1.543302 -0.304392
0.652974 1.543885 -0.304648
0.655787 1.542778 -0.304163
0.658994 1.542507 -0.304044
0.661406 1.540550 -0.303188
0.665013 1.541109 -0.303432
0.668222 1.540821 -0.303306
0.672240 1.542204 -0.303912
0.675049 1.541067 -0.303414
0.677043 1.538251 -0.302181
0.679437 1.536269 -0.301313
0.682235 1.535120 -0.300810
0.686265 1.536471 -0.301401
0.688651 1.534476 -0.300528
0.691860 1.534146 -0.300383
0.693405 1.530478 -0.298777
0.695775 1.528474 -0.297900
0.698977 1.528131 -0.297749
0.703444 1.530274 -0.298688
0.706231 1.529086 -0.298168
0.709864 1.529553 -0.298372
0.711372 1.525869 -0.296759
0.715005 1.526325 -0.296958
0.717355 1.524291 -0.296068
0.721422 1.525562 -0.296624
0.722039 1.520215 -0.294283
0.728709 1.526426 -0.297003
-0.087527 1.799629 -0.416634
-0.084177 1.797874 -0.415865
-0.080788 1.794282 -0.414292
-0.077435 1.791601 -0.413118
-0.074110 1.789829 -0.412342
-0.070811 1.788969 -0.411965
-0.067577 1.791766 -0.413190
-0.064291 1.791811 -0.413210
-0.060980 1.790018 -0.412425
-0.057677 1.788220 -0.411638
-0.054345 1.782753 -0.409244
-0.051083 1.783693 -0.409655
-0.047786 1.779131 -0.407658
-0.044524 1.779144 -0.407663
-0.041257 1.776404 -0.406464
-0.038000 1.776406 -0.406465
-0.034743 1.776404 -0.406464
-0.031490 1.775480 -0.406059
-0.028230 1.776383 -0.406455
-0.024980 1.775449 -0.406045
-0.021742 1.773593 -0.405233
-0.018523 1.770817 -0.404017
-0.015301 1.768951 -0.403200
-0.012058 1.768912 -0.403183
-0.008847 1.767036 -0.402362
-0.005608 1.766987 -0.402340
-0.002427 1.764185 -0.401113
0.000743 1.761378 -0.399884
0.003926 1.759482 -0.399054
0.007126 1.758497 -0.398622
0.010349 1.758422 -0.398590
0.013571 1.758342 -0.398555
0.016823 1.759173 -0.398919
0.020016 1.758167 -0.398478
0.023204 1.757156 -0.398035
0.026390 1.756140 -0.397591
0.029571 1.755119 -0.397144
0.032672 1.752263 -0.395893
0.035762 1.749401 -0.394640
0.038967 1.749281 -0.394587
0.042172 1.749155 -0.394532
0.045377 1.749025 -0.394475
0.048535 1.747974 -0.394015
0.051688 1.746918 -0.393552
0.054838 1.745857 -0.393088
0.058664 1.756683 -0.397828
0.061181 1.744635 -0.392553
0.064377 1.744474 -0.392482
0.067400 1.741564 -0.391208
0.070531 1.740479 -0.390733
0.073902 1.743046 -0.391857
0.077283 1.745607 -0.392978
0.079191 1.727138 -0.384891
0.082353 1.726948 -0.384808
0.085312 1.724011 -0.383522
0.088817 1.728380 -0.385435
0.091982 1.728175 -0.385345
0.094708 1.722483 -0.382853
0.098011 1.724095 -0.383559
0.100478 1.715655 -0.379863
0.104560 1.726390 -0.384564
0.107561 1.724334 -0.383663
0.110964 1.726837 -0.384759
0.113875 1.723858 -0.383455
0.117288 1.726351 -0.384546
0.120100 1.722450 -0.382838
0.123254 1.722194 -0.382726
0.126317 1.721022 -0.382213
0.129837 1.724405 -0.383694
0.132901 1.723222 -0.383176
0.135768 1.720211 -0.381858
0.138723 1.718107 -0.380937
0.141769 1.716911 -0.380413
0.144811 1.715710 -0.379887
0.147746 1.713593 -0.378960
0.150987 1.714204 -0.379227
0.153913 1.712078 -0.378296
0.157047 1.711768 -0.378161
0.160070 1.710543 -0.377625
0.163090 1.709314 -0.377086
0.165879 1.706260 -0.375749
0.169002 1.705931 -0.375605
0.172124 1.705598 -0.375459
0.175364 1.706169 -0.375709
0.178366 1.704916 -0.375160
0.181243 1.702749 -0.374211
0.184235 1.701487 -0.373659
0.187224 1.700220 -0.373104
0.190335 1.699858 -0.372946
0.193446 1.699490 -0.372785
0.196294 1.697301 -0.371826
0.198474 1.690568 -0.368878
0.202773 1.698358 -0.372289
0.205609 1.696155 -0.371324
0.208301 1.693041 -0.369961
0.210981 1.689924 -0.368596
0.213650 1.686803 -0.367229
0.218447 1.697278 -0.371816
0.221264 1.695052 -0.370841
0.224511 1.695542 -0.371056
0.227022 1.691496 -0.369284
0.229668 1.688352 -0.367907
0.230639 1.675245 -0.362168
0.233856 1.675718 -0.362375
0.236920 1.675281 -0.362184
0.240923 1.680268 -0.364367
0.242889 1.673488 -0.361399
0.246429 1.675749 -0.362389
0.249816 1.677100 -0.362980
0.252720 1.675733 -0.362382
0.255125 1.671652 -0.360595
0.258348 1.672084 -0.360784
0.260732 1.667997 -0.358994
0.263952 1.668419 -0.359179
0.267346 1.669739 -0.359757
0.270920 1.671954 -0.360727
0.274328 1.673262 -0.361300
0.277034 1.670957 -0.360290
0.279553 1.667747 -0.358885
0.282602 1.667237 -0.358661
0.285468 1.665821 -0.358041
0.288698 1.666202 -0.358208
0.291373 1.663877 -0.357190
0.294040 1.661548 -0.356170
0.296888 1.660116 -0.355543
0.299923 1.659578 -0.355308
0.303149 1.659934 -0.355464
0.306183 1.659386 -0.355224
0.309217 1.658833 -0.354982
0.312051 1.657378 -0.354344
0.314881 1.655918 -0.353705
0.317707 1.654454 -0.353064
0.320933 1.654780 -0.353207
0.323754 1.653307 -0.352562
0.326157 1.650037 -0.351130
0.328964 1.648557 -0.350482
0.332186 1.648863 -0.350616
0.335411 1.649164 -0.350748
0.338638 1.649460 -0.350877
0.341437 1.647961 -0.350221
0.344882 1.649140 -0.350737
0.347459 1.646738 -0.349685
0.350908 1.647907 -0.350197
0.353919 1.647282 -0.349924
0.357153 1.647546 -0.350039
0.357914 1.637987 -0.345853
0.360906 1.637351 -0.345575
0.363441 1.634927 -0.344514
0.366657 1.635175 -0.344622
0.370340 1.637199 -0.345508
0.373331 1.636543 -0.345221
0.376320 1.635883 -0.344932
0.379072 1.634329 -0.344251
0.382534 1.635439 -0.344737
0.384801 1.632096 -0.343274
0.387783 1.631418 -0.342977
0.391006 1.631623 -0.343067
0.393986 1.630935 -0.342765
0.396965 1.630242 -0.342462
0.399943 1.629544 -0.342156
0.402919 1.628842 -0.341849
0.405642 1.627248 -0.341151
0.408360 1.625650 -0.340451
0.411074 1.624048 -0.339750
0.413525 1.621558 -0.338659
0.417780 1.625257 -0.340279
0.419706 1.620989 -0.338410
0.423453 1.622907 -0.339250
0.425889 1.620399 -0.338152
0.432831 1.632902 -0.343627
0.435012 1.629499 -0.342137
0.436375 1.623447 -0.339486
0.439339 1.622686 -0.339153
0.440941 1.617513 -0.336888
0.444716 1.619388 -0.337709
0.445192 1.610689 -0.333900
0.449242 1.613435 -0.335102
0.448281 1.600338 -0.329368
0.451483 1.600438 -0.329411
0.454686 1.600532 -0.329452
0.460731 1.609403 -0.333337
0.464812 1.612115 -0.334524
0.466605 1.607799 -0.332635
0.469251 1.606113 -0.331896
0.473054 1.607929 -0.332691
0.476574 1.608861 -0.333100
0.479805 1.608912 -0.333122
0.482742 1.608082 -0.332758
0.483893 1.601999 -0.330095
0.485321 1.596792 -0.327815
0.486431 1.590711 -0.325152
0.489938 1.591617 -0.325549
0.493754 1.593388 -0.326324
0.497884 1.596025 -0.327479
0.500181 1.593422 -0.326339
0.502780 1.591688 -0.325580
0.505373 1.589951 -0.324819
0.508586 1.589950 -0.324819
0.511487 1.589074 -0.324435
0.514070 1.587324 -0.323669
0.517283 1.587307 -0.323662
0.520498 1.587286 -0.323652
0.523073 1.585523 -0.322880
0.525643 1.583756 -0.322107
0.528855 1.583719 -0.322090
0.532070 1.583677 -0.322072
0.533650 1.579301 -0.320156
0.536530 1.578384 -0.319754
0.539739 1.578328 -0.319730
0.542618 1.577402 -0.319324
0.545494 1.576472 -0.318917
0.548705 1.576399 -0.318885
0.551580 1.575459 -0.318473
0.554453 1.574514 -0.318060
0.557664 1.574426 -0.318021
0.560877 1.574332 -0.317980
0.564435 1.575093 -0.318313
0.568689 1.577566 -0.319396
0.570872 1.574876 -0.318218
0.574093 1.574759 -0.318167
0.576614 1.572920 -0.317361
0.579834 1.572792 -0.317306
0.580934 1.567518 -0.314996
0.583082 1.564813 -0.313812
0.585221 1.562106 -0.312627
0.589861 1.565384 -0.314062
0.592354 1.563523 -0.313247
0.595205 1.562513 -0.312805
0.598779 1.563205 -0.313108
0.603088 1.565596 -0.314155
0.605576 1.563717 -0.313332
0.608059 1.561834 -0.312507
0.607948 1.553990 -0.309072
0.610780 1.552955 -0.308619
0.613237 1.551065 -0.307792
0.616063 1.550022 -0.307335
0.621897 1.555764 -0.309849
0.625866 1.557251 -0.310500
0.627946 1.554492 -0.309292
0.630778 1.553425 -0.308825
0.632844 1.550661 -0.307615
0.637975 1.554660 -0.309366
0.638107 1.547662 -0.306302
0.641315 1.547423 -0.306197
0.643356 1.544647 -0.304982
0.646170 1.543556 -0.304504
0.648982 1.542460 -0.304024
0.652580 1.543043 -0.304279
0.655391 1.541937 -0.303795
0.658994 1.542507 -0.304044
0.663001 1.543911 -0.304659
0.665814 1.542788 -0.304167
0.668222 1.540821 -0.303306
0.671433 1.540528 -0.303178
0.674644 1.540229 -0.303047
0.677450 1.539088 -0.302547
0.680253 1.537942 -0.302045
0.683465 1.537627 -0.301907
0.687088 1.538141 -0.302132
0.690303 1.537813 -0.301989
0.693104 1.536647 -0.301478
0.694654 1.532977 -0.299871
0.697446 1.531803 -0.299357
0.699816 1.529794 -0.298477
0.703865 1.531104 -0.299051
0.706231 1.529086 -0.298168
0.709015 1.527894 -0.297646
0.711372 1.525869 -0.296759
0.715005 1.526325 -0.296958
0.718642 1.526774 -0.297155
0.719269 1.521428 -0.294814
-0.087553 1.802625 -0.410930
-0.084201 1.800868 -0.410168
-0.080811 1.797271 -0.408607
-0.077435 1.793668 -0.407044
-0.074110 1.791894 -0.406274
-0.070845 1.792866 -0.406696
-0.067545 1.791999 -0.406320
-0.064291 1.793878 -0.407135
-0.060992 1.793000 -0.406754
-0.057718 1.793952 -0.407167
-0.054354 1.785725 -0.403598
-0.051083 1.785748 -0.403608
-0.047802 1.783932 -0.402820
-0.044531 1.783028 -0.402428
-0.041259 1.779366 -0.400839
-0.038000 1.779369 -0.400840
-0.034745 1.777531 -0.400043
-0.031490 1.777523 -0.400040
-0.028245 1.775676 -0.399238
-0.025001 1.774740 -0.398832
-0.021769 1.772882 -0.398026
-0.018523 1.772853 -0.398013
-0.015289 1.771902 -0.397601
-0.012016 1.773698 -0.398380
-0.008863 1.768150 -0.395973
-0.005573 1.770852 -0.397145
-0.002370 1.768964 -0.396326
0.000869 1.768904 -0.396300
0.004017 1.765170 -0.394680
0.007126 1.760515 -0.392661
0.010427 1.763191 -0.393822
0.013599 1.761277 -0.392991
0.016883 1.763026 -0.393750
0.020047 1.761102 -0.392915
0.023271 1.761006 -0.392874
0.026424 1.759072 -0.392034
0.029571 1.757133 -0.391193
0.032672 1.754272 -0.389952
0.035682 1.749573 -0.387913
0.039009 1.752202 -0.389054
0.042129 1.750243 -0.388204
0.045377 1.751029 -0.388545
0.048487 1.749060 -0.387691
0.051493 1.745254 -0.386039
0.054585 1.743276 -0.385181
0.057513 1.738544 -0.383128
0.061018 1.743885 -0.385446
0.063818 1.737312 -0.382594
0.066939 1.736230 -0.382125
0.069938 1.733313 -0.380859
0.073230 1.734969 -0.381577
0.076153 1.731126 -0.379910
0.079836 1.738264 -0.383007
0.082817 1.735327 -0.381733
0.086740 1.745199 -0.386016
0.090143 1.747742 -0.387119
0.091696 1.726488 -0.377898
0.095440 1.733598 -0.380982
0.098236 1.728807 -0.378904
0.101629 1.731331 -0.379999
0.104246 1.724703 -0.377123
0.107641 1.727216 -0.378214
0.110473 1.723323 -0.376525
0.113708 1.723997 -0.376817
0.117800 1.733806 -0.381073
0.120100 1.724415 -0.376998
0.123165 1.723245 -0.376491
0.126136 1.721158 -0.375585
0.129560 1.723633 -0.376659
0.132712 1.723362 -0.376542
0.135672 1.721260 -0.375630
0.138723 1.720066 -0.375112
0.141769 1.718868 -0.374592
0.144710 1.716752 -0.373674
0.148054 1.718282 -0.374338
0.151092 1.717069 -0.373812
0.154125 1.715852 -0.373283
0.157047 1.713718 -0.372357
0.160180 1.713403 -0.372221
0.163201 1.712171 -0.371687
0.166105 1.710024 -0.370755
0.169232 1.709694 -0.370612
0.172357 1.709360 -0.370467
0.175482 1.709021 -0.370320
0.178607 1.708676 -0.370170
0.181609 1.707417 -0.369624
0.184730 1.707062 -0.369470
0.187725 1.705793 -0.368919
0.190716 1.704519 -0.368367
0.193703 1.703241 -0.367812
0.196947 1.703777 -0.368045
0.199400 1.698852 -0.365908
0.203041 1.702106 -0.367320
0.206152 1.701717 -0.367151
0.210087 1.706776 -0.369346
0.212372 1.700925 -0.366807
0.215904 1.703247 -0.367815
0.218304 1.698298 -0.365667
0.222563 1.705147 -0.368639
0.224219 1.695652 -0.364520
0.227318 1.695229 -0.364336
0.229967 1.692081 -0.362970
0.232757 1.689836 -0.361996
0.234927 1.683960 -0.359447
0.238313 1.685333 -0.360043
0.240923 1.682170 -0.358671
0.243996 1.681721 -0.358476
0.247388 1.683078 -0.359065
0.250463 1.682619 -0.358865
0.253210 1.680345 -0.357879
0.255785 1.677161 -0.356498
0.259349 1.679402 -0.357470
0.261406 1.673498 -0.354908
0.262930 1.664880 -0.351169
0.266314 1.666203 -0.351743
0.269531 1.666617 -0.351923
0.273101 1.668832 -0.352884
0.276680 1.671040 -0.353842
0.279732 1.670534 -0.353622
0.282963 1.670925 -0.353792
0.285650 1.668604 -0.352785
0.288698 1.668084 -0.352559
0.291744 1.667558 -0.352331
0.294977 1.667929 -0.352492
0.297834 1.666493 -0.351869
0.300304 1.663251 -0.350462
0.302956 1.660906 -0.349445
0.305989 1.660358 -0.349207
0.309021 1.659805 -0.348967
0.312051 1.659247 -0.348725
0.314881 1.657785 -0.348091
0.317506 1.655420 -0.347065
0.320731 1.655747 -0.347207
0.323549 1.654272 -0.346567
0.326775 1.654588 -0.346704
0.329588 1.653105 -0.346061
0.332606 1.652514 -0.345804
0.335411 1.651021 -0.345157
0.338638 1.651317 -0.345285
0.341652 1.650712 -0.345022
0.344449 1.649206 -0.344369
0.346587 1.645010 -0.342549
0.350248 1.647076 -0.343445
0.355470 1.655398 -0.347056
0.358046 1.652977 -0.346005
0.360163 1.648765 -0.344178
0.360906 1.639190 -0.340024
0.363898 1.638549 -0.339746
0.366888 1.637903 -0.339465
0.370803 1.640822 -0.340732
0.373331 1.638381 -0.339673
0.376320 1.637720 -0.339386
0.379309 1.637054 -0.339097
0.382534 1.637275 -0.339193
0.386243 1.639271 -0.340059
0.388508 1.635919 -0.338604
0.391493 1.635233 -0.338307
0.394477 1.634543 -0.338008
0.397706 1.634737 -0.338092
0.400440 1.633149 -0.337403
0.403420 1.632445 -0.337097
0.405642 1.629072 -0.335634
0.408868 1.629247 -0.335710
0.411584 1.627642 -0.335013
0.414297 1.626033 -0.334316
0.417780 1.627079 -0.334769
0.420488 1.625461 -0.334067
0.422404 1.621183 -0.332211
0.425889 1.622213 -0.332658
0.427785 1.617931 -0.330800
0.431271 1.618950 -0.331243
0.434223 1.618197 -0.330916
0.436092 1.613906 -0.329054
0.437674 1.608731 -0.326809
0.441429 1.610614 -0.327626
0.445744 1.614253 -0.329205
0.451183 1.621408 -0.332309
0.450513 1.609171 -0.327000
0.453447 1.608386 -0.326659
0.455533 1.604957 -0.325171
0.459595 1.607682 -0.326354
0.462526 1.606883 -0.326007
0.468329 1.614866 -0.329471
0.470985 1.613175 -0.328737
0.472764 1.608847 -0.326859
0.473943 1.602763 -0.324220
0.474218 1.594049 -0.320439
0.478602 1.597609 -0.321984
0.482109 1.598531 -0.322384
0.484723 1.596821 -0.321642
0.488235 1.597731 -0.322037
0.492357 1.600384 -0.323188
0.495578 1.600406 -0.323197
0.498190 1.598676 -0.322447
0.501103 1.597815 -0.322073
0.502780 1.593460 -0.320184
0.506616 1.595208 -0.320942
0.507961 1.589976 -0.318672
0.512115 1.592583 -0.319803
0.513754 1.588218 -0.317910
0.517918 1.590812 -0.319035
0.520498 1.589051 -0.318271
0.523393 1.588154 -0.317882
0.525643 1.585516 -0.316737
0.529503 1.587215 -0.317474
0.532070 1.585437 -0.316703
0.534631 1.583655 -0.315930
0.537188 1.581869 -0.315155
0.540400 1.581812 -0.315130
0.543282 1.580883 -0.314727
0.547163 1.582545 -0.315448
0.549711 1.580741 -0.314666
0.552591 1.579798 -0.314256
0.554453 1.576260 -0.312722
0.557324 1.575310 -0.312309
