# This PCD file was generated using the MATLAB® pcwrite function
# from Computer Vision System Toolbox®.
# .PCD v.7 - Point Cloud Data file format
VERSION .7
FIELDS x y z
SIZE 4 4 4
TYPE F F F
COUNT 1 1 1
WIDTH 1648
HEIGHT 1
VIEWPOINT 0 0 0 1 0 0 0
POINTS 1648
DATA ascii
-0.627715 1.420603 -0.015144
-0.625992 1.423382 -0.015883
-0.626157 1.430631 -0.017810
-0.624031 1.432516 -0.018311
-0.622653 1.436189 -0.019287
-0.619389 1.435381 -0.019072
-0.618369 1.439946 -0.020286
-0.615477 1.440026 -0.020307
-0.612956 1.440997 -0.020565
-0.610066 1.441067 -0.020584
-0.608276 1.443828 -0.021318
-0.605383 1.443888 -0.021333
-0.603945 1.447544 -0.022305
-0.600688 1.446694 -0.022080
-0.598515 1.448543 -0.022571
-0.596696 1.451291 -0.023301
-0.594155 1.452231 -0.023551
-0.591967 1.454070 -0.024040
-0.589067 1.454099 -0.024048
-0.585817 1.453217 -0.023813
-0.584324 1.456854 -0.024780
-0.582121 1.458680 -0.025265
-0.580607 1.462314 -0.026231
-0.578392 1.464135 -0.026715
-0.575140 1.463229 -0.026474
-0.572577 1.464133 -0.026715
-0.571034 1.467758 -0.027678
-0.568802 1.469565 -0.028158
-0.567240 1.473187 -0.029121
-0.564994 1.474988 -0.029600
-0.563078 1.477697 -0.030320
-0.560822 1.479492 -0.030797
-0.558230 1.480372 -0.031031
-0.555636 1.481247 -0.031264
-0.553695 1.483945 -0.031981
-0.551095 1.484812 -0.032211
-0.550437 1.491162 -0.033899
-0.547180 1.490194 -0.033642
-0.544569 1.491051 -0.033869
-0.540999 1.489155 -0.033366
-0.538072 1.489085 -0.033347
-0.536094 1.491760 -0.034058
-0.534108 1.494433 -0.034768
-0.531489 1.495268 -0.034990
-0.528869 1.496098 -0.035211
-0.525629 1.495085 -0.034942
-0.523623 1.497745 -0.035649
-0.521610 1.500402 -0.036355
-0.519588 1.503057 -0.037061
-0.516349 1.502025 -0.036786
-0.513416 1.501908 -0.036755
-0.511083 1.503630 -0.037213
-0.508744 1.505348 -0.037670
-0.507289 1.509833 -0.038862
-0.504348 1.509699 -0.038826
-0.502286 1.512331 -0.039526
-0.499926 1.514037 -0.039979
-0.497272 1.514814 -0.040186
-0.494903 1.516512 -0.040637
-0.492816 1.519133 -0.041334
-0.490152 1.519898 -0.041537
-0.488052 1.522512 -0.042232
-0.486786 1.527907 -0.043666
-0.483828 1.527734 -0.043620
-0.481149 1.528484 -0.043819
-0.479020 1.531087 -0.044511
-0.476335 1.531829 -0.044708
-0.474193 1.534426 -0.045398
-0.471231 1.534229 -0.045346
-0.469347 1.537750 -0.046282
-0.466918 1.539406 -0.046722
-0.464218 1.540128 -0.046914
-0.461252 1.539912 -0.046857
-0.459076 1.542489 -0.047542
-0.457152 1.545996 -0.048474
-0.454699 1.547634 -0.048909
-0.452498 1.550203 -0.049592
-0.450289 1.552768 -0.050274
-0.447312 1.552527 -0.050210
-0.444840 1.554150 -0.050641
-0.442113 1.554834 -0.050823
-0.440132 1.558322 -0.051750
-0.437397 1.558998 -0.051930
-0.434907 1.560606 -0.052357
-0.432656 1.563148 -0.053033
-0.430639 1.566624 -0.053957
-0.428130 1.568222 -0.054382
-0.425617 1.569817 -0.054805
-0.422388 1.568590 -0.054479
-0.419871 1.570176 -0.054901
-0.417816 1.573637 -0.055821
-0.415054 1.574275 -0.055990
-0.413211 1.578671 -0.057159
-0.409984 1.577420 -0.056826
-0.407668 1.579927 -0.057493
-0.404895 1.580549 -0.057658
-0.402791 1.583991 -0.058573
-0.400896 1.588374 -0.059738
-0.398108 1.588984 -0.059900
-0.395537 1.590532 -0.060311
-0.393827 1.595850 -0.061725
-0.391884 1.600224 -0.062888
-0.389287 1.601763 -0.063297
-0.386686 1.603297 -0.063704
-0.384499 1.606718 -0.064614
-0.381262 1.605409 -0.064266
-0.378649 1.606932 -0.064671
-0.376236 1.609396 -0.065326
-0.373816 1.611857 -0.065980
-0.371387 1.614314 -0.066633
-0.368951 1.616768 -0.067285
-0.366507 1.619219 -0.067936
-0.364054 1.621666 -0.068587
-0.361594 1.624110 -0.069236
-0.358742 1.624653 -0.069381
-0.355506 1.623294 -0.069020
-0.353600 1.628572 -0.070423
-0.350739 1.629102 -0.070564
-0.348249 1.631527 -0.071208
-0.345383 1.632048 -0.071346
-0.343427 1.637315 -0.072746
-0.340911 1.639729 -0.073388
-0.338030 1.640237 -0.073523
-0.335502 1.642643 -0.074163
-0.332791 1.644094 -0.074548
-0.330076 1.645541 -0.074933
-0.327529 1.647935 -0.075569
-0.324973 1.650326 -0.076205
-0.322747 1.654618 -0.077346
-0.320006 1.656049 -0.077726
-0.317096 1.656522 -0.077852
-0.313531 1.653176 -0.076962
-0.309979 1.649824 -0.076071
-0.307560 1.653142 -0.076953
-0.305129 1.656457 -0.077834
-0.302687 1.659769 -0.078715
-0.300234 1.663077 -0.079594
-0.297005 1.661607 -0.079203
-0.296505 1.677327 -0.083381
-0.294154 1.681583 -0.084513
-0.292676 1.691570 -0.087167
-0.289117 1.688173 -0.086264
-0.284272 1.676162 -0.083072
-0.282038 1.681358 -0.084453
-0.279646 1.685594 -0.085579
-0.277795 1.693655 -0.087722
-0.274680 1.693100 -0.087574
-0.270888 1.687752 -0.086153
-0.267786 1.687184 -0.086002
-0.265878 1.695233 -0.088141
-0.262766 1.694657 -0.087988
-0.260430 1.699825 -0.089362
-0.257441 1.700198 -0.089461
-0.254701 1.702483 -0.090068
-0.251954 1.704764 -0.090674
-0.249321 1.708000 -0.091535
-0.246437 1.709314 -0.091884
-0.243549 1.710622 -0.092232
-0.240890 1.713846 -0.093088
-0.238221 1.717066 -0.093944
-0.235313 1.718361 -0.094289
-0.232513 1.720613 -0.094887
-0.229816 1.723820 -0.095739
-0.227107 1.727023 -0.096591
-0.224068 1.727340 -0.096675
-0.221552 1.732457 -0.098035
-0.218298 1.730841 -0.097606
-0.215657 1.734989 -0.098708
-0.212604 1.735286 -0.098787
-0.209941 1.739425 -0.099887
-0.206880 1.739712 -0.099964
-0.204101 1.742881 -0.100806
-0.201219 1.745083 -0.101391
-0.198510 1.749206 -0.102487
-0.195787 1.753325 -0.103582
-0.191307 1.738184 -0.099557
-0.188505 1.741329 -0.100393
-0.185942 1.747358 -0.101996
-0.183441 1.754348 -0.103854
-0.180754 1.759407 -0.105198
-0.177971 1.763499 -0.106286
-0.175404 1.770478 -0.108141
-0.171987 1.766852 -0.107177
-0.168877 1.767075 -0.107237
-0.165408 1.762474 -0.106014
-0.162725 1.768470 -0.107607
-0.159815 1.771571 -0.108432
-0.157094 1.777560 -0.110023
-0.153965 1.777758 -0.110076
-0.151023 1.780844 -0.110896
-0.147643 1.777174 -0.109921
-0.145107 1.787004 -0.112534
-0.141961 1.787181 -0.112581
-0.138869 1.788319 -0.112883
-0.135829 1.790417 -0.113441
-0.132885 1.794439 -0.114510
-0.129826 1.796527 -0.115065
-0.126907 1.801506 -0.116388
-0.123828 1.803584 -0.116941
-0.120787 1.806623 -0.117748
-0.117736 1.809656 -0.118555
-0.114591 1.810753 -0.118846
-0.111602 1.815708 -0.120163
-0.108518 1.818727 -0.120966
-0.105388 1.820775 -0.121510
-0.102250 1.822817 -0.122053
-0.099039 1.822923 -0.122081
-0.095859 1.823989 -0.122364
-0.092675 1.825050 -0.122646
-0.089599 1.829970 -0.123954
-0.086375 1.830054 -0.123976
-0.083273 1.834964 -0.125281
-0.080130 1.838902 -0.126328
-0.076995 1.843802 -0.127631
-0.073765 1.844831 -0.127904
-0.070531 1.845855 -0.128176
-0.067263 1.844941 -0.127933
-0.064012 1.844988 -0.127946
-0.060760 1.845029 -0.127957
-0.057530 1.846997 -0.128480
-0.054423 1.863456 -0.132855
-0.051125 1.861548 -0.132348
-0.047865 1.865433 -0.133380
-0.044573 1.864481 -0.133127
-0.041295 1.869321 -0.134414
-0.038000 1.875123 -0.135956
-0.034686 1.879952 -0.137239
-0.031410 1.869313 -0.134411
-0.028083 1.875098 -0.135949
-0.024764 1.877011 -0.136457
-0.021367 1.886650 -0.139020
-0.017978 1.892417 -0.140553
-0.014617 1.894314 -0.141057
-0.011248 1.896204 -0.141559
-0.007873 1.898089 -0.142060
-0.004509 1.899001 -0.142303
-0.001141 1.899908 -0.142544
0.002251 1.901776 -0.143040
0.005809 1.910401 -0.145333
0.009301 1.915155 -0.146596
0.012783 1.918937 -0.147601
0.016224 1.920780 -0.148091
0.019730 1.924550 -0.149093
0.023345 1.931211 -0.150864
0.026818 1.933037 -0.151349
0.030298 1.934857 -0.151833
0.033748 1.935704 -0.152058
0.037240 1.937512 -0.152539
0.040739 1.939313 -0.153017
0.044328 1.943040 -0.154008
0.047625 1.940002 -0.153200
-0.626950 1.418550 -0.016428
-0.624848 1.420434 -0.016931
-0.624639 1.426785 -0.018628
-0.624409 1.433139 -0.020325
-0.623405 1.437706 -0.021545
-0.620888 1.438691 -0.021808
-0.617996 1.438775 -0.021831
-0.615477 1.439751 -0.022091
-0.612956 1.440723 -0.022351
-0.611170 1.443487 -0.023089
-0.609009 1.445350 -0.023587
-0.606113 1.445411 -0.023603
-0.603945 1.447267 -0.024099
-0.599603 1.443716 -0.023150
-0.598515 1.448266 -0.024366
-0.595979 1.449209 -0.024618
-0.593441 1.450148 -0.024869
-0.591257 1.451985 -0.025359
-0.588360 1.452012 -0.025367
-0.585817 1.452938 -0.025614
-0.583973 1.455670 -0.026344
-0.582470 1.459305 -0.027315
-0.580607 1.462033 -0.028043
-0.578392 1.463853 -0.028529
-0.576515 1.466576 -0.029257
-0.574630 1.469298 -0.029984
-0.571715 1.469292 -0.029982
-0.569819 1.472008 -0.030708
-0.567240 1.472902 -0.030947
-0.564994 1.474703 -0.031428
-0.562077 1.474679 -0.031421
-0.559825 1.476471 -0.031900
-0.557238 1.477349 -0.032135
-0.555307 1.480047 -0.032855
-0.554023 1.484569 -0.034063
-0.551095 1.484523 -0.034051
-0.549142 1.487214 -0.034770
-0.544924 1.483501 -0.033778
-0.542965 1.486184 -0.034495
-0.540042 1.486118 -0.034477
-0.537755 1.487878 -0.034947
-0.535463 1.489635 -0.035417
-0.533480 1.492307 -0.036130
-0.530865 1.493140 -0.036353
-0.528247 1.493969 -0.036574
-0.525629 1.494793 -0.036794
-0.523931 1.498371 -0.037750
-0.521916 1.501028 -0.038460
-0.519284 1.501842 -0.038677
-0.517256 1.504493 -0.039386
-0.514919 1.506220 -0.039847
-0.511980 1.506101 -0.039815
-0.509339 1.506897 -0.040028
-0.506993 1.508613 -0.040486
-0.504348 1.509402 -0.040697
-0.501994 1.511109 -0.041153
-0.499344 1.511890 -0.041361
-0.497272 1.514515 -0.042063
-0.494616 1.515287 -0.042269
-0.491959 1.516055 -0.042474
-0.489584 1.517745 -0.042925
-0.488617 1.524065 -0.044614
-0.486505 1.526677 -0.045312
-0.483828 1.527431 -0.045513
-0.481703 1.530037 -0.046209
-0.477917 1.527068 -0.045416
-0.475239 1.527807 -0.045614
-0.472559 1.528543 -0.045810
-0.470961 1.532993 -0.046999
-0.469347 1.537443 -0.048187
-0.467185 1.540030 -0.048879
-0.464749 1.541683 -0.049320
-0.462044 1.542400 -0.049512
-0.459338 1.543113 -0.049702
-0.457152 1.545687 -0.050390
-0.454957 1.548258 -0.051076
-0.452755 1.550826 -0.051762
-0.450545 1.553391 -0.052448
-0.447312 1.552216 -0.052134
-0.444588 1.552903 -0.052317
-0.442364 1.555457 -0.053000
-0.440380 1.558944 -0.053931
-0.437891 1.560557 -0.054362
-0.434907 1.560292 -0.054291
-0.432169 1.560959 -0.054469
-0.429672 1.562559 -0.054896
-0.428130 1.567906 -0.056325
-0.425617 1.569500 -0.056751
-0.422625 1.569212 -0.056674
-0.419871 1.569859 -0.056846
-0.418049 1.574258 -0.058022
-0.415749 1.576776 -0.058694
-0.413211 1.578351 -0.059115
-0.410440 1.578981 -0.059283
-0.407668 1.579607 -0.059451
-0.405345 1.582111 -0.060119
-0.403014 1.584611 -0.060787
-0.400010 1.584282 -0.060699
-0.398108 1.588660 -0.061869
-0.395973 1.592094 -0.062786
-0.393610 1.594581 -0.063451
-0.391454 1.598009 -0.064366
-0.389074 1.600491 -0.065029
-0.385629 1.598248 -0.064430
-0.384290 1.605444 -0.066352
-0.381678 1.606971 -0.066760
-0.379062 1.608493 -0.067167
-0.376236 1.609066 -0.067320
-0.374221 1.613418 -0.068482
-0.371588 1.614929 -0.068886
-0.368951 1.616436 -0.069289
-0.365914 1.616044 -0.069184
-0.363271 1.617542 -0.069584
-0.360817 1.619984 -0.070236
-0.358549 1.623370 -0.071141
-0.355888 1.624856 -0.071538
-0.353411 1.627287 -0.072187
-0.351302 1.631613 -0.073343
-0.348620 1.633088 -0.073737
-0.346302 1.636458 -0.074637
-0.343427 1.636976 -0.074775
-0.340911 1.639389 -0.075420
-0.338030 1.639897 -0.075556
-0.335148 1.640401 -0.075690
-0.332441 1.641850 -0.076077
-0.329903 1.644247 -0.076718
-0.327529 1.647592 -0.077611
-0.325654 1.653790 -0.079267
-0.323084 1.656178 -0.079905
-0.319839 1.654751 -0.079523
-0.315775 1.648553 -0.077868
-0.313204 1.650925 -0.078502
-0.311918 1.660921 -0.081172
-0.309318 1.663288 -0.081804
-0.306711 1.665651 -0.082435
-0.303939 1.667056 -0.082811
-0.301472 1.670365 -0.083695
-0.298688 1.671762 -0.084068
-0.295900 1.673154 -0.084440
-0.292958 1.673586 -0.084555
-0.290458 1.676880 -0.085435
-0.288678 1.684950 -0.087590
-0.284705 1.678678 -0.085915
-0.282038 1.681004 -0.086536
-0.279505 1.684282 -0.087412
-0.276960 1.687557 -0.088287
-0.274130 1.688915 -0.088650
-0.270345 1.683567 -0.087221
-0.268054 1.688744 -0.088604
-0.265216 1.690087 -0.088963
-0.261852 1.687594 -0.088297
-0.260172 1.697549 -0.090956
-0.257822 1.702713 -0.092335
-0.255203 1.705957 -0.093202
-0.252325 1.707279 -0.093555
-0.249565 1.709556 -0.094163
-0.247158 1.714706 -0.095539
-0.244141 1.715056 -0.095633
-0.241124 1.715401 -0.095725
-0.237991 1.714781 -0.095559
-0.235313 1.717996 -0.096418
-0.233071 1.725046 -0.098301
-0.230035 1.725373 -0.098388
-0.227107 1.726655 -0.098731
-0.224387 1.729853 -0.099585
-0.221761 1.734008 -0.100695
-0.218607 1.733354 -0.100521
-0.215657 1.734617 -0.100858
-0.212703 1.735875 -0.101194
-0.210136 1.740975 -0.102556
-0.207359 1.744148 -0.103404
-0.204289 1.744431 -0.103479
-0.201126 1.743747 -0.103297
-0.198329 1.746906 -0.104141
-0.195254 1.747173 -0.104212
-0.191917 1.744549 -0.103511
-0.188419 1.739992 -0.102294
-0.185859 1.746020 -0.103904
-0.182785 1.746267 -0.103970
-0.180995 1.761916 -0.108150
-0.177971 1.763118 -0.108471
-0.174867 1.763352 -0.108534
-0.171612 1.761653 -0.108080
-0.168437 1.760912 -0.107882
-0.165337 1.761129 -0.107940
-0.162446 1.764233 -0.108769
-0.159883 1.772151 -0.110884
-0.157028 1.776210 -0.111968
-0.153513 1.770623 -0.110476
-0.150395 1.770815 -0.110527
-0.147338 1.771967 -0.110835
-0.144989 1.784686 -0.114233
-0.142018 1.787757 -0.115053
-0.139037 1.790824 -0.115872
-0.136099 1.794850 -0.116948
-0.132990 1.795978 -0.117249
-0.129927 1.798065 -0.117807
-0.126955 1.802077 -0.118878
-0.123828 1.803190 -0.119176
-0.120833 1.807192 -0.120245
-0.117693 1.808295 -0.120539
-0.114674 1.812287 -0.121606
-0.111481 1.812414 -0.121640
-0.108557 1.819293 -0.123477
-0.105351 1.819409 -0.123508
-0.102215 1.821451 -0.124054
-0.099039 1.822522 -0.124340
-0.095921 1.825520 -0.125140
-0.092764 1.827546 -0.125682
-0.089627 1.830533 -0.126480
-0.086427 1.831583 -0.126760
-0.083297 1.835525 -0.127813
-0.080130 1.838496 -0.128607
-0.076911 1.839531 -0.128883
-0.073688 1.840559 -0.129158
-0.070339 1.834821 -0.127625
-0.067137 1.836805 -0.128155
-0.064053 1.847478 -0.131006
-0.060870 1.853315 -0.132565
-0.057666 1.859147 -0.134123
-0.054406 1.861110 -0.134648
-0.051125 1.861135 -0.134654
-0.047880 1.867917 -0.136466
-0.044615 1.875660 -0.138534
-0.041304 1.873736 -0.138020
-0.038000 1.867942 -0.136473
-0.034703 1.869872 -0.136988
-0.031382 1.876626 -0.138792
-0.028036 1.883375 -0.140595
-0.024694 1.886253 -0.141364
-0.021367 1.886228 -0.141357
-0.017978 1.891994 -0.142898
-0.014629 1.892923 -0.143146
-0.011262 1.894813 -0.143651
-0.007858 1.898629 -0.144670
-0.004474 1.900508 -0.145172
-0.001064 1.903346 -0.145930
0.002356 1.906179 -0.146687
0.005809 1.909971 -0.147700
0.009276 1.913758 -0.148711
0.012809 1.919470 -0.150237
0.016419 1.927108 -0.152277
0.019849 1.927979 -0.152510
0.023345 1.930775 -0.153257
0.026818 1.932600 -0.153745
0.030333 1.935384 -0.154488
0.033858 1.938163 -0.155230
0.037509 1.943831 -0.156745
0.040939 1.943701 -0.156710
0.044286 1.941635 -0.156158
0.047145 1.928945 -0.152768
-0.630183 1.432876 -0.020685
-0.626536 1.431191 -0.020235
-0.624787 1.433970 -0.020978
-0.620771 1.431377 -0.020284
-0.619015 1.434149 -0.021026
-0.616504 1.435126 -0.021287
-0.614734 1.437893 -0.022027
-0.614065 1.443352 -0.023487
-0.610802 1.442524 -0.023266
-0.607909 1.442589 -0.023283
-0.604654 1.441749 -0.023058
-0.601403 1.440902 -0.022832
-0.599241 1.442751 -0.023326
-0.596715 1.443695 -0.023579
-0.594904 1.446439 -0.024312
-0.593084 1.449180 -0.025046
-0.591612 1.452823 -0.026020
-0.590481 1.457369 -0.027236
-0.587577 1.457395 -0.027242
-0.585024 1.458319 -0.027490
-0.582121 1.458334 -0.027494
-0.579567 1.459249 -0.027738
-0.577701 1.461973 -0.028467
-0.575484 1.463788 -0.028952
-0.572919 1.464692 -0.029194
-0.571375 1.468317 -0.030163
-0.569141 1.470123 -0.030646
-0.567577 1.473745 -0.031615
-0.564324 1.472816 -0.031367
-0.562744 1.476433 -0.032334
-0.560489 1.478227 -0.032814
-0.557569 1.478194 -0.032805
-0.554978 1.479068 -0.033039
-0.552714 1.480850 -0.033515
-0.551095 1.484456 -0.034480
-0.549142 1.487147 -0.035199
-0.545246 1.484348 -0.034451
-0.542324 1.484286 -0.034434
-0.540361 1.486966 -0.035151
-0.538072 1.488726 -0.035622
-0.535779 1.490484 -0.036092
-0.532538 1.489487 -0.035825
-0.530240 1.491236 -0.036293
-0.527937 1.492982 -0.036760
-0.525938 1.495644 -0.037472
-0.523623 1.497383 -0.037937
-0.521610 1.500040 -0.038647
-0.519284 1.501773 -0.039111
-0.517256 1.504424 -0.039820
-0.514619 1.505230 -0.040035
-0.512578 1.507875 -0.040743
-0.509934 1.508673 -0.040956
-0.507289 1.509466 -0.041168
-0.505524 1.513025 -0.042120
-0.502579 1.512887 -0.042083
-0.500217 1.514593 -0.042539
-0.497561 1.515370 -0.042747
-0.495478 1.517993 -0.043449
-0.492816 1.518762 -0.043654
-0.491004 1.522306 -0.044602
-0.488899 1.524921 -0.045301
-0.486505 1.526606 -0.045752
-0.483828 1.527360 -0.045954
-0.481149 1.528110 -0.046154
-0.478469 1.528854 -0.046353
-0.476335 1.531453 -0.047048
-0.473921 1.533119 -0.047494
-0.472314 1.537572 -0.048685
-0.469079 1.536441 -0.048382
-0.466650 1.538097 -0.048825
-0.463421 1.536954 -0.048520
-0.461252 1.539533 -0.049209
-0.459338 1.543041 -0.050147
-0.457412 1.546547 -0.051085
-0.454699 1.547252 -0.051274
-0.452241 1.548886 -0.051711
-0.450034 1.551450 -0.052396
-0.447312 1.552143 -0.052581
-0.444588 1.552830 -0.052765
-0.442864 1.557255 -0.053949
-0.440629 1.559806 -0.054631
-0.437397 1.558611 -0.054311
-0.434907 1.560219 -0.054741
-0.432413 1.561822 -0.055170
-0.430639 1.566234 -0.056350
-0.427890 1.566894 -0.056527
-0.425617 1.569426 -0.057204
-0.423336 1.571954 -0.057880
-0.420341 1.571662 -0.057802
-0.417816 1.573244 -0.058225
-0.415286 1.574822 -0.058647
-0.412981 1.577336 -0.059319
-0.410669 1.579847 -0.059991
-0.408122 1.581414 -0.060410
-0.405570 1.582977 -0.060828
-0.403460 1.586419 -0.061748
-0.401118 1.588917 -0.062416
-0.398548 1.590469 -0.062831
-0.396191 1.592960 -0.063498
-0.393177 1.592619 -0.063406
-0.392743 1.603594 -0.066341
-0.389287 1.601358 -0.065744
-0.387320 1.605725 -0.066911
-0.384709 1.607256 -0.067321
-0.381886 1.607839 -0.067477
-0.379062 1.608416 -0.067631
-0.376645 1.610880 -0.068290
-0.374221 1.613340 -0.068948
-0.371588 1.614851 -0.069352
-0.368751 1.615411 -0.069502
-0.366111 1.616914 -0.069904
-0.363467 1.618412 -0.070304
-0.361012 1.620853 -0.070957
-0.358934 1.625188 -0.072116
-0.356079 1.625726 -0.072260
-0.353600 1.628157 -0.072911
-0.351114 1.630585 -0.073560
-0.348620 1.633009 -0.074208
-0.345935 1.634480 -0.074601
-0.342880 1.634047 -0.074486
-0.340550 1.637409 -0.075385
-0.338030 1.639818 -0.076029
-0.335679 1.643173 -0.076926
-0.332791 1.643673 -0.077060
-0.330250 1.646070 -0.077701
-0.327529 1.647512 -0.078087
-0.325143 1.650854 -0.078980
-0.322242 1.651335 -0.079109
-0.319339 1.651812 -0.079237
-0.316105 1.650379 -0.078853
-0.313368 1.651798 -0.079233
-0.311595 1.658933 -0.081141
-0.308039 1.655578 -0.080244
-0.307818 1.672247 -0.084702
-0.303782 1.666020 -0.083036
-0.301162 1.668375 -0.083666
-0.297464 1.664042 -0.082508
-0.295143 1.668297 -0.083645
-0.293406 1.676370 -0.085804
-0.292528 1.690174 -0.089496
-0.289555 1.690601 -0.089610
-0.286004 1.687199 -0.088700
-0.281182 1.675184 -0.085487
-0.278237 1.675592 -0.085596
-0.275986 1.680777 -0.086983
-0.273443 1.684047 -0.087857
-0.269531 1.677742 -0.086171
-0.267116 1.681959 -0.087299
-0.264555 1.685215 -0.088170
-0.261852 1.687510 -0.088784
-0.260559 1.700339 -0.092215
-0.257949 1.703587 -0.093083
-0.254952 1.703955 -0.093182
-0.252201 1.706236 -0.093791
-0.249321 1.707553 -0.094144
-0.246437 1.708866 -0.094495
-0.243905 1.713052 -0.095614
-0.241124 1.715315 -0.096220
-0.238335 1.717575 -0.096824
-0.235540 1.719830 -0.097427
-0.232736 1.722080 -0.098029
-0.229816 1.723366 -0.098373
-0.226999 1.725608 -0.098972
-0.224493 1.730727 -0.100341
-0.221657 1.732960 -0.100939
-0.218812 1.735189 -0.101535
-0.215960 1.737414 -0.102130
-0.213001 1.738672 -0.102466
-0.209941 1.738965 -0.102544
-0.207264 1.743099 -0.103650
-0.204195 1.743381 -0.103726
-0.201219 1.744621 -0.104057
-0.198329 1.746818 -0.104645
-0.195787 1.752859 -0.106260
-0.192876 1.755047 -0.106845
-0.190128 1.759156 -0.107944
-0.186612 1.754596 -0.106725
-0.183441 1.753881 -0.106534
-0.179952 1.749309 -0.105311
-0.176873 1.749546 -0.105374
-0.173793 1.749778 -0.105436
-0.171387 1.758674 -0.107815
-0.169023 1.768531 -0.110451
-0.165909 1.768749 -0.110510
-0.162934 1.770889 -0.111082
-0.159611 1.768206 -0.110365
-0.156829 1.773228 -0.111708
-0.153577 1.771498 -0.111245
-0.150646 1.774582 -0.112070
-0.147277 1.770913 -0.111088
-0.144989 1.784595 -0.114748
-0.141846 1.784773 -0.114795
-0.139204 1.793626 -0.117163
-0.136423 1.800547 -0.119014
-0.133251 1.800710 -0.119057
-0.130180 1.802798 -0.119616
-0.127004 1.802950 -0.119656
-0.123969 1.805993 -0.120470
-0.120833 1.807100 -0.120766
-0.117649 1.807237 -0.120803
-0.114549 1.809299 -0.121354
-0.111481 1.812321 -0.122163
-0.108365 1.814373 -0.122711
-0.105351 1.819316 -0.124033
-0.102215 1.821358 -0.124579
-0.099039 1.822429 -0.124866
-0.095921 1.825426 -0.125667
-0.092853 1.830349 -0.126984
-0.089655 1.831404 -0.127266
-0.086454 1.832454 -0.127547
-0.083346 1.837362 -0.128859
-0.080108 1.837436 -0.128879
-0.077016 1.844265 -0.130706
-0.073976 1.854953 -0.133564
-0.070880 1.864669 -0.136162
-0.067467 1.856995 -0.134110
-0.064179 1.856076 -0.133864
-0.060882 1.854185 -0.133359
-0.057656 1.858085 -0.134401
-0.054371 1.857149 -0.134151
-0.051097 1.857174 -0.134158
-0.047854 1.862990 -0.135713
-0.044597 1.870732 -0.137784
-0.041304 1.873638 -0.138561
-0.038000 1.876539 -0.139337
-0.034687 1.878469 -0.139853
-0.031364 1.881358 -0.140626
-0.028041 1.882310 -0.140880
-0.024701 1.885189 -0.141650
-0.021359 1.887096 -0.142160
-0.017988 1.890929 -0.143185
-0.014604 1.894756 -0.144209
-0.011262 1.894714 -0.144197
-0.007889 1.896598 -0.144701
-0.004404 1.904271 -0.146753
-0.001026 1.905178 -0.146996
0.002335 1.905113 -0.146978
0.005787 1.908905 -0.147993
0.009252 1.912691 -0.149005
0.012705 1.915506 -0.149758
0.016308 1.923143 -0.151800
0.019879 1.928843 -0.153325
0.023345 1.930673 -0.153814
0.026818 1.932498 -0.154302
0.030438 1.938178 -0.155821
0.033895 1.939026 -0.156048
0.037394 1.940832 -0.156531
0.041019 1.945529 -0.157787
0.044453 1.945392 -0.157751
0.047843 1.944285 -0.157455
-0.628481 1.421593 -0.020800
-0.625611 1.421694 -0.020827
-0.625778 1.428935 -0.022780
-0.623653 1.430817 -0.023288
-0.621148 1.431802 -0.023553
-0.618640 1.432783 -0.023818
-0.616504 1.434655 -0.024323
-0.615106 1.438317 -0.025311
-0.612586 1.439287 -0.025572
-0.610066 1.440253 -0.025833
-0.607543 1.441215 -0.026092
-0.605383 1.443072 -0.026593
-0.603582 1.445825 -0.027336
-0.600688 1.445876 -0.027349
-0.599235 1.449524 -0.028333
-0.596696 1.450468 -0.028588
-0.595225 1.454113 -0.029571
-0.592677 1.455050 -0.029823
-0.591895 1.460498 -0.031293
-0.588632 1.459622 -0.031057
-0.586425 1.461452 -0.031550
-0.583167 1.460564 -0.031311
-0.580607 1.461480 -0.031558
-0.578392 1.463299 -0.032048
-0.575827 1.464207 -0.032293
-0.573604 1.466019 -0.032782
-0.570694 1.466011 -0.032780
-0.568125 1.466907 -0.033021
-0.565554 1.467798 -0.033262
-0.562982 1.468685 -0.033501
-0.561409 1.472297 -0.034475
-0.559161 1.474088 -0.034958
-0.556577 1.474964 -0.035194
-0.553992 1.475836 -0.035430
-0.551405 1.476703 -0.035664
-0.549468 1.479392 -0.036389
-0.547846 1.482992 -0.037360
-0.545568 1.484763 -0.037837
-0.542965 1.485616 -0.038067
-0.540361 1.486465 -0.038296
-0.538072 1.488225 -0.038771
-0.536094 1.490897 -0.039492
-0.533794 1.492651 -0.039965
-0.531802 1.495319 -0.040684
-0.528558 1.494313 -0.040413
-0.526247 1.496056 -0.040883
-0.524238 1.498714 -0.041600
-0.522221 1.501370 -0.042316
-0.519892 1.503103 -0.042784
-0.517256 1.503913 -0.043002
-0.513717 1.501956 -0.042474
-0.512578 1.507362 -0.043932
-0.510231 1.509082 -0.044396
-0.508767 1.513564 -0.045605
-0.506112 1.514355 -0.045819
-0.503163 1.514219 -0.045782
-0.500798 1.515924 -0.046242
-0.498139 1.516702 -0.046451
-0.495765 1.518400 -0.046909
-0.493673 1.521019 -0.047616
-0.492141 1.525488 -0.048821
-0.489464 1.526251 -0.049027
-0.487067 1.527936 -0.049481
-0.483828 1.526836 -0.049185
-0.481426 1.528513 -0.049637
-0.478744 1.529258 -0.049838
-0.476609 1.531855 -0.050538
-0.474738 1.535379 -0.051489
-0.472043 1.536113 -0.051687
-0.469347 1.536842 -0.051883
-0.466918 1.538497 -0.052330
-0.464749 1.541079 -0.053026
-0.462044 1.541796 -0.053219
-0.460387 1.546235 -0.054417
-0.457673 1.546945 -0.054608
-0.454957 1.547650 -0.054798
-0.452241 1.548350 -0.054987
-0.449523 1.549046 -0.055175
-0.447058 1.550671 -0.055613
-0.446604 1.559767 -0.058066
-0.443365 1.558583 -0.057747
-0.441126 1.561135 -0.058435
-0.437397 1.558069 -0.057608
-0.435643 1.562484 -0.058799
-0.432413 1.561279 -0.058474
-0.430639 1.565689 -0.059663
-0.427650 1.565411 -0.059588
-0.425617 1.568878 -0.060523
-0.423573 1.572343 -0.061458
-0.421282 1.574867 -0.062139
-0.418516 1.575511 -0.062312
-0.415749 1.576150 -0.062485
-0.413211 1.577723 -0.062909
-0.411582 1.583053 -0.064347
-0.409255 1.585561 -0.065023
-0.409169 1.597474 -0.068236
-0.406139 1.597155 -0.068150
-0.403777 1.599657 -0.068825
-0.399427 1.593677 -0.067212
-0.398154 1.600880 -0.069155
-0.394693 1.598656 -0.068555
-0.391884 1.599255 -0.068716
-0.387796 1.594189 -0.067350
-0.386263 1.600438 -0.069035
-0.384080 1.603855 -0.069957
-0.382302 1.609158 -0.071387
-0.379268 1.608791 -0.071288
-0.377259 1.613144 -0.072462
-0.374830 1.615604 -0.073126
-0.372192 1.617115 -0.073533
-0.369549 1.618622 -0.073940
-0.366902 1.620125 -0.074345
-0.364250 1.621623 -0.074749
-0.361594 1.623118 -0.075152
-0.359704 1.628398 -0.076576
-0.356842 1.628938 -0.076722
-0.353979 1.629472 -0.076866
-0.351489 1.631899 -0.077521
-0.348806 1.633374 -0.077918
-0.346486 1.636742 -0.078827
-0.343609 1.637260 -0.078966
-0.341092 1.639672 -0.079617
-0.338567 1.642080 -0.080266
-0.335857 1.643534 -0.080659
-0.333142 1.644984 -0.081050
-0.330076 1.644528 -0.080927
-0.327701 1.647871 -0.081828
-0.325484 1.652163 -0.082986
-0.323084 1.655500 -0.083886
-0.320840 1.659786 -0.085042
-0.317591 1.658355 -0.084656
-0.314348 1.656919 -0.084269
-0.310949 1.654524 -0.083623
-0.308359 1.656887 -0.084260
-0.305762 1.659247 -0.084896
-0.303469 1.663510 -0.086046
-0.300234 1.662048 -0.085652
-0.297923 1.666304 -0.086800
-0.296505 1.676283 -0.089491
-0.294005 1.679580 -0.090380
-0.291493 1.682874 -0.091269
-0.288094 1.680433 -0.090610
-0.284993 1.679896 -0.090466
-0.281040 1.673621 -0.088773
-0.278659 1.677851 -0.089914
-0.276821 1.685903 -0.092086
-0.274130 1.688216 -0.092709
-0.271431 1.690524 -0.093332
-0.267920 1.687088 -0.092405
-0.264820 1.686516 -0.092251
-0.262897 1.694554 -0.094419
-0.261074 1.703547 -0.096844
-0.258584 1.707751 -0.097978
-0.255579 1.708120 -0.098078
-0.252572 1.708484 -0.098176
-0.249687 1.709802 -0.098531
-0.246678 1.710156 -0.098627
-0.243786 1.711464 -0.098980
-0.241124 1.714685 -0.099848
-0.238565 1.718861 -0.100975
-0.235879 1.722074 -0.101841
-0.233071 1.724324 -0.102448
-0.230255 1.726570 -0.103054
-0.227323 1.727851 -0.103399
-0.224493 1.730087 -0.104002
-0.221761 1.733280 -0.104863
-0.218915 1.735508 -0.105464
-0.216263 1.739652 -0.106582
-0.213299 1.740911 -0.106921
-0.210429 1.743125 -0.107519
-0.207455 1.744374 -0.107856
-0.204572 1.746580 -0.108450
-0.201311 1.744935 -0.108007
-0.198148 1.744246 -0.107821
-0.195965 1.754130 -0.110487
-0.193050 1.756317 -0.111077
-0.190469 1.762348 -0.112703
-0.186361 1.751057 -0.109658
-0.183441 1.753229 -0.110244
-0.179792 1.746734 -0.108492
-0.176951 1.749858 -0.109335
-0.174176 1.753941 -0.110436
-0.171837 1.763795 -0.113094
-0.168950 1.766907 -0.113933
-0.166910 1.781571 -0.117888
-0.163352 1.776006 -0.116387
-0.160292 1.777178 -0.116703
-0.156962 1.774491 -0.115978
-0.154029 1.777580 -0.116811
-0.150521 1.771991 -0.115304
-0.147948 1.780851 -0.117694
-0.144811 1.781034 -0.117743
-0.142076 1.787959 -0.119610
-0.139037 1.790059 -0.120177
-0.136099 1.794083 -0.121262
-0.133094 1.797138 -0.122086
-0.130180 1.802117 -0.123429
-0.126907 1.800341 -0.122950
-0.123875 1.803382 -0.123770
-0.120878 1.807382 -0.124849
-0.117780 1.809448 -0.125406
-0.114591 1.809580 -0.125442
-0.111602 1.814530 -0.126777
-0.108480 1.816581 -0.127330
-0.105351 1.818626 -0.127882
-0.102320 1.823562 -0.129213
-0.099072 1.822702 -0.128981
-0.096110 1.830523 -0.131090
-0.092942 1.832548 -0.131637
-0.089795 1.835533 -0.132442
-0.086611 1.837548 -0.132985
-0.083419 1.839558 -0.133527
-0.080221 1.841562 -0.134068
-0.077058 1.845492 -0.135127
-0.073957 1.853277 -0.137227
-0.070653 1.851405 -0.136722
-0.067404 1.852422 -0.136997
-0.064039 1.845711 -0.135187
-0.060809 1.847683 -0.135718
-0.057582 1.850615 -0.136509
-0.054380 1.857404 -0.138340
-0.051160 1.865152 -0.140430
-0.047891 1.869034 -0.141477
-0.044597 1.870013 -0.141741
-0.041304 1.872918 -0.142524
-0.038000 1.872921 -0.142525
-0.034689 1.876780 -0.143566
-0.031361 1.881599 -0.144866
-0.028015 1.886412 -0.146164
-0.024673 1.888324 -0.146679
-0.021315 1.891195 -0.147454
-0.017968 1.892129 -0.147706
-0.014580 1.895955 -0.148738
-0.011179 1.899774 -0.149768
-0.007748 1.904553 -0.151056
-0.004387 1.904499 -0.151042
-0.000930 1.909266 -0.152328
0.002503 1.912097 -0.153091
0.005945 1.914921 -0.153853
0.009350 1.915810 -0.154093
0.012783 1.917657 -0.154591
0.016475 1.928185 -0.157430
0.019938 1.930021 -0.157925
0.023345 1.929920 -0.157898
0.026885 1.933674 -0.158911
0.030368 1.935491 -0.159401
0.033932 1.939233 -0.160410
0.037509 1.942968 -0.161417
0.040979 1.943802 -0.161642
0.044328 1.941737 -0.161085
0.047450 1.934843 -0.159226
-0.629629 1.424174 -0.022138
-0.629040 1.429631 -0.023612
-0.628054 1.434198 -0.024846
-0.625920 1.436084 -0.025355
-0.623781 1.437967 -0.025864
-0.620513 1.437161 -0.025646
-0.617996 1.438140 -0.025911
-0.615106 1.438219 -0.025932
-0.613326 1.440983 -0.026679
-0.610066 1.440156 -0.026455
-0.609009 1.444710 -0.027686
-0.606478 1.445670 -0.027945
-0.604309 1.447525 -0.028446
-0.601773 1.448477 -0.028704
-0.598875 1.448524 -0.028716
-0.595979 1.448566 -0.028728
-0.593441 1.449504 -0.028981
-0.593032 1.455853 -0.030696
-0.591542 1.459495 -0.031680
-0.589336 1.461329 -0.032176
-0.586775 1.462256 -0.032426
-0.584561 1.464083 -0.032920
-0.581301 1.463191 -0.032679
-0.578392 1.463198 -0.032681
-0.575140 1.462294 -0.032436
-0.572577 1.463196 -0.032680
-0.569332 1.462279 -0.032433
-0.567109 1.464081 -0.032919
-0.565891 1.468606 -0.034142
-0.563988 1.471312 -0.034873
-0.561409 1.472196 -0.035112
-0.558497 1.472165 -0.035103
-0.556908 1.475773 -0.036078
-0.554650 1.477557 -0.036560
-0.552059 1.478426 -0.036795
-0.549468 1.479289 -0.037028
-0.547522 1.481976 -0.037754
-0.544279 1.481004 -0.037491
-0.543286 1.486427 -0.038957
-0.540361 1.486362 -0.038939
-0.538072 1.488121 -0.039414
-0.535463 1.488962 -0.039641
-0.534108 1.493464 -0.040858
-0.531489 1.494298 -0.041083
-0.529801 1.497880 -0.042051
-0.527174 1.498706 -0.042274
-0.525468 1.502284 -0.043241
-0.523138 1.504022 -0.043710
-0.521109 1.506677 -0.044427
-0.518466 1.507489 -0.044647
-0.515220 1.506455 -0.044367
-0.512578 1.507257 -0.044584
-0.509637 1.507132 -0.044550
-0.507880 1.510691 -0.045512
-0.505818 1.513326 -0.046224
-0.504333 1.517805 -0.047434
-0.501961 1.519512 -0.047895
-0.499584 1.521216 -0.048355
-0.496053 1.519217 -0.047815
-0.493959 1.521837 -0.048523
-0.491288 1.522603 -0.048730
-0.489182 1.525217 -0.049436
-0.486786 1.526901 -0.049891
-0.484665 1.529510 -0.050596
-0.481981 1.530260 -0.050799
-0.479020 1.530078 -0.050749
-0.476061 1.529890 -0.050699
-0.473921 1.532484 -0.051400
-0.471773 1.535075 -0.052100
-0.469347 1.536733 -0.052548
-0.466650 1.537458 -0.052743
-0.464483 1.540039 -0.053441
-0.462044 1.541686 -0.053886
-0.459338 1.542399 -0.054078
-0.456891 1.544038 -0.054521
-0.454699 1.546607 -0.055215
-0.452498 1.549173 -0.055908
-0.449779 1.549869 -0.056096
-0.447312 1.551494 -0.056536
-0.444840 1.553116 -0.056974
-0.443115 1.557537 -0.058168
-0.440629 1.559153 -0.058605
-0.438138 1.560764 -0.059040
-0.436134 1.564244 -0.059980
-0.433387 1.564912 -0.060161
-0.430639 1.565576 -0.060340
-0.427650 1.565298 -0.060265
-0.425617 1.568765 -0.061202
-0.423573 1.572230 -0.062138
-0.420576 1.571939 -0.062059
-0.417816 1.572581 -0.062233
-0.415517 1.575097 -0.062912
-0.413671 1.579489 -0.064099
-0.411810 1.583879 -0.065285
-0.409935 1.588267 -0.066470
-0.407820 1.591714 -0.067402
-0.405246 1.593275 -0.067823
-0.401118 1.588243 -0.066464
-0.398768 1.590736 -0.067138
-0.395973 1.591342 -0.067301
-0.393177 1.591943 -0.067463
-0.391454 1.597253 -0.068898
-0.388648 1.597846 -0.069058
-0.387320 1.605040 -0.071002
-0.384499 1.605626 -0.071160
-0.382302 1.609040 -0.072083
-0.379268 1.608673 -0.071984
-0.377259 1.613026 -0.073160
-0.374830 1.615486 -0.073824
-0.372393 1.617942 -0.074488
-0.369748 1.619449 -0.074895
-0.366902 1.620006 -0.075045
-0.364054 1.620558 -0.075194
-0.361789 1.623946 -0.076110
-0.359512 1.627331 -0.077024
-0.356842 1.628818 -0.077426
-0.354168 1.630301 -0.077827
-0.351302 1.630831 -0.077970
-0.348806 1.633254 -0.078624
-0.346302 1.635673 -0.079278
-0.344156 1.639987 -0.080443
-0.341453 1.641450 -0.080839
-0.338745 1.642908 -0.081233
-0.336034 1.644363 -0.081626
-0.333493 1.646763 -0.082274
-0.330945 1.649160 -0.082922
-0.328388 1.651553 -0.083568
-0.325994 1.654894 -0.084471
-0.323421 1.657280 -0.085116
-0.320840 1.659662 -0.085759
-0.316765 1.653471 -0.084087
-0.314184 1.655843 -0.084727
-0.311918 1.660117 -0.085882
-0.309958 1.666294 -0.087551
-0.305287 1.656264 -0.084841
-0.302844 1.659573 -0.085735
-0.300079 1.660970 -0.086112
-0.297158 1.661409 -0.086231
-0.293933 1.659935 -0.085833
-0.291014 1.660364 -0.085949
-0.289867 1.672245 -0.089159
-0.286779 1.671712 -0.089015
-0.284416 1.675950 -0.090159
-0.281896 1.679229 -0.091045
-0.279646 1.684416 -0.092447
-0.278074 1.694381 -0.095139
-0.274405 1.690002 -0.093956
-0.271838 1.693267 -0.094838
-0.268724 1.692702 -0.094685
-0.265216 1.689260 -0.093756
-0.262766 1.693469 -0.094893
-0.260945 1.702461 -0.097322
-0.258711 1.708580 -0.098975
-0.255704 1.708949 -0.099075
-0.252819 1.710271 -0.099432
-0.250053 1.712547 -0.100047
-0.247278 1.714819 -0.100661
-0.244378 1.716127 -0.101014
-0.241240 1.715514 -0.100848
-0.238450 1.717772 -0.101458
-0.235879 1.721944 -0.102586
-0.232959 1.723234 -0.102934
-0.230145 1.725479 -0.103541
-0.227431 1.728679 -0.104405
-0.224812 1.732836 -0.105528
-0.222075 1.736028 -0.106391
-0.218915 1.735375 -0.106214
-0.216465 1.741440 -0.107853
-0.213697 1.744620 -0.108712
-0.210722 1.745875 -0.109051
-0.207551 1.745202 -0.108869
-0.204572 1.746446 -0.109205
-0.201311 1.744802 -0.108761
-0.198238 1.745074 -0.108835
-0.194987 1.743419 -0.108387
-0.193224 1.758106 -0.112356
-0.190640 1.764136 -0.113985
-0.188369 1.774011 -0.116653
-0.184670 1.767527 -0.114901
-0.181075 1.761998 -0.113407
-0.177893 1.761274 -0.113211
-0.175404 1.769207 -0.115355
-0.172512 1.772324 -0.116197
-0.169463 1.773511 -0.116517
-0.165980 1.768915 -0.115276
-0.162864 1.769128 -0.115333
-0.160224 1.776078 -0.117211
-0.158287 1.793620 -0.121950
-0.155578 1.800564 -0.123826
-0.152467 1.801722 -0.124139
-0.149414 1.803840 -0.124711
-0.145107 1.785715 -0.119815
-0.141961 1.785893 -0.119863
-0.139149 1.791848 -0.121472
-0.136423 1.799728 -0.123600
-0.133199 1.798927 -0.123384
-0.130130 1.801013 -0.123948
-0.127053 1.803094 -0.124510
-0.124016 1.806134 -0.125331
-0.120969 1.809170 -0.126151
-0.117998 1.814129 -0.127491
-0.114842 1.815226 -0.127788
-0.111762 1.818247 -0.128604
-0.108595 1.819333 -0.128897
-0.105388 1.819449 -0.128928
-0.102320 1.823419 -0.130001
-0.099138 1.824490 -0.130290
-0.096016 1.827485 -0.131099
-0.092912 1.831440 -0.132168
-0.089823 1.836354 -0.133496
-0.086637 1.838369 -0.134040
-0.083419 1.839414 -0.134322
-0.080221 1.841418 -0.134864
-0.077079 1.846312 -0.136186
-0.073899 1.850236 -0.137246
-0.070811 1.859946 -0.139869
-0.067420 1.853242 -0.138058
-0.064151 1.853288 -0.138071
-0.060895 1.854295 -0.138343
-0.057677 1.859157 -0.139656
-0.054432 1.863049 -0.140708
-0.051167 1.865970 -0.141497
-0.047891 1.868886 -0.142285
-0.044604 1.871796 -0.143071
-0.041302 1.871804 -0.143073
-0.038000 1.874703 -0.143856
-0.034691 1.875666 -0.144116
-0.031357 1.882415 -0.145940
-0.028026 1.884332 -0.146458
-0.024701 1.884312 -0.146452
-0.021350 1.887183 -0.147228
-0.017988 1.890048 -0.148002
-0.014592 1.894838 -0.149296
-0.011179 1.899622 -0.150589
-0.007795 1.901505 -0.151097
-0.004404 1.903382 -0.151604
-0.000987 1.906218 -0.152371
0.002524 1.912909 -0.154178
0.005945 1.914768 -0.154681
0.009374 1.916622 -0.155181
0.012836 1.919434 -0.155941
0.016419 1.926101 -0.157742
0.019997 1.931796 -0.159281
0.023408 1.931695 -0.159254
0.026885 1.933519 -0.159746
0.030368 1.935336 -0.160237
0.033858 1.937147 -0.160727
0.037470 1.941847 -0.161996
0.040899 1.941717 -0.161961
0.044328 1.941581 -0.161925
0.047625 1.938546 -0.161105
-0.630394 1.425683 -0.024370
-0.625229 1.420433 -0.022945
-0.626157 1.429456 -0.025395
-0.624409 1.432232 -0.026148
-0.622653 1.435006 -0.026901
-0.620513 1.436883 -0.027411
-0.619861 1.442339 -0.028892
-0.616962 1.442421 -0.028914
-0.613696 1.441601 -0.028692
-0.610434 1.440774 -0.028467
-0.608642 1.443532 -0.029216
-0.606478 1.445389 -0.029720
-0.603945 1.446345 -0.029980
-0.601049 1.446396 -0.029993
-0.598155 1.446442 -0.030006
-0.596696 1.450086 -0.030995
-0.595581 1.454631 -0.032229
-0.594097 1.458275 -0.033218
-0.591895 1.460112 -0.033717
-0.588984 1.460140 -0.033725
-0.585724 1.459258 -0.033485
-0.581772 1.456560 -0.032753
-0.579220 1.457473 -0.033001
-0.577011 1.459289 -0.033494
-0.575140 1.462007 -0.034232
-0.572919 1.463816 -0.034723
-0.569673 1.462900 -0.034474
-0.566431 1.461978 -0.034224
-0.563869 1.462866 -0.034465
-0.564324 1.471932 -0.036926
-0.562744 1.475545 -0.037907
-0.559825 1.475517 -0.037899
-0.557238 1.476393 -0.038137
-0.554650 1.477266 -0.038374
-0.552714 1.479957 -0.039105
-0.550444 1.481735 -0.039587
-0.547846 1.482596 -0.039821
-0.545891 1.485279 -0.040550
-0.542965 1.485219 -0.040533
-0.540999 1.487896 -0.041260
-0.538389 1.488741 -0.041490
-0.536094 1.490498 -0.041966
-0.534422 1.494083 -0.042940
-0.532114 1.495834 -0.043415
-0.529801 1.497581 -0.043890
-0.527483 1.499325 -0.044363
-0.524853 1.500148 -0.044586
-0.523444 1.504641 -0.045806
-0.521109 1.506376 -0.046277
-0.517861 1.505347 -0.045998
-0.515220 1.506154 -0.046217
-0.513176 1.508797 -0.046934
-0.511123 1.511438 -0.047651
-0.507880 1.510389 -0.047367
-0.506112 1.513945 -0.048332
-0.504041 1.516577 -0.049047
-0.501379 1.517360 -0.049259
-0.499006 1.519062 -0.049721
-0.496627 1.520761 -0.050182
-0.493959 1.521531 -0.050392
-0.491573 1.523222 -0.050851
-0.489182 1.524910 -0.051309
-0.486225 1.524741 -0.051263
-0.484665 1.529201 -0.052474
-0.482535 1.531805 -0.053181
-0.479847 1.532552 -0.053384
-0.477431 1.534222 -0.053837
-0.474193 1.533103 -0.053533
-0.472314 1.536622 -0.054489
-0.470154 1.539210 -0.055191
-0.467452 1.539936 -0.055388
-0.465014 1.541588 -0.055837
-0.461780 1.540443 -0.055526
-0.460125 1.544880 -0.056730
-0.457412 1.545588 -0.056923
-0.455216 1.548157 -0.057620
-0.452755 1.549790 -0.058064
-0.450289 1.551419 -0.058506
-0.448073 1.553978 -0.059201
-0.446100 1.557468 -0.060148
-0.443365 1.558153 -0.060334
-0.440629 1.558834 -0.060519
-0.437891 1.559510 -0.060702
-0.436134 1.563923 -0.061901
-0.433874 1.566464 -0.062590
-0.431849 1.569937 -0.063533
-0.430052 1.574346 -0.064730
-0.426571 1.572192 -0.064145
-0.424757 1.576595 -0.065341
-0.422457 1.579120 -0.066026
-0.419917 1.580703 -0.066456
-0.417371 1.582283 -0.066885
-0.415282 1.585737 -0.067823
-0.412495 1.586370 -0.067995
-0.408802 1.583239 -0.067145
-0.406245 1.584802 -0.067569
-0.403460 1.585420 -0.067736
-0.398681 1.577563 -0.065604
-0.396129 1.579110 -0.066023
-0.394010 1.582536 -0.066954
-0.391662 1.585018 -0.067627
-0.389307 1.587496 -0.068300
-0.387583 1.592800 -0.069740
-0.386263 1.599990 -0.071692
-0.384919 1.607179 -0.073644
-0.382510 1.609649 -0.074314
-0.379680 1.610227 -0.074471
-0.377259 1.612689 -0.075140
-0.375235 1.617038 -0.076321
-0.372594 1.618549 -0.076731
-0.369748 1.619111 -0.076883
-0.367099 1.620613 -0.077291
-0.364446 1.622111 -0.077698
-0.362177 1.625499 -0.078617
-0.359704 1.627936 -0.079279
-0.357033 1.629423 -0.079683
-0.354168 1.629958 -0.079828
-0.351302 1.630488 -0.079972
-0.348620 1.631962 -0.080372
-0.346302 1.635329 -0.081286
-0.343791 1.637743 -0.081942
-0.341272 1.640154 -0.082596
-0.338745 1.642562 -0.083250
-0.336034 1.644016 -0.083644
-0.334194 1.650216 -0.085328
-0.331465 1.651663 -0.085721
-0.328732 1.653105 -0.086112
-0.325994 1.654544 -0.086503
-0.323758 1.658831 -0.087667
-0.321340 1.662165 -0.088572
-0.317921 1.659784 -0.087925
-0.315001 1.660253 -0.088053
-0.312727 1.664527 -0.089213
-0.311237 1.673561 -0.091666
-0.307343 1.668301 -0.090238
-0.304251 1.667799 -0.090101
-0.300079 1.660618 -0.088152
-0.297158 1.661057 -0.088271
-0.294538 1.663399 -0.088907
-0.292509 1.669553 -0.090578
-0.290754 1.677615 -0.092766
-0.289117 1.686631 -0.095214
-0.286581 1.689916 -0.096106
-0.282894 1.685557 -0.094922
-0.281759 1.698387 -0.098406
-0.278074 1.694017 -0.097219
-0.273717 1.684860 -0.094733
-0.271431 1.690035 -0.096138
-0.268590 1.691382 -0.096504
-0.265878 1.693681 -0.097128
-0.263288 1.696933 -0.098011
-0.261074 1.703052 -0.099672
-0.258584 1.707254 -0.100813
-0.255579 1.707623 -0.100913
-0.252819 1.709903 -0.101532
-0.249931 1.711220 -0.101889
-0.247399 1.715406 -0.103026
-0.244615 1.717673 -0.103641
-0.241707 1.718977 -0.103995
-0.239025 1.722194 -0.104869
-0.235992 1.722530 -0.104960
-0.233294 1.725738 -0.105831
-0.230474 1.727983 -0.106440
-0.227647 1.730223 -0.107049
-0.224919 1.733419 -0.107916
-0.222179 1.736610 -0.108783
-0.219120 1.736918 -0.108866
-0.216061 1.737221 -0.108948
-0.213399 1.741359 -0.110072
-0.210819 1.746454 -0.111455
-0.208030 1.749625 -0.112316
-0.204948 1.749908 -0.112393
-0.201958 1.751148 -0.112729
-0.198963 1.752383 -0.113065
-0.195521 1.748806 -0.112094
-0.192614 1.750992 -0.112687
-0.189359 1.749326 -0.112235
-0.186863 1.756311 -0.114131
-0.183687 1.755597 -0.113937
-0.180915 1.759687 -0.115048
-0.177814 1.759925 -0.115112
-0.174637 1.759196 -0.114914
-0.172062 1.766160 -0.116805
-0.169096 1.768308 -0.117388
-0.166624 1.777190 -0.119799
-0.163422 1.776441 -0.119596
-0.160428 1.778575 -0.120176
-0.158022 1.789371 -0.123107
-0.154094 1.778014 -0.120023
-0.151714 1.789765 -0.123213
-0.147948 1.780321 -0.120650
-0.145285 1.788211 -0.122791
-0.142076 1.787425 -0.122578
-0.139428 1.796270 -0.124980
-0.136369 1.798366 -0.125548
-0.133199 1.798529 -0.125593
-0.130079 1.799650 -0.125897
-0.127102 1.803658 -0.126985
-0.124064 1.806698 -0.127810
-0.121105 1.811660 -0.129158
-0.117911 1.811798 -0.129195
-0.114842 1.814822 -0.130016
-0.111802 1.818806 -0.131098
-0.108672 1.820856 -0.131654
-0.105498 1.821937 -0.131948
-0.102390 1.824942 -0.132763
-0.099238 1.826976 -0.133316
-0.096047 1.828041 -0.133605
-0.092972 1.832960 -0.134940
-0.089739 1.833050 -0.134965
-0.086637 1.837958 -0.136297
-0.083395 1.838037 -0.136319
-0.080198 1.840040 -0.136862
-0.077037 1.843968 -0.137929
-0.073784 1.844031 -0.137946
-0.070671 1.851808 -0.140057
-0.067483 1.856685 -0.141381
-0.064221 1.857697 -0.141656
-0.060919 1.855808 -0.141143
-0.057697 1.860669 -0.142463
-0.054432 1.862630 -0.142995
-0.051174 1.866515 -0.144050
-0.047891 1.868464 -0.144579
-0.044604 1.871373 -0.145369
-0.041300 1.870417 -0.145109
-0.038000 1.873314 -0.145896
-0.034687 1.877172 -0.146943
-0.031354 1.882954 -0.148513
-0.028026 1.883905 -0.148771
-0.024687 1.885816 -0.149290
-0.021350 1.886755 -0.149545
-0.017936 1.894445 -0.151632
-0.014568 1.896338 -0.152146
-0.011207 1.897261 -0.152397
-0.007795 1.901073 -0.153432
-0.004422 1.901984 -0.153679
-0.000987 1.905784 -0.154711
0.002524 1.912473 -0.156527
0.005968 1.915296 -0.157293
0.009521 1.921973 -0.159106
0.012966 1.923819 -0.159607
0.016447 1.926625 -0.160369
0.019968 1.930389 -0.161391
0.023408 1.931253 -0.161625
0.026885 1.933075 -0.162120
0.030333 1.933928 -0.162352
0.034005 1.940561 -0.164152
0.037586 1.944294 -0.165166
0.041140 1.947057 -0.165916
0.044202 1.938242 -0.163523
0.047232 1.929424 -0.161129
-0.630011 1.424300 -0.027230
-0.626373 1.422619 -0.026770
-0.626536 1.429854 -0.028751
-0.624409 1.431736 -0.029266
-0.622653 1.434508 -0.030025
-0.620888 1.437279 -0.030784
-0.618742 1.439153 -0.031297
-0.616220 1.440128 -0.031564
-0.614065 1.441996 -0.032075
-0.611538 1.442963 -0.032340
-0.609375 1.444824 -0.032850
-0.606113 1.443988 -0.032621
-0.603945 1.445840 -0.033128
-0.600688 1.444993 -0.032896
-0.598155 1.445938 -0.033155
-0.596337 1.448679 -0.033905
-0.595225 1.453221 -0.035149
-0.594453 1.458665 -0.036640
-0.591542 1.458698 -0.036649
-0.587577 1.456016 -0.035914
-0.583973 1.454229 -0.035425
-0.581075 1.454242 -0.035429
-0.578873 1.456058 -0.035926
-0.577011 1.458777 -0.036670
-0.575140 1.461494 -0.037414
-0.572919 1.463302 -0.037909
-0.570694 1.465107 -0.038404
-0.568464 1.466909 -0.038897
-0.565891 1.467800 -0.039141
-0.564324 1.471412 -0.040130
-0.562411 1.474114 -0.040870
-0.560157 1.475905 -0.041360
-0.557569 1.476782 -0.041601
-0.554978 1.477654 -0.041839
-0.552714 1.479433 -0.042327
-0.550770 1.482122 -0.043063
-0.548818 1.484808 -0.043798
-0.546858 1.487491 -0.044533
-0.544248 1.488346 -0.044767
-0.541956 1.490110 -0.045250
-0.538707 1.489127 -0.044981
-0.535779 1.489052 -0.044961
-0.533794 1.491719 -0.045691
-0.532114 1.495301 -0.046671
-0.530111 1.497964 -0.047401
-0.527483 1.498790 -0.047627
-0.525160 1.500529 -0.048103
-0.522833 1.502265 -0.048579
-0.520805 1.504917 -0.049305
-0.518466 1.506647 -0.049778
-0.515822 1.507454 -0.049999
-0.513176 1.508256 -0.050219
-0.510529 1.509053 -0.050437
-0.507289 1.508004 -0.050150
-0.504936 1.509714 -0.050618
-0.503748 1.515109 -0.052096
-0.501379 1.516814 -0.052562
-0.499006 1.518515 -0.053028
-0.496053 1.518365 -0.052987
-0.493959 1.520982 -0.053704
-0.492141 1.524522 -0.054673
-0.489746 1.526209 -0.055135
-0.487347 1.527893 -0.055596
-0.484665 1.528647 -0.055803
-0.482535 1.531250 -0.056515
-0.479847 1.531996 -0.056720
-0.477978 1.535521 -0.057685
-0.475827 1.538115 -0.058395
-0.473126 1.538850 -0.058596
-0.470692 1.540509 -0.059051
-0.467987 1.541235 -0.059250
-0.465280 1.541957 -0.059447
-0.463363 1.545465 -0.060408
-0.460387 1.545248 -0.060348
-0.457673 1.545956 -0.060542
-0.454957 1.546661 -0.060735
-0.453012 1.550156 -0.061692
-0.451056 1.553650 -0.062649
-0.448834 1.556209 -0.063350
-0.446604 1.558765 -0.064050
-0.443866 1.559451 -0.064237
-0.441624 1.562000 -0.064935
-0.438632 1.561742 -0.064865
-0.437851 1.569895 -0.067097
-0.433874 1.565888 -0.066000
-0.434026 1.577782 -0.069257
-0.432214 1.582192 -0.070465
-0.429195 1.581916 -0.070389
-0.423809 1.572265 -0.067746
-0.420341 1.570100 -0.067153
-0.419450 1.578244 -0.069383
-0.418067 1.584513 -0.071100
-0.413671 1.578580 -0.069476
-0.409984 1.575454 -0.068620
-0.408122 1.579836 -0.069819
-0.405345 1.580456 -0.069989
-0.403684 1.585773 -0.071445
-0.400675 1.585446 -0.071356
-0.397888 1.586054 -0.071522
-0.395537 1.588540 -0.072203
-0.393827 1.593848 -0.073656
-0.391240 1.595386 -0.074077
-0.389287 1.599748 -0.075272
-0.387954 1.606936 -0.077240
-0.385338 1.608466 -0.077659
-0.382718 1.609991 -0.078077
-0.379887 1.610569 -0.078235
-0.377463 1.613031 -0.078909
-0.374830 1.614544 -0.079323
-0.372594 1.617943 -0.080254
-0.369748 1.618504 -0.080408
-0.367297 1.620951 -0.081078
-0.364250 1.620557 -0.080970
-0.362177 1.624888 -0.082156
-0.360859 1.633003 -0.084378
-0.357987 1.633544 -0.084526
-0.354546 1.631239 -0.083895
-0.351864 1.632717 -0.084300
-0.349363 1.635139 -0.084963
-0.347038 1.638504 -0.085884
-0.343973 1.638074 -0.085766
-0.341092 1.638587 -0.085907
-0.338388 1.640043 -0.086306
-0.336034 1.643394 -0.087223
-0.333493 1.645792 -0.087880
-0.331118 1.649137 -0.088796
-0.328216 1.649628 -0.088930
-0.325654 1.652015 -0.089584
-0.322410 1.650595 -0.089195
-0.319506 1.651072 -0.089326
-0.316765 1.652494 -0.089715
-0.313694 1.652010 -0.089582
-0.311595 1.657230 -0.091012
-0.308839 1.658641 -0.091398
-0.306236 1.660999 -0.092044
-0.303156 1.660495 -0.091906
-0.301008 1.665704 -0.093332
-0.297923 1.665191 -0.093192
-0.295446 1.668486 -0.094094
-0.292659 1.669870 -0.094473
-0.290163 1.673158 -0.095373
-0.289263 1.686939 -0.099147
-0.286870 1.691176 -0.100307
