# This PCD file was generated using the MATLAB® pcwrite function
# from Computer Vision System Toolbox®.
# .PCD v.7 - Point Cloud Data file format
VERSION .7
FIELDS x y z
SIZE 4 4 4
TYPE F F F
COUNT 1 1 1
WIDTH 1704
HEIGHT 1
VIEWPOINT 0 0 0 1 0 0 0
POINTS 1704
DATA ascii
0.766599 1.653241 -0.358214
0.770469 1.653613 -0.358378
0.773493 1.652319 -0.357807
0.776942 1.651849 -0.357599
0.779963 1.650545 -0.357024
0.782982 1.649237 -0.356446
0.785998 1.647924 -0.355867
0.789876 1.648256 -0.356013
0.794192 1.649404 -0.356520
0.797208 1.648073 -0.355933
0.801970 1.650029 -0.356796
0.805426 1.649508 -0.356566
0.810643 1.652266 -0.357784
0.813665 1.650909 -0.357184
0.816241 1.648727 -0.356221
0.820146 1.648999 -0.356341
0.823608 1.648445 -0.356097
0.828414 1.650339 -0.356933
0.833679 1.653040 -0.358125
0.838055 1.654095 -0.358591
0.842438 1.655141 -0.359053
0.845012 1.652918 -0.358071
0.848946 1.653135 -0.358167
0.852427 1.652530 -0.357900
0.856825 1.653544 -0.358348
0.859850 1.652113 -0.357716
0.861948 1.649054 -0.356366
0.864964 1.647615 -0.355730
0.867977 1.646171 -0.355093
0.871454 1.645531 -0.354810
0.877271 1.648928 -0.356310
0.881225 1.649079 -0.356377
0.885654 1.650030 -0.356796
0.888200 1.647747 -0.355788
0.892635 1.648682 -0.356201
0.895175 1.646389 -0.355189
0.899140 1.646504 -0.355240
0.902151 1.645006 -0.354578
0.907560 1.647514 -0.355686
0.912500 1.649209 -0.356434
0.916483 1.649291 -0.356470
0.076867 1.693603 -0.372337
0.079901 1.692504 -0.371854
0.083339 1.696880 -0.373776
0.086515 1.697597 -0.374091
0.089337 1.693743 -0.372398
0.092437 1.693537 -0.372308
0.095387 1.691500 -0.371413
0.098713 1.694023 -0.372521
0.101579 1.691064 -0.371221
0.104834 1.692663 -0.371924
0.108014 1.693345 -0.372223
0.111114 1.693109 -0.372120
0.114469 1.695605 -0.373216
0.117311 1.692623 -0.371906
0.120321 1.691460 -0.371396
0.123507 1.692116 -0.371684
0.126327 1.689121 -0.370368
0.129513 1.689767 -0.370652
0.132414 1.687675 -0.369733
0.135405 1.686488 -0.369212
0.138789 1.688942 -0.370290
0.141981 1.689568 -0.370565
0.145279 1.691099 -0.371237
0.148479 1.691715 -0.371507
0.152000 1.695056 -0.372975
0.154887 1.692929 -0.372041
0.157876 1.691708 -0.371505
0.160526 1.687753 -0.369768
0.163841 1.689253 -0.370426
0.166933 1.688928 -0.370284
0.170141 1.689507 -0.370538
0.173233 1.689172 -0.370391
0.176444 1.689741 -0.370641
0.179293 1.687579 -0.369691
0.182505 1.688138 -0.369936
0.185469 1.686874 -0.369382
0.188810 1.688331 -0.370021
0.191900 1.687966 -0.369861
0.195120 1.688504 -0.370097
0.197945 1.686314 -0.369135
0.200897 1.685027 -0.368570
0.204117 1.685550 -0.368800
0.207338 1.686068 -0.369027
0.210285 1.684766 -0.368456
0.213368 1.684367 -0.368280
0.216450 1.683963 -0.368103
0.219964 1.686272 -0.369117
0.223489 1.688575 -0.370128
0.226579 1.688154 -0.369944
0.229369 1.685918 -0.368962
0.232908 1.688204 -0.369965
0.236304 1.689578 -0.370569
0.239241 1.688233 -0.369978
0.242643 1.689596 -0.370577
0.245103 1.685529 -0.368791
0.248347 1.685977 -0.368988
0.251109 1.683710 -0.367992
0.254353 1.684149 -0.368185
0.257270 1.682777 -0.367582
0.260182 1.681399 -0.366977
0.263596 1.682725 -0.367559
0.267186 1.684948 -0.368535
0.270441 1.685360 -0.368716
0.273872 1.686668 -0.369291
0.276959 1.686167 -0.369071
0.279867 1.684760 -0.368453
0.282235 1.680646 -0.366646
0.286032 1.683734 -0.368002
0.288566 1.680513 -0.366588
0.292193 1.682689 -0.367543
0.295272 1.682158 -0.367310
0.298537 1.682523 -0.367470
0.301615 1.681983 -0.367233
0.305075 1.683235 -0.367783
0.307962 1.681786 -0.367147
0.311039 1.681231 -0.366903
0.313723 1.678874 -0.365868
0.316400 1.676515 -0.364832
0.319467 1.675946 -0.364582
0.322734 1.676270 -0.364724
0.326206 1.677484 -0.365257
0.329479 1.677796 -0.365394
0.332343 1.676310 -0.364742
0.335201 1.674820 -0.364087
0.338475 1.675117 -0.364218
0.341117 1.672723 -0.363166
0.344177 1.672114 -0.362899
0.347450 1.672395 -0.363023
0.351158 1.674459 -0.363929
0.354222 1.673834 -0.363655
0.357943 1.675885 -0.364555
0.360787 1.674357 -0.363884
0.364297 1.675502 -0.364387
0.367137 1.673965 -0.363712
0.370652 1.675098 -0.364210
0.373488 1.673551 -0.363530
0.377010 1.674673 -0.364023
0.379378 1.671336 -0.362557
0.382202 1.669776 -0.361872
0.384786 1.667322 -0.360795
0.389256 1.671981 -0.362841
0.392314 1.671296 -0.362540
0.395612 1.671495 -0.362627
0.399153 1.672576 -0.363102
0.402700 1.673651 -0.363574
0.405516 1.672057 -0.362874
0.408327 1.670459 -0.362172
0.412377 1.673290 -0.363416
0.415689 1.673455 -0.363488
0.418498 1.671841 -0.362779
0.420541 1.667567 -0.360902
0.424868 1.671257 -0.362523
0.427667 1.669631 -0.361808
0.430980 1.669768 -0.361869
0.433774 1.668133 -0.361150
0.438136 1.671794 -0.362758
0.441193 1.671031 -0.362423
0.444515 1.671145 -0.362474
0.447839 1.671254 -0.362521
0.451165 1.671357 -0.362567
0.453952 1.669691 -0.361835
0.457005 1.668903 -0.361489
0.459784 1.667229 -0.360754
0.463936 1.669951 -0.361949
0.466990 1.669147 -0.361596
0.470043 1.668338 -0.361240
0.473655 1.669281 -0.361655
0.476426 1.667582 -0.360909
0.480328 1.669392 -0.361703
0.483096 1.667683 -0.360953
0.486433 1.667725 -0.360972
0.489194 1.666008 -0.360217
0.492241 1.665163 -0.359846
0.494994 1.663438 -0.359089
0.498918 1.665209 -0.359866
0.502259 1.665223 -0.359873
0.505304 1.664358 -0.359493
0.508048 1.662613 -0.358726
0.511389 1.662612 -0.358726
0.515639 1.665222 -0.359872
0.518685 1.664335 -0.359483
0.522645 1.666058 -0.360239
0.525385 1.664289 -0.359462
0.528737 1.664257 -0.359448
0.531159 1.661608 -0.358285
0.534198 1.660696 -0.357884
0.537548 1.660648 -0.357863
0.540900 1.660595 -0.357840
0.544254 1.660536 -0.357814
0.547609 1.660471 -0.357785
0.550645 1.659533 -0.357373
0.553680 1.658589 -0.356959
0.557684 1.660240 -0.357684
0.561045 1.660152 -0.357645
0.564081 1.659192 -0.357224
0.567443 1.659092 -0.357180
0.571469 1.660715 -0.357892
0.574505 1.659738 -0.357464
0.577206 1.657894 -0.356654
0.579902 1.656046 -0.355842
0.583267 1.655918 -0.355786
0.586633 1.655784 -0.355727
0.589660 1.654784 -0.355288
0.592343 1.652918 -0.354468
0.597427 1.657067 -0.356291
0.601147 1.657768 -0.356598
0.604525 1.657603 -0.356526
0.607904 1.657432 -0.356451
0.611635 1.658112 -0.356750
0.615018 1.657929 -0.356669
0.618403 1.657739 -0.356586
0.621078 1.655832 -0.355748
0.624106 1.654776 -0.355285
0.629281 1.658845 -0.357071
0.631954 1.656922 -0.356227
0.635707 1.657556 -0.356505
0.639100 1.657330 -0.356406
0.642860 1.657951 -0.356679
0.646258 1.657712 -0.356574
0.648184 1.654062 -0.354971
0.651947 1.654665 -0.355235
0.654601 1.652710 -0.354377
0.659860 1.656698 -0.356128
0.662140 1.653882 -0.354892
0.665539 1.653609 -0.354772
0.669318 1.654178 -0.355022
0.673480 1.655587 -0.355640
0.676888 1.655294 -0.355512
0.679531 1.653303 -0.354637
0.683322 1.653844 -0.354875
0.686732 1.653534 -0.354739
0.691304 1.655750 -0.355712
0.693942 1.653738 -0.354829
0.696965 1.652566 -0.354314
0.699594 1.650547 -0.353427
0.703005 1.650208 -0.353278
0.707208 1.651544 -0.353865
0.711418 1.652872 -0.354448
0.716433 1.655870 -0.355765
0.719861 1.655501 -0.355603
0.723691 1.655964 -0.355806
0.726315 1.653907 -0.354903
0.728933 1.651846 -0.353997
0.731952 1.650618 -0.353458
0.735378 1.650221 -0.353284
0.739624 1.651488 -0.353840
0.743054 1.651077 -0.353660
0.747725 1.653162 -0.354576
0.751576 1.653571 -0.354755
0.754599 1.652306 -0.354200
0.757619 1.651037 -0.353642
0.761895 1.652257 -0.354178
0.764494 1.650146 -0.353251
0.769201 1.652180 -0.354144
0.771797 1.650059 -0.353213
0.776516 1.652076 -0.354099
0.779536 1.650772 -0.353526
0.782553 1.649463 -0.352951
0.786429 1.649802 -0.353100
0.789876 1.649308 -0.352883
0.794192 1.650458 -0.353388
0.797208 1.649126 -0.352803
0.800659 1.648612 -0.352577
0.803234 1.646447 -0.351626
0.809323 1.650856 -0.353563
0.813223 1.651142 -0.353688
0.815798 1.648959 -0.352729
0.819701 1.649232 -0.352850
0.822716 1.647859 -0.352247
0.827071 1.648937 -0.352720
0.831882 1.650824 -0.353549
0.836252 1.651884 -0.354014
0.839271 1.650484 -0.353399
0.843650 1.651527 -0.353858
0.847579 1.651746 -0.353954
0.850141 1.649514 -0.352973
0.852239 1.646465 -0.351634
0.854788 1.644228 -0.350652
0.861486 1.649295 -0.352877
0.866354 1.651101 -0.353670
0.868907 1.648843 -0.352679
0.871920 1.647391 -0.352041
0.876803 1.649172 -0.352823
0.880286 1.648516 -0.352535
0.884241 1.648661 -0.352599
0.887727 1.647992 -0.352305
0.891213 1.647316 -0.352008
0.895175 1.647440 -0.352062
0.899617 1.648360 -0.352467
0.900715 1.643644 -0.350395
0.905639 1.645354 -0.351146
0.910091 1.646251 -0.351540
0.915033 1.647939 -0.352282
0.912227 1.636805 -0.347392
0.073579 1.691466 -0.369957
0.076674 1.691286 -0.369878
0.079769 1.691100 -0.369796
0.083067 1.693650 -0.370914
0.086166 1.693455 -0.370828
0.089265 1.693254 -0.370740
0.092291 1.692134 -0.370250
0.095462 1.692837 -0.370557
0.098483 1.691708 -0.370063
0.101893 1.695139 -0.371567
0.105075 1.695826 -0.371868
0.108178 1.695595 -0.371766
0.111198 1.694446 -0.371263
0.114298 1.694205 -0.371157
0.117137 1.691222 -0.369850
0.120410 1.692796 -0.370540
0.123417 1.691628 -0.370028
0.126512 1.691368 -0.369914
0.129513 1.690191 -0.369398
0.132605 1.689920 -0.369279
0.135698 1.689645 -0.369159
0.138789 1.689365 -0.369036
0.141981 1.689991 -0.369310
0.145176 1.690612 -0.369582
0.148270 1.690317 -0.369453
0.151575 1.691838 -0.370120
0.154779 1.692443 -0.370385
0.157547 1.689401 -0.369052
0.160638 1.689086 -0.368913
0.163841 1.689676 -0.369172
0.167048 1.690261 -0.369428
0.170024 1.689021 -0.368885
0.173351 1.690505 -0.369535
0.176324 1.689255 -0.368988
0.179659 1.690728 -0.369633
0.182505 1.688560 -0.368683
0.185594 1.688205 -0.368527
0.188810 1.688754 -0.368768
0.192158 1.690205 -0.369404
0.195250 1.689835 -0.369242
0.198342 1.689459 -0.369077
0.201299 1.688172 -0.368513
0.204524 1.688694 -0.368742
0.207476 1.687397 -0.368173
0.210841 1.688816 -0.368795
0.213509 1.685695 -0.367427
0.216593 1.685291 -0.367250
0.219676 1.684881 -0.367071
0.223196 1.687185 -0.368080
0.226727 1.689483 -0.369087
0.229369 1.686340 -0.367710
0.232303 1.685005 -0.367125
0.235386 1.684570 -0.366934
0.238932 1.686846 -0.367931
0.242331 1.688210 -0.368529
0.245419 1.687759 -0.368332
0.248347 1.686399 -0.367736
0.250786 1.682324 -0.365950
0.254190 1.683667 -0.366538
0.257270 1.683197 -0.366332
0.261016 1.686335 -0.367708
0.263764 1.684049 -0.366706
0.267866 1.688980 -0.368867
0.269925 1.683075 -0.366279
0.273525 1.685286 -0.367248
0.276608 1.684785 -0.367028
0.279867 1.685181 -0.367202
0.282592 1.682869 -0.366188
0.285851 1.683254 -0.366357
0.288748 1.681834 -0.365735
0.292193 1.683109 -0.366294
0.295272 1.682579 -0.366061
0.298724 1.683843 -0.366616
0.301615 1.682403 -0.365984
0.304311 1.680060 -0.364957
0.307384 1.679510 -0.364716
0.310262 1.678057 -0.364079
0.313527 1.678396 -0.364228
0.316202 1.676036 -0.363194
0.319068 1.674570 -0.362551
0.322332 1.674894 -0.362693
0.325800 1.676109 -0.363226
0.329479 1.678215 -0.364149
0.332343 1.676729 -0.363497
0.335617 1.677030 -0.363629
0.338894 1.677326 -0.363759
0.341751 1.675826 -0.363102
0.345455 1.677901 -0.364011
0.347665 1.673707 -0.362173
0.351591 1.676665 -0.363469
0.354876 1.676934 -0.363587
0.358163 1.677197 -0.363702
0.361009 1.675668 -0.363032
0.363850 1.674135 -0.362360
0.366912 1.673490 -0.362078
0.370199 1.673732 -0.362184
0.373488 1.673969 -0.362288
0.376780 1.674200 -0.362389
0.379841 1.673535 -0.362097
0.382669 1.671974 -0.361413
0.385726 1.671299 -0.361117
0.388782 1.670619 -0.360819
0.391837 1.669935 -0.360519
0.396092 1.673690 -0.362165
0.399637 1.674771 -0.362639
0.402700 1.674069 -0.362332
0.405761 1.673362 -0.362022
0.408327 1.670876 -0.360932
0.412129 1.672821 -0.361784
0.415689 1.673872 -0.362245
0.418750 1.673145 -0.361926
0.422063 1.673298 -0.361994
0.425379 1.673446 -0.362058
0.428182 1.671817 -0.361345
0.430462 1.668416 -0.359854
0.433253 1.666780 -0.359137
0.436825 1.667792 -0.359580
0.440138 1.667914 -0.359634
0.444515 1.671562 -0.361233
0.447839 1.671671 -0.361280
0.450627 1.670010 -0.360552
0.453410 1.668345 -0.359822
0.456733 1.668438 -0.359863
0.460058 1.668526 -0.359902
0.463936 1.670368 -0.360709
0.467267 1.670443 -0.360742
0.470043 1.668754 -0.360002
0.473094 1.667939 -0.359645
0.476144 1.667120 -0.359286
0.479760 1.668052 -0.359694
0.482238 1.665466 -0.358561
0.485571 1.665509 -0.358580
0.488327 1.663793 -0.357828
0.491659 1.663826 -0.357842
0.495578 1.665604 -0.358621
0.498330 1.663874 -0.357863
0.502554 1.666514 -0.359020
0.505304 1.664773 -0.358257
0.509544 1.667398 -0.359407
0.511690 1.663899 -0.357874
0.515337 1.664764 -0.358253
0.517164 1.660387 -0.356335
0.521117 1.662113 -0.357091
0.523848 1.660346 -0.356316
0.527501 1.661187 -0.356685
0.530849 1.661151 -0.356670
0.534822 1.662850 -0.357414
0.538490 1.663671 -0.357774
0.541532 1.662747 -0.357369
0.544571 1.661818 -0.356962
0.547609 1.660884 -0.356553
0.551287 1.661681 -0.356902
0.554647 1.661604 -0.356868
0.557360 1.659787 -0.356072
0.560720 1.659699 -0.356033
0.564081 1.659605 -0.355992
0.568101 1.661235 -0.356706
0.571469 1.661128 -0.356659
0.574505 1.660152 -0.356231
0.577540 1.659170 -0.355801
0.580908 1.659046 -0.355747
0.583941 1.658055 -0.355312
0.586294 1.655335 -0.354120
0.589660 1.655195 -0.354059
0.594395 1.658493 -0.355504
0.597770 1.658340 -0.355437
0.601147 1.658180 -0.355367
0.604525 1.658015 -0.355295
0.607555 1.656986 -0.354844
0.611985 1.659383 -0.355895
0.615370 1.659199 -0.355814
0.617696 1.656439 -0.354604
0.620368 1.654532 -0.353768
0.623749 1.654333 -0.353681
0.630356 1.661823 -0.356964
0.631594 1.656480 -0.354622
0.635345 1.657115 -0.354900
0.638374 1.656036 -0.354428
0.642860 1.658363 -0.355448
0.645891 1.657273 -0.354970
0.648920 1.656177 -0.354489
0.653426 1.658480 -0.355499
0.657201 1.659073 -0.355759
0.659860 1.657110 -0.354898
0.662514 1.655143 -0.354036
0.665163 1.653172 -0.353172
0.668562 1.652893 -0.353050
0.673101 1.655151 -0.354040
0.676888 1.655706 -0.354283
0.679531 1.653714 -0.353410
0.682554 1.652565 -0.352906
0.687117 1.654790 -0.353882
0.691304 1.656162 -0.354483
0.694331 1.654994 -0.353971
0.697356 1.653821 -0.353456
0.701163 1.654328 -0.353679
0.703005 1.650618 -0.352053
0.706021 1.649431 -0.351533
0.709829 1.649921 -0.351747
0.714838 1.652922 -0.353063
0.719460 1.655074 -0.354006
0.721681 1.652183 -0.352739
0.725911 1.653480 -0.353307
0.728528 1.651419 -0.352404
0.732359 1.651865 -0.352599
0.734970 1.649795 -0.351692
0.738394 1.649392 -0.351516
0.743054 1.651488 -0.352434
0.746072 1.650237 -0.351886
0.750746 1.652315 -0.352797
0.753766 1.651052 -0.352243
0.756783 1.649784 -0.351687
0.759798 1.648511 -0.351129
0.763231 1.648064 -0.350933
0.767933 1.650101 -0.351826
0.771797 1.650469 -0.351988
0.776090 1.651658 -0.352509
0.779536 1.651183 -0.352300
0.782982 1.650701 -0.352089
0.787720 1.652693 -0.352962
0.791173 1.652196 -0.352745
0.793324 1.649218 -0.351439
0.795903 1.647062 -0.350494
0.800659 1.649022 -0.351353
0.804111 1.648502 -0.351125
0.808883 1.650444 -0.351976
0.811457 1.648266 -0.351022
0.816684 1.651011 -0.352225
0.819257 1.648822 -0.351265
0.823162 1.649088 -0.351382
0.827071 1.649347 -0.351496
0.831432 1.650417 -0.351965
0.836252 1.652295 -0.352788
0.840176 1.652528 -0.352890
0.843650 1.651938 -0.352631
0.847579 1.652157 -0.352727
0.851055 1.651554 -0.352463
0.853615 1.649316 -0.351482
0.856628 1.647888 -0.350856
0.861948 1.650518 -0.352009
0.865427 1.649889 -0.351733
0.868907 1.649253 -0.351454
0.871920 1.647801 -0.350818
0.874931 1.646344 -0.350179
0.881225 1.650543 -0.352020
0.885183 1.650687 -0.352083
0.888200 1.649209 -0.351435
0.890265 1.646113 -0.350078
0.893272 1.644627 -0.349427
0.897708 1.645550 -0.349832
0.900236 1.643248 -0.348823
0.906600 1.647369 -0.350629
0.909128 1.645054 -0.349614
0.912616 1.644340 -0.349301
0.916105 1.643619 -0.348985
0.071277 1.704030 -0.373751
0.073830 1.695623 -0.370075
0.076803 1.693613 -0.369196
0.079968 1.694341 -0.369514
0.083067 1.694150 -0.369431
0.086376 1.696696 -0.370544
0.089408 1.695580 -0.370056
0.092510 1.695374 -0.369966
0.095537 1.694250 -0.369474
0.098560 1.693120 -0.368980
0.101579 1.691986 -0.368484
0.104674 1.691760 -0.368386
0.107851 1.692442 -0.368684
0.110947 1.692207 -0.368581
0.114298 1.694705 -0.369673
0.117224 1.692633 -0.368767
0.120498 1.694208 -0.369456
0.123507 1.693039 -0.368945
0.126697 1.693691 -0.369230
0.129607 1.691601 -0.368316
0.132701 1.691330 -0.368198
0.135795 1.691055 -0.368077
0.138988 1.691686 -0.368353
0.142183 1.692312 -0.368627
0.145382 1.692933 -0.368899
0.148374 1.691726 -0.368371
0.151575 1.692337 -0.368638
0.154779 1.692942 -0.368902
0.157766 1.691720 -0.368368
0.160972 1.692315 -0.368628
0.163841 1.690174 -0.367692
0.167163 1.691669 -0.368346
0.170024 1.689518 -0.367406
0.173351 1.691003 -0.368055
0.176324 1.689753 -0.367508
0.179537 1.690317 -0.367755
0.182752 1.690876 -0.367999
0.185845 1.690521 -0.367844
0.188937 1.690160 -0.367686
0.191900 1.688886 -0.367129
0.195120 1.689424 -0.367364
0.198210 1.689049 -0.367200
0.201031 1.686853 -0.366240
0.204252 1.687376 -0.366469
0.207338 1.686986 -0.366298
0.210563 1.687499 -0.366522
0.213650 1.687099 -0.366347
0.216593 1.685787 -0.365774
0.219243 1.682657 -0.364405
0.222612 1.684057 -0.365017
0.225988 1.685449 -0.365626
0.229070 1.685025 -0.365441
0.232001 1.683690 -0.364857
0.235233 1.684161 -0.365063
0.238158 1.682816 -0.364475
0.241548 1.684182 -0.365072
0.244628 1.683733 -0.364876
0.247868 1.684183 -0.365072
0.251271 1.685531 -0.365662
0.254353 1.685066 -0.365459
0.257435 1.684596 -0.365253
0.260516 1.684121 -0.365046
0.263596 1.683642 -0.364836
0.267356 1.686768 -0.366203
0.270097 1.684473 -0.365199
0.273004 1.683075 -0.364588
0.276082 1.682575 -0.364370
0.278450 1.678463 -0.362572
0.281698 1.678856 -0.362743
0.284768 1.678343 -0.362519
0.288566 1.681428 -0.363868
0.291641 1.680903 -0.363638
0.294715 1.680373 -0.363407
0.297787 1.679839 -0.363173
0.301426 1.681998 -0.364117
0.304693 1.682353 -0.364272
0.307192 1.679105 -0.362852
0.310456 1.679449 -0.363003
0.312940 1.676194 -0.361579
0.316597 1.678325 -0.362511
0.319467 1.676858 -0.361869
0.322533 1.676284 -0.361618
0.325598 1.675705 -0.361365
0.328866 1.676018 -0.361502
0.331724 1.674532 -0.360853
0.335201 1.675731 -0.361377
0.338265 1.675131 -0.361115
0.341539 1.675423 -0.361242
0.344816 1.675709 -0.361367
0.348094 1.675989 -0.361490
0.351808 1.678053 -0.362392
0.354876 1.677427 -0.362118
0.358163 1.677690 -0.362233
0.360566 1.674373 -0.360783
0.363850 1.674627 -0.360894
0.367137 1.674874 -0.361002
0.370426 1.675117 -0.361108
0.373717 1.675353 -0.361212
0.376550 1.673801 -0.360533
0.379610 1.673135 -0.360242
0.383135 1.674247 -0.360728
0.386196 1.673571 -0.360432
0.389256 1.672890 -0.360135
0.392314 1.672204 -0.359835
0.395852 1.673293 -0.360311
0.398911 1.672596 -0.360006
0.402700 1.674561 -0.360865
0.406006 1.674742 -0.360944
0.409068 1.674030 -0.360633
0.411880 1.672425 -0.359931
0.415438 1.673477 -0.360391
0.418498 1.672750 -0.360073
0.421302 1.671131 -0.359365
0.424101 1.669508 -0.358656
0.427410 1.669652 -0.358719
0.430462 1.668905 -0.358392
0.433513 1.668154 -0.358064
0.437611 1.670934 -0.359279
0.440666 1.670171 -0.358946
0.443719 1.669403 -0.358610
0.446503 1.667747 -0.357886
0.449821 1.667853 -0.357932
0.453681 1.669716 -0.358747
0.457278 1.670691 -0.359173
0.460606 1.670778 -0.359211
0.463109 1.668216 -0.358091
0.465881 1.666532 -0.357355
0.468369 1.663965 -0.356232
0.471410 1.663152 -0.355877
0.475861 1.666730 -0.357441
0.479476 1.667663 -0.357849
0.482238 1.665955 -0.357102
0.485571 1.665998 -0.357121
0.488616 1.665158 -0.356754
0.492241 1.666067 -0.357151
0.495871 1.666969 -0.357546
0.499212 1.666989 -0.357554
0.502554 1.667002 -0.357560
0.505601 1.666136 -0.357181
0.508647 1.665264 -0.356800
0.511690 1.664387 -0.356417
0.514430 1.662632 -0.355649
0.516860 1.660001 -0.354499
0.519894 1.659111 -0.354110
0.524770 1.663448 -0.356006
0.528737 1.665160 -0.356754
0.531781 1.664251 -0.356357
0.535447 1.665078 -0.356719
0.539118 1.665899 -0.357078
0.542163 1.664973 -0.356673
0.544889 1.663174 -0.355886
0.548566 1.663976 -0.356237
0.551287 1.662168 -0.355446
0.554324 1.661223 -0.355033
0.557036 1.659407 -0.354239
0.561371 1.661918 -0.355337
0.564408 1.660957 -0.354917
0.568759 1.663453 -0.356008
0.569485 1.656427 -0.352936
0.572180 1.654588 -0.352132
0.576538 1.657065 -0.353215
0.580908 1.659533 -0.354294
0.584278 1.659403 -0.354237
0.586971 1.657543 -0.353424
0.591021 1.659126 -0.354116
0.594737 1.659840 -0.354428
0.597770 1.658826 -0.353985
0.601838 1.660386 -0.354667
0.603831 1.656783 -0.353091
0.607555 1.657471 -0.353393
0.609884 1.654720 -0.352190
0.614314 1.657112 -0.353236
0.617342 1.656067 -0.352778
0.620723 1.655873 -0.352694
0.624106 1.655673 -0.352606
0.628206 1.657178 -0.353264
0.632674 1.659529 -0.354293
0.636068 1.659308 -0.354196
0.638374 1.656521 -0.352977
0.642495 1.657996 -0.353622
0.644425 1.654348 -0.352027
0.647448 1.653254 -0.351549
0.650468 1.652156 -0.351068
0.654972 1.654455 -0.352074
0.658741 1.655045 -0.352332
0.661765 1.653928 -0.351843
0.665163 1.653656 -0.351724
0.668562 1.653377 -0.351602
0.672721 1.654788 -0.352219
0.676507 1.655343 -0.352462
0.680297 1.655891 -0.352702
0.682554 1.653048 -0.351459
0.685574 1.651894 -0.350954
0.688592 1.650734 -0.350447
0.691607 1.649570 -0.349938
0.695793 1.650931 -0.350533
0.700378 1.653126 -0.351493
0.705368 1.656154 -0.352816
0.707999 1.654121 -0.351928
0.711418 1.653767 -0.351773
0.713642 1.650885 -0.350513
0.717459 1.651360 -0.350720
0.720475 1.650150 -0.350191
0.723894 1.649773 -0.350026
0.728933 1.652740 -0.351324
0.731952 1.651511 -0.350787
0.735378 1.651114 -0.350613
0.739214 1.651546 -0.350802
0.742231 1.650301 -0.350257
0.746485 1.651554 -0.350805
0.750332 1.651965 -0.350985
0.755015 1.654034 -0.351890
0.758037 1.652763 -0.351334
0.761476 1.652320 -0.351140
0.764494 1.651039 -0.350580
0.768356 1.651414 -0.350744
0.773069 1.653441 -0.351630
0.776090 1.652142 -0.351062
0.779108 1.650837 -0.350492
0.781695 1.648700 -0.349557
0.784707 1.647387 -0.348983
0.788148 1.646896 -0.348768
0.794192 1.651351 -0.350717
0.797644 1.650843 -0.350494
0.801096 1.650328 -0.350269
0.804549 1.649808 -0.350042
0.806683 1.646812 -0.348732
0.810133 1.646281 -0.348500
0.814469 1.647387 -0.348983
0.818367 1.647662 -0.349104
0.821823 1.647111 -0.348862
0.824832 1.645733 -0.348260
0.830534 1.649262 -0.349803
0.836252 1.652778 -0.351340
0.840628 1.653829 -0.351800
0.843650 1.652421 -0.351184
0.846213 1.650193 -0.350210
0.849684 1.649592 -0.349947
0.854991 1.652241 -0.351106
0.857549 1.649997 -0.350124
0.862410 1.651813 -0.350919
0.866817 1.652807 -0.351353
0.868442 1.648924 -0.349655
0.873319 1.650714 -0.350438
0.875867 1.648444 -0.349445
0.878408 1.646172 -0.348452
0.886596 1.653594 -0.351697
0.888672 1.650499 -0.350344
0.893109 1.651434 -0.350753
0.895175 1.648331 -0.349396
0.898185 1.646836 -0.348742
0.900236 1.643728 -0.347383
0.905159 1.645440 -0.348132
0.910573 1.647944 -0.349227
0.913583 1.646425 -0.348562
0.916105 1.644099 -0.347545
0.917649 1.640169 -0.345827
0.068870 1.716653 -0.374234
0.070727 1.697253 -0.365810
0.073893 1.697991 -0.366131
0.077061 1.698725 -0.366450
0.080034 1.696708 -0.365574
0.083203 1.697432 -0.365888
0.086376 1.698150 -0.366200
0.089551 1.698864 -0.366510
0.092510 1.696827 -0.365626
0.095687 1.697531 -0.365931
0.098637 1.695485 -0.365043
0.101736 1.695264 -0.364947
0.104594 1.692295 -0.363658
0.108014 1.695720 -0.365145
0.111114 1.695484 -0.365043
0.114128 1.694329 -0.364541
0.117224 1.694083 -0.364434
0.120410 1.694746 -0.364722
0.123507 1.694490 -0.364611
0.126604 1.694229 -0.364497
0.129419 1.691223 -0.363192
0.132797 1.693692 -0.364264
0.135990 1.694329 -0.364541
0.139186 1.694960 -0.364815
0.141981 1.691937 -0.363502
0.145279 1.693471 -0.364168
0.148165 1.691350 -0.363248
0.151469 1.692874 -0.363909
0.154455 1.691656 -0.363380
0.157656 1.692258 -0.363641
0.160861 1.692853 -0.363900
0.163728 1.690710 -0.362969
0.166933 1.691296 -0.363224
0.170024 1.690965 -0.363080
0.172996 1.689719 -0.362539
0.175964 1.688468 -0.361996
0.179049 1.688123 -0.361846
0.182258 1.688683 -0.362089
0.185594 1.690148 -0.362725
0.188683 1.689788 -0.362569
0.191900 1.690332 -0.362805
0.194728 1.688143 -0.361855
0.198078 1.689586 -0.362481
0.200897 1.687387 -0.361527
0.204117 1.687911 -0.361754
0.207338 1.688430 -0.361979
0.210285 1.687126 -0.361413
0.213650 1.688542 -0.362028
0.216878 1.689045 -0.362246
0.220398 1.691357 -0.363251
0.223342 1.690034 -0.362676
0.226283 1.688706 -0.362099
0.229369 1.688280 -0.361914
0.232001 1.685130 -0.360546
0.234927 1.683789 -0.359964
0.238467 1.686068 -0.360954
0.241705 1.686529 -0.361154
0.244945 1.686984 -0.361352
0.247868 1.685623 -0.360761
0.251271 1.686973 -0.361347
0.254353 1.686508 -0.361145
0.257270 1.685133 -0.360548
0.260349 1.684658 -0.360341
0.263427 1.684178 -0.360133
0.266505 1.683692 -0.359922
0.269581 1.683203 -0.359710
0.272830 1.683611 -0.359887
0.275906 1.683111 -0.359670
0.278805 1.681703 -0.359059
0.282056 1.682096 -0.359229
0.285851 1.685190 -0.360573
0.288931 1.684669 -0.360346
0.291641 1.682340 -0.359335
0.294529 1.680908 -0.358713
0.297413 1.679472 -0.358090
0.300670 1.679834 -0.358247
0.303739 1.679289 -0.358010
0.306999 1.679640 -0.358163
0.309874 1.678185 -0.357531
0.312744 1.676726 -0.356898
0.316202 1.677961 -0.357434
0.319467 1.678290 -0.357576
0.322935 1.679512 -0.358107
0.326003 1.678932 -0.357855
0.328866 1.677449 -0.357211
0.331518 1.675064 -0.356176
0.334578 1.674470 -0.355918
0.338056 1.675665 -0.356437
0.341751 1.677750 -0.357342
0.344603 1.676243 -0.356688
0.347235 1.673837 -0.355643
0.350509 1.674113 -0.355763
0.354440 1.677069 -0.357046
0.357503 1.676439 -0.356773
0.359901 1.673120 -0.355331
0.362957 1.672480 -0.355054
0.366687 1.674517 -0.355938
0.370199 1.675654 -0.356432
0.373488 1.675891 -0.356535
0.377010 1.677015 -0.357023
0.380305 1.677240 -0.357121
0.383135 1.675676 -0.356442
0.386196 1.674999 -0.356148
0.389967 1.676991 -0.357013
0.393268 1.677195 -0.357101
0.396092 1.675611 -0.356413
0.398427 1.672244 -0.354951
0.401725 1.672432 -0.355033
0.405025 1.672615 -0.355112
0.408574 1.673681 -0.355575
0.411880 1.673852 -0.355650
0.415188 1.674018 -0.355721
0.417993 1.672402 -0.355020
0.421048 1.671669 -0.354702
0.424868 1.673593 -0.355537
0.428182 1.673736 -0.355599
0.430980 1.672101 -0.354889
0.433513 1.669576 -0.353793
0.437087 1.670589 -0.354233
0.440666 1.671596 -0.354670
0.443719 1.670827 -0.354336
0.446236 1.668286 -0.353233
0.450896 1.672809 -0.355197
0.454222 1.672907 -0.355239
0.458095 1.674764 -0.356046
0.461976 1.676614 -0.356849
0.464211 1.673166 -0.355352
0.466435 1.669716 -0.353853
0.469206 1.668025 -0.353119
0.472813 1.668971 -0.353530
0.476144 1.669031 -0.353556
0.479192 1.668205 -0.353198
0.482238 1.667375 -0.352837
0.485858 1.668297 -0.353237
0.488905 1.667456 -0.352872
0.491950 1.666610 -0.352505
0.495871 1.668390 -0.353278
0.499212 1.668410 -0.353286
0.502554 1.668424 -0.353292
0.505601 1.667556 -0.352916
0.508946 1.667559 -0.352917
0.511690 1.665806 -0.352156
0.514732 1.664923 -0.351772
0.517468 1.663162 -0.351008
0.520505 1.662270 -0.350621
0.523233 1.660501 -0.349852
0.525956 1.658728 -0.349082
0.529606 1.659566 -0.349446
0.534198 1.663012 -0.350943
0.537234 1.662093 -0.350544
0.540900 1.662911 -0.350899
0.543937 1.661982 -0.350495
0.547609 1.662786 -0.350845
0.550966 1.662715 -0.350814
0.554647 1.663507 -0.351157
0.558656 1.665159 -0.351875
0.561697 1.664201 -0.351459
0.565390 1.664972 -0.351794
0.568430 1.664004 -0.351373
0.570808 1.661299 -0.350199
0.571184 1.653400 -0.346769
0.574869 1.654152 -0.347095
0.579902 1.658353 -0.348920
0.583604 1.659089 -0.349239
0.587310 1.659817 -0.349555
0.592043 1.663126 -0.350992
0.594737 1.661253 -0.350179
0.597770 1.660238 -0.349738
0.600456 1.658357 -0.348921
0.605219 1.661633 -0.350344
0.608253 1.660601 -0.349896
0.611635 1.660424 -0.349819
0.614666 1.659381 -0.349366
0.618049 1.659192 -0.349284
0.621789 1.659854 -0.349571
0.626246 1.662223 -0.350600
0.628923 1.660301 -0.349765
0.633034 1.661798 -0.350415
0.636430 1.661577 -0.350319
0.639827 1.661349 -0.350220
0.642860 1.660261 -0.349748
0.644792 1.656609 -0.348162
0.648552 1.657219 -0.348427
0.652687 1.658674 -0.349059
0.656086 1.658418 -0.348948
0.659114 1.657304 -0.348464
0.661765 1.655335 -0.347609
0.665539 1.655912 -0.347860
0.670074 1.658180 -0.348845
0.673480 1.657893 -0.348720
0.677650 1.659296 -0.349329
0.682210 1.661537 -0.350302
0.684475 1.658688 -0.349065
0.685574 1.653298 -0.346725
0.688592 1.652138 -0.346221
0.691997 1.651817 -0.346081
0.696575 1.654023 -0.347039
0.701555 1.657063 -0.348359
0.704580 1.655877 -0.347844
0.706812 1.653001 -0.346596
0.710624 1.653490 -0.346808
0.714041 1.653130 -0.346652
0.717859 1.653605 -0.346858
0.720475 1.651552 -0.345967
0.725104 1.653692 -0.346896
0.730148 1.656662 -0.348185
0.733579 1.656267 -0.348014
0.737011 1.655867 -0.347840
0.740444 1.655460 -0.347664
0.742643 1.652540 -0.346395
0.746072 1.652123 -0.346214
0.749917 1.652535 -0.346393
0.753766 1.652939 -0.346569
0.756365 1.650836 -0.345655
0.761056 1.652892 -0.346548
0.764915 1.653274 -0.346714
0.767933 1.651987 -0.346155
0.771797 1.652355 -0.346315
0.775238 1.651886 -0.346112
0.779536 1.653070 -0.346626
0.783411 1.653416 -0.346776
0.787720 1.654582 -0.347282
0.791173 1.654085 -0.347066
0.794625 1.653582 -0.346848
0.797208 1.651420 -0.345909
0.800659 1.650906 -0.345686
0.804111 1.650385 -0.345460
0.809323 1.653154 -0.346662
0.812782 1.652618 -0.346429
0.815798 1.651253 -0.345837
0.818812 1.649884 -0.345242
0.823162 1.650972 -0.345715
0.827071 1.651232 -0.345827
0.830534 1.650664 -0.345581
0.836252 1.654184 -0.347109
0.841081 1.656053 -0.347921
0.845012 1.656278 -0.348019
0.848035 1.654862 -0.347404
0.851513 1.654257 -0.347141
0.853615 1.651201 -0.345814
0.859390 1.654657 -0.347315
0.862410 1.653218 -0.346690
0.865427 1.651774 -0.346063
0.868907 1.651137 -0.345786
0.872853 1.651306 -0.345860
0.876335 1.650656 -0.345577
0.879817 1.649999 -0.345292
0.883770 1.650146 -0.345356
0.888200 1.651093 -0.345767
0.891687 1.650415 -0.345473
0.896126 1.651345 -0.345877
0.898663 1.649041 -0.344876
0.902629 1.649150 -0.344924
0.907080 1.650056 -0.345317
0.911055 1.650148 -0.345357
0.914066 1.648626 -0.344696
0.914166 1.642286 -0.341943
0.067625 1.697464 -0.365765
0.070605 1.695461 -0.364896
0.073453 1.691623 -0.363229
0.076867 1.696019 -0.365138
0.079769 1.693087 -0.363865
0.083203 1.697472 -0.365768
0.086236 1.696360 -0.365286
0.089408 1.697074 -0.365596
0.092510 1.696867 -0.365506
0.095612 1.696656 -0.365414
0.098790 1.697354 -0.365717
0.101736 1.695304 -0.364827
0.104674 1.693249 -0.363935
0.107769 1.693018 -0.363835
0.110779 1.691868 -0.363336
0.113957 1.692541 -0.363628
0.116963 1.691382 -0.363124
0.120143 1.692045 -0.363412
0.123145 1.690876 -0.362905
0.126142 1.689702 -0.362395
0.129325 1.690350 -0.362676
0.132893 1.694645 -0.364541
0.135893 1.693456 -0.364025
0.138988 1.693175 -0.363903
0.141678 1.689239 -0.362194
0.145073 1.691686 -0.363257
0.148061 1.690478 -0.362732
0.151150 1.690178 -0.362602
0.153915 1.687136 -0.361281
0.157217 1.688650 -0.361939
0.160526 1.690158 -0.362593
0.163841 1.691661 -0.363246
0.167048 1.692247 -0.363500
0.169791 1.689183 -0.362170
0.172759 1.687937 -0.361629
0.175964 1.688507 -0.361877
0.178927 1.687252 -0.361332
0.182258 1.688723 -0.361970
0.184842 1.684727 -0.360236
0.188556 1.688917 -0.362055
0.191643 1.688552 -0.361896
0.194598 1.687273 -0.361341
0.197813 1.687807 -0.361573
0.200897 1.687427 -0.361408
0.203981 1.687042 -0.361241
0.207064 1.686652 -0.361071
0.210424 1.688074 -0.361689
0.213509 1.687674 -0.361515
0.216593 1.687269 -0.361339
0.219676 1.686859 -0.361161
0.222758 1.686444 -0.360981
0.226135 1.687838 -0.361586
0.229220 1.687413 -0.361401
0.232001 1.685169 -0.360427
0.235080 1.684734 -0.360239
0.238313 1.685201 -0.360441
0.241705 1.686568 -0.361035
0.244945 1.687024 -0.361233
0.247868 1.685663 -0.360642
0.250948 1.685203 -0.360442
0.253700 1.682928 -0.359454
0.256775 1.682458 -0.359251
0.259849 1.681984 -0.359045
0.263427 1.684217 -0.360014
0.266675 1.684636 -0.360196
0.270269 1.686857 -0.361160
0.273351 1.686360 -0.360945
0.276608 1.686763 -0.361119
0.279336 1.684451 -0.360116
0.282592 1.684843 -0.360286
0.285490 1.683425 -0.359670
0.288748 1.683807 -0.359836
0.292009 1.684183 -0.359999
0.295272 1.684553 -0.360160
0.297975 1.682215 -0.359145
0.300859 1.680774 -0.358519
0.303739 1.679329 -0.357892
0.306807 1.678779 -0.357653
0.309874 1.678224 -0.357413
0.313135 1.678565 -0.357560
0.316400 1.678899 -0.357705
0.319467 1.678329 -0.357458
0.322533 1.677755 -0.357209
0.325395 1.676277 -0.356567
0.328661 1.676590 -0.356703
0.331518 1.675103 -0.356058
0.334786 1.675407 -0.356189
0.337636 1.673910 -0.355540
0.341117 1.675100 -0.356056
0.344389 1.675387 -0.356180
0.347450 1.674772 -0.355914
0.349643 1.670570 -0.354090
0.352040 1.667261 -0.352653
0.355525 1.668424 -0.353158
0.360123 1.674053 -0.355602
0.364297 1.677884 -0.357265
0.367362 1.677238 -0.356984
0.370199 1.675693 -0.356313
0.373488 1.675930 -0.356416
0.376780 1.676161 -0.356517
0.379378 1.673710 -0.355453
0.382669 1.673931 -0.355549
0.385491 1.672364 -0.354868
0.389730 1.676139 -0.356507
0.392314 1.673671 -0.355436
0.395612 1.673870 -0.355522
0.398427 1.672283 -0.354833
0.401725 1.672472 -0.354915
0.404535 1.670876 -0.354222
0.408821 1.674609 -0.355843
0.412129 1.674780 -0.355917
0.415689 1.675833 -0.356374
0.417741 1.671553 -0.354516
0.420794 1.670821 -0.354199
0.423846 1.670084 -0.353879
0.426896 1.669343 -0.353557
0.429945 1.668596 -0.353232
0.433513 1.669616 -0.353675
0.436562 1.668858 -0.353346
0.440666 1.671635 -0.354552
0.445312 1.676172 -0.356522
0.447839 1.673628 -0.355417
0.451703 1.675499 -0.356229
0.454493 1.673829 -0.355504
0.458095 1.674803 -0.355927
0.460332 1.671360 -0.354433
0.462006 1.666151 -0.352171
0.464217 1.662704 -0.350675
0.470043 1.670707 -0.354149
0.473094 1.669891 -0.353795
0.475297 1.666430 -0.352292
0.478056 1.664726 -0.351553
0.481381 1.664777 -0.351574
0.484709 1.664822 -0.351594
0.488327 1.665738 -0.351992
0.491369 1.664893 -0.351625
0.495286 1.666675 -0.352399
0.498624 1.666696 -0.352408
0.501371 1.664958 -0.351653
0.505601 1.667595 -0.352798
0.508048 1.664972 -0.351659
0.511690 1.665845 -0.352038
0.514430 1.664088 -0.351275
0.518076 1.664949 -0.351649
0.521117 1.664056 -0.351262
0.524155 1.663158 -0.350872
0.526883 1.661384 -0.350101
0.529606 1.659605 -0.349329
0.533885 1.662179 -0.350447
0.536292 1.659520 -0.349292
0.539953 1.660339 -0.349648
0.543302 1.660281 -0.349623
0.547928 1.663695 -0.351105
0.551287 1.663623 -0.351074
0.555291 1.665282 -0.351794
0.558656 1.665198 -0.351757
0.562022 1.665107 -0.351718
0.564408 1.662411 -0.350547
0.566128 1.657979 -0.348623
0.569155 1.657009 -0.348202
0.572844 1.657765 -0.348531
0.576872 1.659379 -0.349231
0.578895 1.655800 -0.347677
0.583267 1.658264 -0.348747
0.586633 1.658130 -0.348689
0.590681 1.659715 -0.349377
0.594053 1.659568 -0.349313
0.597427 1.659415 -0.349247
0.600802 1.659256 -0.349178
0.603484 1.657371 -0.348359
0.607207 1.658061 -0.348659
0.610934 1.658744 -0.348955
0.614314 1.658561 -0.348876
0.617342 1.657514 -0.348422
0.621078 1.658178 -0.348710
0.624462 1.657977 -0.348623
0.628206 1.658627 -0.348905
0.631954 1.659269 -0.349184
0.634983 1.658195 -0.348717
0.639100 1.659678 -0.349361
0.641765 1.657738 -0.348519
0.645158 1.657501 -0.348416
0.648920 1.658110 -0.348680
0.651947 1.657008 -0.348202
0.654972 1.655901 -0.347721
0.657995 1.654789 -0.347239
0.661765 1.655374 -0.347492
0.664787 1.654251 -0.347005
0.669696 1.657370 -0.348359
0.673101 1.657083 -0.348234
0.676126 1.655942 -0.347739
0.681828 1.660729 -0.349817
0.687934 1.666349 -0.352257
0.690591 1.664338 -0.351384
0.687817 1.650485 -0.345370
0.691607 1.651010 -0.345598
0.696575 1.654062 -0.346923
0.699986 1.653727 -0.346777
0.704186 1.655072 -0.347362
0.707603 1.654724 -0.347210
0.710624 1.653528 -0.346691
0.713642 1.652327 -0.346170
0.717058 1.651962 -0.346011
0.720877 1.652431 -0.346215
0.725104 1.653731 -0.346779
0.729743 1.655861 -0.347704
0.732359 1.653792 -0.346806
0.735786 1.653394 -0.346633
0.739214 1.652989 -0.346457
0.743054 1.653414 -0.346642
0.747725 1.655503 -0.347548
0.750332 1.653408 -0.346639
0.752933 1.651309 -0.345728
0.755947 1.650041 -0.345177
0.760637 1.652098 -0.346070
0.764494 1.652481 -0.346236
0.767510 1.651194 -0.345678
0.771372 1.651563 -0.345838
0.775664 1.652755 -0.346355
0.779536 1.653108 -0.346509
0.782982 1.652626 -0.346299
0.787720 1.654621 -0.347165
0.791605 1.654951 -0.347309
0.794192 1.652794 -0.346372
0.795032 1.647330 -0.344000
0.800223 1.650119 -0.345211
0.804111 1.650424 -0.345343
0.808443 1.651545 -0.345830
0.811899 1.651010 -0.345598
0.814912 1.649647 -0.345006
0.818812 1.649922 -0.345126
0.822269 1.649369 -0.344886
0.826175 1.649630 -0.344999
0.828736 1.647424 -0.344041
0.833095 1.648491 -0.344504
0.837914 1.650366 -0.345318
0.841834 1.650596 -0.345418
0.845302 1.650001 -0.345160
0.850141 1.651848 -0.345962
0.853156 1.650424 -0.345343
0.857089 1.650624 -0.345430
0.861948 1.652443 -0.346220
0.865891 1.652625 -0.346299
0.869836 1.652800 -0.346375
0.872387 1.650533 -0.345391
0.875399 1.649073 -0.344757
0.879817 1.650038 -0.345176
0.883299 1.649375 -0.344888
0.887727 1.650323 -0.345300
0.891213 1.649646 -0.345006
0.895175 1.649770 -0.345060
0.899140 1.649886 -0.345110
0.902629 1.649189 -0.344807
0.906119 1.648485 -0.344502
0.910091 1.648579 -0.344542
0.914066 1.648664 -0.344580
0.916590 1.646335 -0.343569
0.920081 1.645606 -0.343252
0.064464 1.697524 -0.363006
0.067269 1.692776 -0.360953
0.070361 1.692605 -0.360879
0.073453 1.692429 -0.360803
0.076738 1.694996 -0.361913
0.080034 1.697557 -0.363020
0.082999 1.695534 -0.362146
0.086166 1.696253 -0.362457
0.089122 1.694221 -0.361578
0.092291 1.694930 -0.361885
0.095312 1.693804 -0.361397
0.098483 1.694503 -0.361700
0.101500 1.693367 -0.361208
0.104754 1.694970 -0.361902
0.107851 1.694739 -0.361802
0.110863 1.693589 -0.361304
0.113871 1.692433 -0.360805
0.117050 1.693102 -0.361094
0.119965 1.691022 -0.360195
0.123235 1.692595 -0.360875
0.126327 1.692334 -0.360762
0.129513 1.692982 -0.361042
0.132797 1.694539 -0.361715
0.135893 1.694263 -0.361596
0.138789 1.692155 -0.360684
0.141981 1.692783 -0.360956
0.145176 1.693405 -0.361225
0.148270 1.693109 -0.361097
0.151575 1.694633 -0.361756
0.154563 1.693415 -0.361229
0.157656 1.693104 -0.361095
0.160861 1.693700 -0.361352
0.163954 1.693379 -0.361214
0.167048 1.693053 -0.361073
0.170024 1.691810 -0.360535
0.172996 1.690563 -0.359996
0.175964 1.689311 -0.359455
0.179049 1.688966 -0.359306
0.182134 1.688616 -0.359154
0.185469 1.690082 -0.359788
0.188429 1.688811 -0.359238
0.191385 1.687536 -0.358687
0.194467 1.687166 -0.358527
0.197945 1.689520 -0.359545
0.201433 1.691869 -0.360561
0.204524 1.691483 -0.360394
0.207476 1.690183 -0.359831
0.210424 1.688878 -0.359267
0.213650 1.689386 -0.359487
0.216593 1.688072 -0.358919
0.219820 1.688570 -0.359134
0.222612 1.686339 -0.358169
0.225988 1.687734 -0.358773
0.228921 1.686401 -0.358196
0.232454 1.688693 -0.359187
0.235233 1.686443 -0.358214
0.238777 1.688723 -0.359201
0.241705 1.687371 -0.358616
0.245261 1.689639 -0.359597
0.247868 1.686465 -0.358224
0.250948 1.686005 -0.358025
0.253700 1.683728 -0.357040
0.257105 1.685069 -0.357620
0.260182 1.684594 -0.357415
0.263427 1.685018 -0.357598
0.266505 1.684533 -0.357388
0.270097 1.686755 -0.358349
0.272657 1.683547 -0.356962
0.275906 1.683951 -0.357137
0.278805 1.682542 -0.356528
0.282414 1.684742 -0.357479
0.285310 1.683323 -0.356865
0.288748 1.684608 -0.357421
0.292193 1.685886 -0.357974
0.295643 1.687159 -0.358524
0.298162 1.683917 -0.357122
0.300481 1.679770 -0.355329
0.303739 1.680127 -0.355483
0.306229 1.676875 -0.354077
0.309679 1.678122 -0.354616
0.312548 1.676662 -0.353985
0.316202 1.678797 -0.354908
0.318669 1.675529 -0.353495
0.322935 1.680350 -0.355580
0.325192 1.676174 -0.353774
0.329070 1.679184 -0.355075
0.331518 1.675899 -0.353655
0.334786 1.676202 -0.353786
0.337636 1.674705 -0.353139
0.341539 1.677690 -0.354429
0.345455 1.680666 -0.355716
0.348738 1.680946 -0.355837
0.350293 1.674051 -0.352856
0.352695 1.670740 -0.351424
0.356184 1.671902 -0.351927
0.358572 1.668583 -0.350491
0.363627 1.675997 -0.353698
0.367362 1.678035 -0.354578
0.370199 1.676489 -0.353910
0.373260 1.675832 -0.353626
0.376780 1.676958 -0.354113
0.379378 1.674505 -0.353052
0.383369 1.677404 -0.354306
0.385961 1.674942 -0.353241
0.389493 1.676044 -0.353718
0.392076 1.673574 -0.352650
0.395371 1.673774 -0.352736
0.398911 1.674858 -0.353205
0.402456 1.675936 -0.353671
0.404780 1.672559 -0.352210
0.408327 1.673626 -0.352672
0.411134 1.672019 -0.351977
0.414437 1.672186 -0.352049
0.417741 1.672347 -0.352119
0.420541 1.670727 -0.351418
0.423846 1.670877 -0.351483
0.426896 1.670135 -0.351162
0.430721 1.672047 -0.351989
0.433774 1.671294 -0.351664
0.437087 1.671422 -0.351719
0.440666 1.672429 -0.352154
0.443984 1.672544 -0.352204
0.447305 1.672654 -0.352252
0.451165 1.674526 -0.353061
0.453952 1.672857 -0.352339
0.456461 1.670300 -0.351234
0.459236 1.668623 -0.350508
0.462557 1.668706 -0.350544
0.465881 1.668783 -0.350578
0.469485 1.669737 -0.350990
0.471971 1.667159 -0.349876
0.475297 1.667220 -0.349902
0.478340 1.666396 -0.349545
0.481667 1.666446 -0.349567
0.485283 1.667369 -0.349966
0.488616 1.667407 -0.349983
0.491950 1.667439 -0.349997
0.495286 1.667466 -0.350008
0.498330 1.666609 -0.349638
0.501963 1.667501 -0.350023
0.505006 1.666633 -0.349648
0.508048 1.665761 -0.349271
0.512292 1.668385 -0.350406
0.515034 1.666626 -0.349645
0.518076 1.665738 -0.349261
0.521117 1.664845 -0.348875
0.524155 1.663947 -0.348486
0.528119 1.665663 -0.349228
0.531470 1.665626 -0.349212
0.535447 1.667327 -0.349948
0.538176 1.665534 -0.349173
0.541216 1.664609 -0.348773
0.544254 1.663679 -0.348370
0.547928 1.664483 -0.348718
0.550645 1.662673 -0.347935
0.553358 1.660858 -0.347151
0.556712 1.660777 -0.347116
0.560394 1.661558 -0.347453
0.564081 1.662331 -0.347788
0.566128 1.658764 -0.346245
0.569155 1.657794 -0.345826
0.572180 1.656818 -0.345404
0.576205 1.658434 -0.346103
0.579566 1.658313 -0.346050
0.583267 1.659049 -0.346369
0.586971 1.659779 -0.346684
0.590000 1.658775 -0.346250
0.594395 1.661216 -0.347306
0.597083 1.659339 -0.346494
0.601147 1.660903 -0.347170
0.603137 1.657295 -0.345610
0.607555 1.659706 -0.346653
0.610234 1.657810 -0.345833
0.613963 1.658487 -0.346126
0.617696 1.659158 -0.346416
0.620723 1.658105 -0.345960
0.624819 1.659620 -0.346615
0.627848 1.658555 -0.346155
0.631954 1.660055 -0.346804
0.634983 1.658980 -0.346338
0.638374 1.658754 -0.346241
0.642130 1.659377 -0.346511
0.645891 1.659994 -0.346777
0.648920 1.658895 -0.346302
0.651947 1.657793 -0.345825
0.654972 1.656685 -0.345346
0.657995 1.655573 -0.344865
0.661390 1.655306 -0.344750
0.665163 1.655884 -0.345000
0.669318 1.657305 -0.345614
0.672721 1.657018 -0.345490
0.674983 1.654180 -0.344263
0.680297 1.658124 -0.345968
0.684091 1.658665 -0.346203
0.685960 1.654966 -0.344603
0.688979 1.653804 -0.344100
0.690829 1.650100 -0.342499
0.696184 1.653999 -0.344185
0.698809 1.651977 -0.343310
0.702611 1.652481 -0.343528
0.707603 1.655507 -0.344837
0.710624 1.654310 -0.344319
0.714041 1.653950 -0.344164
0.717058 1.652743 -0.343642
0.720877 1.653212 -0.343844
0.724701 1.653674 -0.344044
0.728933 1.654967 -0.344603
0.731546 1.652897 -0.343708
0.735786 1.654176 -0.344261
0.738804 1.652934 -0.343724
0.743054 1.654197 -0.344270
0.746072 1.652943 -0.343728
0.749502 1.652520 -0.343545
0.752101 1.650421 -0.342638
0.755112 1.649153 -0.342089
0.761056 1.653713 -0.344061
0.764915 1.654095 -0.344226
0.768778 1.654470 -0.344388
0.772645 1.654838 -0.344547
0.776090 1.654367 -0.344344
0.778681 1.652231 -0.343420
0.782124 1.651749 -0.343212
0.784707 1.649605 -0.342284
0.787284 1.647456 -0.341356
0.786820 1.639515 -0.337922
0.790680 1.639845 -0.338064
0.798912 1.648422 -0.341773
0.804111 1.651204 -0.342976
0.809323 1.653974 -0.344174
0.812782 1.653438 -0.343942
0.816241 1.652895 -0.343708
0.818812 1.650702 -0.342759
0.823162 1.651792 -0.343230
0.826175 1.650410 -0.342633
0.830084 1.650663 -0.342742
0.832645 1.648450 -0.341785
0.839723 1.654420 -0.344367
0.844104 1.655465 -0.344819
0.847124 1.654050 -0.344207
0.849227 1.650997 -0.342886
0.852697 1.650389 -0.342623
0.857549 1.652219 -0.343415
0.861486 1.652410 -0.343498
0.865891 1.653407 -0.343929
0.870301 1.654395 -0.344356
0.872853 1.652125 -0.343374
0.876335 1.651475 -0.343093
0.879347 1.650008 -0.342459
0.884241 1.651774 -0.343223
0.886782 1.649486 -0.342233
0.891213 1.650426 -0.342640
0.894699 1.649742 -0.342344
0.900094 1.652279 -0.343441
0.902151 1.649162 -0.342093
0.905159 1.647654 -0.341441
0.908164 1.646140 -0.340786
0.913583 1.648640 -0.341867
0.917075 1.647916 -0.341554
0.918135 1.643175 -0.339504
0.062144 1.711209 -0.366535
0.064291 1.695460 -0.359747
0.067447 1.696210 -0.360071
0.070605 1.696955 -0.360392
0.073830 1.698612 -0.361106
0.076867 1.697514 -0.360633
0.080100 1.699160 -0.361342
0.083135 1.698052 -0.360865
0.086236 1.697855 -0.360780
0.089194 1.695821 -0.359903
0.092217 1.694699 -0.359420
0.095387 1.695404 -0.359723
0.098253 1.692441 -0.358446
0.101657 1.695882 -0.359929
0.104754 1.695655 -0.359832
0.107851 1.695424 -0.359732
0.110947 1.695188 -0.359630
0.114042 1.694947 -0.359526
0.117311 1.696530 -0.360209
0.120410 1.696279 -0.360100
0.123507 1.696022 -0.359990
0.126512 1.694847 -0.359483
0.129419 1.692752 -0.358581
0.132510 1.692481 -0.358464
0.135600 1.692205 -0.358345
0.138590 1.691011 -0.357830
0.141880 1.692553 -0.358495
0.145073 1.693175 -0.358763
0.148165 1.692879 -0.358635
0.151256 1.692578 -0.358506
0.154455 1.693186 -0.358767
0.157656 1.693787 -0.359027
0.160749 1.693471 -0.358891
0.163615 1.691326 -0.357966
0.166588 1.690088 -0.357432
0.169207 1.686109 -0.355718
0.172522 1.687598 -0.356359
0.175483 1.686347 -0.355820
0.178927 1.688736 -0.356850
0.182134 1.689297 -0.357092
0.185344 1.689853 -0.357331
0.188556 1.690404 -0.357568
0.191643 1.690038 -0.357411
0.194467 1.687847 -0.356466
0.198078 1.691113 -0.357874
0.200361 1.685271 -0.355357
0.203981 1.688526 -0.356759
0.206926 1.687226 -0.356199
0.210424 1.689559 -0.357205
0.213650 1.690068 -0.357424
0.216593 1.688753 -0.356857
0.219676 1.688343 -0.356680
0.222758 1.687927 -0.356501
0.226135 1.689323 -0.357103
0.229070 1.687990 -0.356528
0.232303 1.688467 -0.356734
0.234774 1.684401 -0.354981
0.238467 1.687590 -0.356356
0.241392 1.686238 -0.355773
0.244945 1.688508 -0.356751
0.247868 1.687145 -0.356164
0.251109 1.687591 -0.356356
0.253863 1.685313 -0.355374
0.257600 1.688466 -0.356733
0.260683 1.687990 -0.356528
0.263933 1.688414 -0.356711
0.266675 1.686117 -0.355721
0.269925 1.686531 -0.355899
0.272309 1.682418 -0.354127
0.275380 1.681918 -0.353911
0.278273 1.680509 -0.353304
0.282056 1.683614 -0.354642
0.285310 1.684002 -0.354809
0.289113 1.687093 -0.356142
0.292193 1.686566 -0.355915
0.294900 1.684230 -0.354908
0.297225 1.680085 -0.353121
0.299724 1.676840 -0.351723
0.303166 1.678099 -0.352266
0.306614 1.679352 -0.352806
0.310262 1.681500 -0.353731
0.313135 1.680039 -0.353102
0.316400 1.680374 -0.353246
0.318669 1.676204 -0.351449
0.322533 1.679228 -0.352752
0.324989 1.675950 -0.351339
0.328661 1.678063 -0.352250
0.330693 1.672979 -0.350059
0.334994 1.677776 -0.352126
0.338056 1.677175 -0.351867
0.341539 1.678365 -0.352380
0.344389 1.676857 -0.351730
0.347235 1.675345 -0.351078
0.350726 1.676518 -0.351584
0.353785 1.675893 -0.351315
0.356404 1.673471 -0.350271
0.360344 1.676418 -0.351541
0.363404 1.675777 -0.351265
0.367362 1.678711 -0.352529
0.369972 1.676269 -0.351477
0.372346 1.672931 -0.350038
0.376089 1.674952 -0.350909
0.379146 1.674286 -0.350622
0.382435 1.674508 -0.350718
0.385726 1.674724 -0.350811
0.389493 1.676719 -0.351671
0.392553 1.676031 -0.351374
0.395612 1.675339 -0.351076
0.398185 1.672859 -0.350007
0.401969 1.674830 -0.350856
0.405270 1.675012 -0.350935
0.408574 1.675189 -0.351011
0.411631 1.674471 -0.350702
0.414687 1.673748 -0.350390
0.417489 1.672131 -0.349693
0.420033 1.669622 -0.348612
0.423080 1.668886 -0.348295
0.428182 1.675244 -0.351035
0.430462 1.671833 -0.349565
0.433513 1.671080 -0.349240
0.436562 1.670321 -0.348913
0.440138 1.671330 -0.349348
0.443453 1.671447 -0.349398
