# This PCD file was generated using the MATLAB® pcwrite function
# from Computer Vision System Toolbox®.
# .PCD v.7 - Point Cloud Data file format
VERSION .7
FIELDS x y z
SIZE 4 4 4
TYPE F F F
COUNT 1 1 1
WIDTH 1645
HEIGHT 1
VIEWPOINT 0 0 0 1 0 0 0
POINTS 1645
DATA ascii
-0.443507 1.553849 -0.392152
-0.440388 1.553610 -0.392034
-0.437977 1.555981 -0.393205
-0.435791 1.559220 -0.394804
-0.433362 1.561585 -0.395972
-0.431845 1.567437 -0.398862
-0.429393 1.569797 -0.400027
-0.426707 1.571280 -0.400759
-0.424466 1.574508 -0.402353
-0.421544 1.575110 -0.402650
-0.418842 1.576582 -0.403377
-0.416355 1.578925 -0.404534
-0.415170 1.586516 -0.408282
-0.412441 1.587979 -0.409005
-0.409492 1.588563 -0.409293
-0.406969 1.590894 -0.410444
-0.404649 1.594098 -0.412026
-0.402107 1.596423 -0.413174
-0.399351 1.597868 -0.413888
-0.397208 1.601941 -0.415899
-0.394437 1.603378 -0.416608
-0.392472 1.608324 -0.419050
-0.389283 1.607998 -0.418889
-0.386495 1.609424 -0.419594
-0.384296 1.613483 -0.421598
-0.381885 1.616660 -0.423167
-0.378493 1.615437 -0.422563
-0.377224 1.623886 -0.426735
-0.376304 1.634096 -0.431776
-0.373644 1.636384 -0.432906
-0.370602 1.636907 -0.433164
-0.367001 1.634782 -0.432115
-0.363962 1.635295 -0.432368
-0.360739 1.634921 -0.432183
-0.359505 1.644243 -0.436786
-0.357341 1.649154 -0.439212
-0.356044 1.658477 -0.443815
-0.353134 1.659855 -0.444495
-0.352130 1.670942 -0.449969
-0.346441 1.658181 -0.443669
-0.343356 1.658662 -0.443906
-0.339933 1.657369 -0.443268
-0.338851 1.668449 -0.448738
-0.336076 1.670686 -0.449843
-0.333130 1.672035 -0.450509
-0.330018 1.672494 -0.450736
-0.326905 1.672948 -0.450960
-0.324108 1.675169 -0.452057
-0.321303 1.677385 -0.453151
-0.319263 1.684027 -0.456431
-0.316281 1.685351 -0.457084
-0.314051 1.691102 -0.459924
-0.311201 1.693305 -0.461012
-0.307900 1.692843 -0.460784
-0.305478 1.697698 -0.463181
-0.302749 1.700776 -0.464701
-0.300009 1.703850 -0.466219
-0.296836 1.704258 -0.466420
-0.293661 1.704660 -0.466619
-0.291998 1.714828 -0.471639
-0.288938 1.716111 -0.472273
-0.286544 1.721833 -0.475098
-0.283997 1.726663 -0.477483
-0.280648 1.726156 -0.477233
-0.277173 1.724755 -0.476541
-0.274086 1.726016 -0.477164
-0.271245 1.729052 -0.478663
-0.268517 1.732974 -0.480599
-0.265286 1.733332 -0.480776
-0.262175 1.734575 -0.481390
-0.259179 1.736704 -0.482441
-0.256291 1.739719 -0.483930
-0.253392 1.742730 -0.485417
-0.250935 1.749301 -0.488661
-0.248676 1.757651 -0.492784
-0.245617 1.759761 -0.493826
-0.242983 1.765432 -0.496626
-0.239902 1.767533 -0.497664
-0.237127 1.772305 -0.500020
-0.233820 1.772614 -0.500173
-0.231321 1.780055 -0.503846
-0.228197 1.782139 -0.504876
-0.225066 1.784219 -0.505903
-0.221736 1.784509 -0.506046
-0.218876 1.789257 -0.508390
-0.215906 1.793109 -0.510292
-0.212921 1.796956 -0.512192
-0.209388 1.795441 -0.511444
-0.206036 1.795707 -0.511575
-0.203026 1.799541 -0.513468
-0.200000 1.803370 -0.515359
-0.197207 1.809877 -0.518572
-0.194308 1.815486 -0.521342
-0.191623 1.823773 -0.525433
-0.793419 1.205961 -0.218175
-0.792751 1.209454 -0.219894
-0.792072 1.212950 -0.221613
-0.789345 1.213356 -0.221813
-0.787127 1.214531 -0.222391
-0.785918 1.217251 -0.223728
-0.784701 1.219970 -0.225066
-0.781967 1.220362 -0.225258
-0.780236 1.222302 -0.226213
-0.777500 1.222685 -0.226401
-0.775762 1.224620 -0.227353
-0.774018 1.226552 -0.228303
-0.772270 1.228483 -0.229252
-0.770516 1.230411 -0.230201
-0.768757 1.232337 -0.231148
-0.766992 1.234262 -0.232095
-0.765222 1.236184 -0.233040
-0.762959 1.237322 -0.233600
-0.761667 1.240023 -0.234929
-0.757942 1.238800 -0.234327
-0.757607 1.243069 -0.236426
-0.755813 1.244980 -0.237367
-0.754013 1.246890 -0.238306
-0.752687 1.249585 -0.239631
-0.749444 1.249125 -0.239405
-0.748583 1.252606 -0.241117
-0.747710 1.256087 -0.242829
-0.744936 1.256406 -0.242986
-0.742634 1.257511 -0.243530
-0.740330 1.258613 -0.244072
-0.739895 1.262883 -0.246172
-0.740378 1.268743 -0.249054
-0.738052 1.269842 -0.249594
-0.735724 1.270936 -0.250133
-0.734779 1.274415 -0.251844
-0.732441 1.275504 -0.252380
-0.728268 1.273401 -0.251345
-0.725018 1.272884 -0.251091
-0.723595 1.275555 -0.252405
-0.720802 1.275828 -0.252539
-0.720724 1.280897 -0.255032
-0.718374 1.281964 -0.255557
-0.716022 1.283028 -0.256080
-0.712773 1.282483 -0.255812
-0.713990 1.289962 -0.259491
-0.712067 1.291823 -0.260406
-0.710139 1.293681 -0.261320
-0.706881 1.293122 -0.261044
-0.706268 1.297391 -0.263144
-0.704763 1.300049 -0.264451
-0.703686 1.303513 -0.266155
-0.700422 1.302938 -0.265872
-0.698029 1.303973 -0.266382
-0.694770 1.303386 -0.266093
-0.692377 1.304413 -0.266598
-0.690839 1.307057 -0.267898
-0.690148 1.311323 -0.269996
-0.688165 1.313154 -0.270897
-0.685753 1.314171 -0.271397
-0.683761 1.315997 -0.272295
-0.681764 1.317820 -0.273192
-0.679342 1.318826 -0.273687
-0.677755 1.321459 -0.274982
-0.674493 1.320828 -0.274671
-0.672066 1.321823 -0.275161
-0.669637 1.322814 -0.275648
-0.667617 1.324619 -0.276536
-0.665592 1.326421 -0.277423
-0.663154 1.327403 -0.277905
-0.661934 1.330839 -0.279595
-0.659487 1.331814 -0.280075
-0.656635 1.331965 -0.280149
-0.654588 1.333753 -0.281029
-0.653336 1.337184 -0.282716
-0.652074 1.340614 -0.284403
-0.649211 1.340751 -0.284470
-0.647536 1.343354 -0.285751
-0.644277 1.342657 -0.285408
-0.643376 1.346907 -0.287498
-0.642070 1.350331 -0.289182
-0.639586 1.351275 -0.289646
-0.638649 1.355524 -0.291736
-0.634611 1.353151 -0.290569
-0.633658 1.357398 -0.292658
-0.631159 1.358329 -0.293116
-0.629802 1.361744 -0.294796
-0.628054 1.364330 -0.296067
-0.626676 1.367744 -0.297747
-0.625286 1.371158 -0.299426
-0.622761 1.372076 -0.299877
-0.619861 1.372158 -0.299917
-0.618077 1.374733 -0.301184
-0.616284 1.377307 -0.302450
-0.614483 1.379880 -0.303715
-0.612674 1.382450 -0.304980
-0.610492 1.384184 -0.305832
-0.609031 1.387587 -0.307506
-0.606835 1.389315 -0.308356
-0.606075 1.394390 -0.310852
-0.603505 1.395278 -0.311289
-0.600933 1.396161 -0.311723
-0.597293 1.394525 -0.310918
-0.596137 1.398756 -0.312999
-0.593558 1.399628 -0.313428
-0.591328 1.401337 -0.314269
-0.588744 1.402201 -0.314694
-0.586852 1.404745 -0.315945
-0.585643 1.408971 -0.318024
-0.583044 1.409827 -0.318444
-0.580786 1.411522 -0.319278
-0.578182 1.412370 -0.319695
-0.576932 1.416591 -0.321771
-0.575667 1.420812 -0.323847
-0.573381 1.422497 -0.324676
-0.571423 1.425026 -0.325920
-0.569126 1.426705 -0.326746
-0.566823 1.428382 -0.327571
-0.563858 1.428361 -0.327560
-0.561876 1.430878 -0.328798
-0.560862 1.435939 -0.331287
-0.558211 1.436756 -0.331689
-0.556203 1.439267 -0.332924
-0.553546 1.440077 -0.333322
-0.551206 1.441733 -0.334137
-0.548860 1.443385 -0.334950
-0.546511 1.445035 -0.335761
-0.543842 1.445829 -0.336152
-0.541796 1.448324 -0.337379
-0.538500 1.447405 -0.336927
-0.536135 1.449040 -0.337731
-0.531307 1.443841 -0.335174
-0.529558 1.447175 -0.336814
-0.530230 1.457346 -0.341816
-0.528444 1.460681 -0.343456
-0.526346 1.463158 -0.344675
-0.526334 1.471627 -0.348840
-0.523911 1.473247 -0.349637
-0.521483 1.474863 -0.350432
-0.519050 1.476476 -0.351225
-0.513981 1.470362 -0.348218
-0.515333 1.483125 -0.354495
-0.512301 1.483012 -0.354440
-0.509559 1.483752 -0.354804
-0.505386 1.480189 -0.353051
-0.504069 1.485221 -0.355526
-0.505557 1.498861 -0.362235
-0.500539 1.492701 -0.359205
-0.500288 1.501179 -0.363375
-0.495015 1.494141 -0.359913
-0.494731 1.502618 -0.364083
-0.492498 1.505057 -0.365282
-0.490530 1.508357 -0.366905
-0.488550 1.511655 -0.368527
-0.486020 1.513223 -0.369299
-0.483219 1.513922 -0.369643
-0.480682 1.515483 -0.370410
-0.477876 1.516174 -0.370750
-0.475856 1.519458 -0.372365
-0.473303 1.521008 -0.373128
-0.471263 1.524288 -0.374741
-0.468697 1.525831 -0.375500
-0.466383 1.528239 -0.376684
-0.463806 1.529776 -0.377440
-0.462989 1.537387 -0.381183
-0.460641 1.539788 -0.382364
-0.457789 1.540448 -0.382689
-0.455181 1.541973 -0.383439
-0.452570 1.543494 -0.384187
-0.450440 1.546751 -0.385789
-0.448300 1.550007 -0.387390
-0.445667 1.551519 -0.388134
-0.443030 1.553026 -0.388875
-0.440151 1.553658 -0.389186
-0.438447 1.558647 -0.391640
-0.436725 1.563634 -0.394093
-0.433825 1.564257 -0.394399
-0.431845 1.568367 -0.396421
-0.428937 1.568982 -0.396723
-0.426254 1.570466 -0.397453
-0.423791 1.572820 -0.398611
-0.421097 1.574297 -0.399337
-0.418399 1.575770 -0.400061
-0.416355 1.579865 -0.402075
-0.414297 1.583958 -0.404089
-0.411358 1.584545 -0.404377
-0.408848 1.586880 -0.405526
-0.406330 1.589212 -0.406673
-0.404015 1.592418 -0.408250
-0.402317 1.598253 -0.411120
-0.399351 1.598822 -0.411399
-0.396795 1.601141 -0.412540
-0.394437 1.604336 -0.414111
-0.391864 1.606649 -0.415249
-0.389082 1.608080 -0.415953
-0.386495 1.610386 -0.417087
-0.384493 1.615328 -0.419518
-0.382081 1.618508 -0.421082
-0.381018 1.627847 -0.425675
-0.377416 1.625740 -0.424639
-0.375732 1.632435 -0.427932
-0.371943 1.629437 -0.426457
-0.369478 1.632602 -0.428014
-0.366444 1.633119 -0.428268
-0.363778 1.635395 -0.429388
-0.362379 1.643844 -0.433543
-0.359685 1.646115 -0.434660
-0.357520 1.651030 -0.437078
-0.356398 1.661243 -0.442101
-0.354537 1.667923 -0.445386
-0.349525 1.658696 -0.440848
-0.344034 1.646806 -0.435000
-0.342335 1.654357 -0.438713
-0.341281 1.665445 -0.444167
-0.337683 1.663263 -0.443094
-0.336241 1.672580 -0.447677
-0.334437 1.680128 -0.451389
-0.330503 1.676161 -0.449438
-0.327385 1.676617 -0.449662
-0.324266 1.677068 -0.449884
-0.321929 1.681945 -0.452283
-0.318645 1.681501 -0.452064
-0.315975 1.684598 -0.453588
-0.312992 1.685918 -0.454237
-0.310453 1.689896 -0.456193
-0.307752 1.692982 -0.457711
-0.305040 1.696065 -0.459227
-0.302605 1.700921 -0.461615
-0.299724 1.703109 -0.462692
-0.296554 1.703516 -0.462892
-0.294079 1.708362 -0.465275
-0.290761 1.707872 -0.465034
-0.287852 1.710043 -0.466102
-0.283597 1.703318 -0.462795
-0.282013 1.714374 -0.468232
-0.278821 1.714753 -0.468419
-0.276014 1.717798 -0.469916
-0.273832 1.725288 -0.473600
-0.271120 1.729216 -0.475532
-0.268146 1.731360 -0.476586
-0.265164 1.733499 -0.477639
-0.262296 1.736525 -0.479127
-0.259297 1.738655 -0.480175
-0.256524 1.742564 -0.482097
-0.253967 1.748252 -0.484895
-0.251162 1.752154 -0.486814
-0.248788 1.759620 -0.490486
-0.245837 1.762623 -0.491963
-0.242875 1.765622 -0.493438
-0.239796 1.767725 -0.494472
-0.236813 1.770716 -0.495943
-0.233923 1.774595 -0.497851
-0.230917 1.777577 -0.499318
-0.227701 1.778770 -0.499905
-0.224481 1.779957 -0.500489
-0.221928 1.787392 -0.504146
-0.219159 1.793038 -0.506922
-0.215813 1.793319 -0.507060
-0.213374 1.802531 -0.511591
-0.209655 1.799228 -0.509967
-0.206734 1.803964 -0.512296
-0.203196 1.802438 -0.511545
-0.200084 1.805376 -0.512991
-0.196879 1.807416 -0.513994
-0.194147 1.814818 -0.517634
-0.192094 1.830267 -0.525233
-0.792906 1.205713 -0.216286
-0.789167 1.204581 -0.215731
-0.790030 1.210389 -0.218579
-0.788327 1.212338 -0.219535
-0.786619 1.214286 -0.220490
-0.783894 1.214683 -0.220684
-0.782178 1.216625 -0.221636
-0.780960 1.219342 -0.222968
-0.779233 1.221281 -0.223919
-0.777000 1.222441 -0.224488
-0.772771 1.220484 -0.223528
-0.772031 1.223971 -0.225238
-0.769792 1.225120 -0.225801
-0.769528 1.229388 -0.227894
-0.768264 1.232095 -0.229221
-0.766010 1.233238 -0.229781
-0.764244 1.235160 -0.230724
-0.761008 1.234729 -0.230512
-0.757776 1.234291 -0.230298
-0.756488 1.236988 -0.231620
-0.757124 1.242828 -0.234483
-0.754849 1.243953 -0.235035
-0.753053 1.245863 -0.235971
-0.750772 1.246981 -0.236520
-0.749921 1.250464 -0.238227
-0.747631 1.251578 -0.238773
-0.747236 1.255850 -0.240868
-0.743046 1.253795 -0.239860
-0.742163 1.257274 -0.241566
-0.740330 1.259168 -0.242495
-0.739427 1.262648 -0.244200
-0.737580 1.264539 -0.245128
-0.736658 1.268019 -0.246834
-0.732017 1.265134 -0.245419
-0.730623 1.267812 -0.246732
-0.728760 1.269693 -0.247655
-0.728726 1.274763 -0.250140
-0.725932 1.275045 -0.250279
-0.721773 1.272924 -0.249239
-0.720348 1.275594 -0.250548
-0.718009 1.276661 -0.251071
-0.717022 1.280129 -0.252771
-0.716022 1.283598 -0.254472
-0.714564 1.286264 -0.255779
-0.713097 1.288930 -0.257086
-0.709844 1.288378 -0.256815
-0.709253 1.292648 -0.258909
-0.707764 1.295310 -0.260214
-0.705828 1.297164 -0.261123
-0.702571 1.296595 -0.260844
-0.700628 1.298442 -0.261750
-0.699551 1.301903 -0.263447
-0.697162 1.302938 -0.263954
-0.695202 1.304779 -0.264857
-0.693668 1.307428 -0.266155
-0.692555 1.310887 -0.267851
-0.690148 1.311911 -0.268353
-0.688165 1.313743 -0.269252
-0.686177 1.315573 -0.270149
-0.683761 1.316587 -0.270646
-0.681343 1.317597 -0.271141
-0.678923 1.318604 -0.271635
-0.676501 1.319606 -0.272126
-0.673661 1.319788 -0.272216
-0.671237 1.320783 -0.272703
-0.666745 1.317685 -0.271184
-0.665148 1.320305 -0.272469
-0.663543 1.322924 -0.273753
-0.661929 1.325541 -0.275036
-0.659900 1.327338 -0.275917
-0.658677 1.330773 -0.277601
-0.656635 1.332565 -0.278480
-0.654588 1.334355 -0.279357
-0.653336 1.337788 -0.281040
-0.650877 1.338750 -0.281512
-0.648416 1.339708 -0.281982
-0.645953 1.340663 -0.282450
-0.644277 1.343265 -0.283726
-0.642984 1.346690 -0.285405
-0.640898 1.348463 -0.286274
-0.638807 1.350233 -0.287142
-0.636712 1.352000 -0.288009
-0.634997 1.354593 -0.289280
-0.632889 1.356356 -0.290144
-0.630777 1.358116 -0.291007
-0.628278 1.359043 -0.291461
-0.626916 1.362458 -0.293136
-0.625542 1.365873 -0.294810
-0.623405 1.367624 -0.295668
-0.621262 1.369372 -0.296525
-0.618369 1.369450 -0.296564
-0.617334 1.373693 -0.298644
-0.615544 1.376267 -0.299906
-0.613379 1.378005 -0.300758
-0.610841 1.378905 -0.301199
-0.609397 1.382308 -0.302868
-0.608304 1.386548 -0.304947
-0.605751 1.387440 -0.305384
-0.603195 1.388328 -0.305819
-0.600279 1.388373 -0.305842
-0.599506 1.393446 -0.308329
-0.597293 1.395164 -0.309171
-0.595430 1.397718 -0.310423
-0.593910 1.401111 -0.312087
-0.592028 1.403662 -0.313337
-0.589092 1.403687 -0.313349
-0.586158 1.403706 -0.313359
-0.584607 1.407091 -0.315019
-0.583732 1.412162 -0.317505
-0.581128 1.413015 -0.317923
-0.579203 1.415553 -0.319167
-0.576255 1.415554 -0.319168
-0.573981 1.417241 -0.319995
-0.572039 1.419770 -0.321235
-0.570088 1.422298 -0.322474
-0.568129 1.424823 -0.323712
-0.566162 1.427347 -0.324950
-0.563858 1.429021 -0.325770
-0.561221 1.429843 -0.326173
-0.558909 1.431509 -0.326991
-0.556916 1.434023 -0.328223
-0.555881 1.439084 -0.330704
-0.554828 1.444146 -0.333186
-0.550887 1.441550 -0.331913
-0.548543 1.443203 -0.332724
-0.545879 1.444001 -0.333115
-0.545098 1.449909 -0.336012
-0.543046 1.452408 -0.337237
-0.541607 1.456611 -0.339297
-0.539226 1.458252 -0.340102
-0.535610 1.456472 -0.339229
-0.533226 1.458105 -0.340030
-0.531750 1.462300 -0.342087
-0.527537 1.458793 -0.340367
-0.523339 1.455276 -0.338643
-0.522446 1.461175 -0.341535
-0.523018 1.471362 -0.346530
-0.520891 1.473836 -0.347742
-0.517874 1.473732 -0.347692
-0.515151 1.474482 -0.348059
-0.513007 1.476946 -0.349267
-0.512301 1.483705 -0.352581
-0.507260 1.477566 -0.349571
-0.500815 1.467113 -0.344447
-0.498105 1.467837 -0.344801
-0.500475 1.484060 -0.352755
-0.498855 1.488230 -0.354799
-0.496103 1.488950 -0.355153
-0.493351 1.489665 -0.355503
-0.493353 1.499008 -0.360084
-0.494142 1.510945 -0.365937
-0.491347 1.511658 -0.366286
-0.487467 1.508909 -0.364938
-0.484945 1.510476 -0.365706
-0.482685 1.512904 -0.366897
-0.480948 1.517062 -0.368935
-0.478404 1.518620 -0.369699
-0.475856 1.520174 -0.370461
-0.473043 1.520858 -0.370797
-0.470745 1.523272 -0.371980
-0.468440 1.525684 -0.373163
-0.465616 1.526356 -0.373492
-0.463298 1.528761 -0.374671
-0.461981 1.534639 -0.377553
-0.459139 1.535301 -0.377878
-0.456296 1.535959 -0.378200
-0.453946 1.538352 -0.379374
-0.451098 1.539001 -0.379692
-0.449709 1.544872 -0.382570
-0.447816 1.548999 -0.384594
-0.445187 1.550511 -0.385335
-0.442791 1.552891 -0.386502
-0.440151 1.554395 -0.387239
-0.438212 1.558514 -0.389259
-0.435324 1.559139 -0.389565
-0.432898 1.561506 -0.390726
-0.430925 1.565618 -0.392742
-0.428480 1.567980 -0.393900
-0.426027 1.570339 -0.395056
-0.423341 1.571819 -0.395782
-0.421097 1.575047 -0.397364
-0.418399 1.576520 -0.398087
-0.415916 1.578866 -0.399237
-0.413206 1.580332 -0.399956
-0.410709 1.582671 -0.401102
-0.408418 1.585884 -0.402678
-0.406117 1.589094 -0.404251
-0.403592 1.591424 -0.405394
-0.401688 1.596384 -0.407826
-0.399351 1.599586 -0.409396
-0.396795 1.601907 -0.410534
-0.393619 1.601588 -0.410377
-0.391053 1.603902 -0.411512
-0.389283 1.609730 -0.414369
-0.387093 1.613798 -0.416363
-0.384098 1.614342 -0.416630
-0.382081 1.619285 -0.419054
-0.379270 1.620703 -0.419749
-0.377224 1.625640 -0.422170
-0.373824 1.624407 -0.421565
-0.371564 1.628458 -0.423551
-0.370414 1.637798 -0.428130
-0.365887 1.631258 -0.424924
-0.362490 1.630005 -0.424309
-0.359463 1.630511 -0.424557
-0.357699 1.637194 -0.427834
-0.356626 1.647410 -0.432843
-0.353388 1.647023 -0.432653
-0.350504 1.648399 -0.433328
-0.346052 1.641813 -0.430099
-0.342658 1.640524 -0.429467
-0.342164 1.654271 -0.436207
-0.338248 1.650320 -0.434269
-0.338851 1.670265 -0.444048
-0.334756 1.665420 -0.441673
-0.332477 1.670312 -0.444071
-0.330341 1.676088 -0.446903
-0.327225 1.676543 -0.447127
-0.324266 1.677881 -0.447782
-0.321303 1.679214 -0.448436
-0.318181 1.679655 -0.448652
-0.315363 1.681867 -0.449736
-0.312841 1.685849 -0.451689
-0.310752 1.692492 -0.454946
-0.307752 1.693805 -0.455590
-0.304602 1.694225 -0.455796
-0.302028 1.698194 -0.457742
-0.299296 1.701272 -0.459250
-0.296554 1.704346 -0.460757
-0.293383 1.704748 -0.460955
-0.290761 1.708704 -0.462894
-0.287988 1.711766 -0.464396
-0.285607 1.717494 -0.467204
-0.282674 1.719659 -0.468266
-0.279735 1.721821 -0.469325
-0.275885 1.717745 -0.467327
-0.273705 1.725240 -0.471002
-0.270869 1.728279 -0.472492
-0.268393 1.733988 -0.475291
-0.265164 1.734346 -0.475466
-0.262175 1.736483 -0.476514
-0.259534 1.741289 -0.478870
-0.256408 1.742526 -0.479477
-0.253392 1.744649 -0.480518
-0.250709 1.749445 -0.482869
-0.248119 1.755129 -0.485656
-0.245727 1.762596 -0.489317
-0.242983 1.767382 -0.491663
-0.240008 1.770379 -0.493133
-0.236918 1.772479 -0.494162
-0.233614 1.772788 -0.494314
-0.230108 1.771306 -0.493587
-0.227601 1.778752 -0.497238
-0.224579 1.781727 -0.498696
-0.221832 1.787379 -0.501468
-0.218782 1.790347 -0.502922
-0.215444 1.790627 -0.503060
-0.212558 1.795374 -0.505387
-0.209299 1.796539 -0.505958
-0.206559 1.803066 -0.509158
-0.203453 1.806011 -0.510603
-0.200084 1.806268 -0.510728
-0.196797 1.807414 -0.511290
-0.193426 1.807660 -0.511411
-0.191309 1.822223 -0.518551
-0.797681 1.209171 -0.215288
-0.790851 1.203420 -0.212482
-0.791215 1.208459 -0.214941
-0.790540 1.211957 -0.216648
-0.790363 1.216230 -0.218733
-0.788142 1.217408 -0.219308
-0.781870 1.212382 -0.216855
-0.780160 1.214323 -0.217802
-0.779451 1.217816 -0.219506
-0.778230 1.220532 -0.220832
-0.775500 1.220913 -0.221018
-0.774266 1.223626 -0.222341
-0.772528 1.225559 -0.223285
-0.769792 1.225929 -0.223465
-0.770022 1.230982 -0.225931
-0.767279 1.231347 -0.226108
-0.765519 1.233272 -0.227048
-0.763265 1.234411 -0.227604
-0.762959 1.238685 -0.229689
-0.762153 1.242176 -0.231392
-0.760366 1.244097 -0.232329
-0.758574 1.246015 -0.233265
-0.757258 1.248718 -0.234584
-0.755934 1.251421 -0.235903
-0.753644 1.252546 -0.236452
-0.750398 1.252087 -0.236228
-0.746680 1.250831 -0.235615
-0.744866 1.252732 -0.236543
-0.742101 1.253047 -0.236696
-0.740279 1.254942 -0.237621
-0.739860 1.259216 -0.239706
-0.739427 1.263492 -0.241793
-0.737114 1.264591 -0.242329
-0.735263 1.266481 -0.243251
-0.732944 1.267573 -0.243784
-0.728314 1.264675 -0.242370
-0.725999 1.265756 -0.242898
-0.726433 1.271626 -0.245761
-0.727304 1.278299 -0.249017
-0.724506 1.278578 -0.249154
-0.722618 1.280454 -0.250069
-0.719819 1.280725 -0.250201
-0.717923 1.282594 -0.251113
-0.716022 1.284462 -0.252024
-0.714564 1.287131 -0.253327
-0.713097 1.289799 -0.254628
-0.711178 1.291661 -0.255537
-0.708367 1.291909 -0.255658
-0.705557 1.292153 -0.255777
-0.704068 1.294812 -0.257074
-0.702132 1.296663 -0.257977
-0.701502 1.300936 -0.260063
-0.700857 1.305212 -0.262149
-0.699330 1.307869 -0.263445
-0.696067 1.307284 -0.263160
-0.694099 1.309125 -0.264058
-0.690839 1.308529 -0.263767
-0.688011 1.308739 -0.263869
-0.685610 1.309756 -0.264366
-0.683632 1.311584 -0.265258
-0.681648 1.313409 -0.266148
-0.679238 1.314417 -0.266640
-0.677664 1.317053 -0.267926
-0.676919 1.321320 -0.270008
-0.674910 1.323138 -0.270895
-0.672481 1.324135 -0.271382
-0.667984 1.321036 -0.269870
-0.664736 1.320384 -0.269551
-0.662723 1.322185 -0.270430
-0.660704 1.323983 -0.271308
-0.659087 1.326600 -0.272585
-0.658272 1.330859 -0.274663
-0.657039 1.334297 -0.276340
-0.655794 1.337735 -0.278017
-0.652936 1.337879 -0.278087
-0.651276 1.340490 -0.279361
-0.648416 1.340625 -0.279427
-0.646745 1.343231 -0.280699
-0.643883 1.343358 -0.280761
-0.641414 1.344307 -0.281224
-0.638945 1.345251 -0.281685
-0.637251 1.347847 -0.282952
-0.637099 1.353757 -0.285835
-0.634997 1.355524 -0.286697
-0.634042 1.359777 -0.288772
-0.631542 1.360710 -0.289227
-0.629802 1.363301 -0.290491
-0.626916 1.363395 -0.290538
-0.625165 1.365982 -0.291800
-0.623781 1.369399 -0.293467
-0.621637 1.371149 -0.294321
-0.619488 1.372896 -0.295173
-0.617334 1.374641 -0.296025
-0.615175 1.376382 -0.296874
-0.612642 1.377286 -0.297315
-0.609742 1.377349 -0.297346
-0.609032 1.382428 -0.299824
-0.607215 1.384996 -0.301077
-0.605751 1.388401 -0.302738
-0.603195 1.389289 -0.303172
-0.601354 1.391852 -0.304422
-0.598079 1.391054 -0.304033
-0.592677 1.385210 -0.301181
-0.589421 1.384396 -0.300784
-0.587577 1.386942 -0.302026
-0.588526 1.396220 -0.306553
-0.588047 1.402136 -0.309440
-0.585811 1.403839 -0.310271
-0.585643 1.410601 -0.313570
-0.583044 1.411458 -0.313988
-0.580444 1.412311 -0.314404
-0.577842 1.413159 -0.314819
-0.575916 1.415695 -0.316056
-0.575330 1.421614 -0.318944
-0.573045 1.423301 -0.319767
-0.570088 1.423291 -0.319762
-0.567797 1.424972 -0.320582
-0.564509 1.424104 -0.320159
-0.562871 1.427474 -0.321803
-0.561876 1.432541 -0.324276
-0.559886 1.435061 -0.325505
-0.557564 1.436728 -0.326318
-0.555559 1.439242 -0.327545
-0.552904 1.440052 -0.327940
-0.551206 1.443413 -0.329580
-0.548860 1.445068 -0.330387
-0.546195 1.445867 -0.330777
-0.544784 1.450075 -0.332831
-0.543046 1.453429 -0.334467
-0.540053 1.453365 -0.334436
-0.539844 1.460989 -0.338155
-0.535610 1.457497 -0.336452
-0.530781 1.452286 -0.333909
-0.527189 1.450488 -0.333032
-0.527537 1.459820 -0.337585
-0.525444 1.462300 -0.338795
-0.523343 1.464778 -0.340004
-0.523911 1.474976 -0.344980
-0.521483 1.476594 -0.345770
-0.516698 1.471338 -0.343205
-0.511057 1.463492 -0.339377
-0.508065 1.463372 -0.339318
-0.506232 1.466688 -0.340936
-0.507260 1.478611 -0.346754
-0.506815 1.486235 -0.350474
-0.505205 1.490415 -0.352513
-0.505840 1.501492 -0.357918
-0.504187 1.505674 -0.359958
-0.501404 1.506403 -0.360314
-0.498342 1.506264 -0.360246
-0.495007 1.505256 -0.359755
-0.490033 1.499056 -0.356730
-0.486446 1.497169 -0.355809
-0.486114 1.505657 -0.359950
-0.484138 1.508954 -0.361559
-0.482150 1.512250 -0.363167
-0.479620 1.513811 -0.363929
-0.477876 1.517969 -0.365958
-0.475332 1.519524 -0.366716
-0.472782 1.521076 -0.367473
-0.469969 1.521756 -0.367805
-0.467669 1.524168 -0.368982
-0.465872 1.528315 -0.371006
-0.463552 1.530723 -0.372180
-0.461477 1.533997 -0.373778
-0.458889 1.535529 -0.374525
-0.456296 1.537058 -0.375271
-0.453699 1.538583 -0.376015
-0.451343 1.540975 -0.377182
-0.448979 1.543364 -0.378348
-0.446848 1.546623 -0.379938
-0.444706 1.549879 -0.381527
-0.442076 1.551388 -0.382263
-0.439441 1.552892 -0.382997
-0.437271 1.556140 -0.384582
-0.435091 1.559386 -0.386166
-0.433130 1.563504 -0.388175
-0.430465 1.564996 -0.388903
-0.428023 1.567359 -0.390056
-0.425800 1.570595 -0.391635
-0.423341 1.572952 -0.392785
-0.420651 1.574430 -0.393506
-0.417734 1.575028 -0.393798
-0.415476 1.578252 -0.395371
-0.412988 1.580596 -0.396514
-0.410276 1.582059 -0.397228
-0.408418 1.587030 -0.399654
-0.406330 1.591121 -0.401650
-0.403592 1.592575 -0.402359
-0.401269 1.595782 -0.403924
-0.398311 1.596350 -0.404201
-0.395764 1.598671 -0.405334
-0.393823 1.603629 -0.407753
-0.391255 1.605945 -0.408883
-0.389283 1.610898 -0.411299
-0.386296 1.611447 -0.411567
-0.385086 1.619920 -0.415701
-0.382277 1.621343 -0.416396
-0.378493 1.618354 -0.414938
-0.375684 1.619768 -0.415627
-0.374015 1.626471 -0.418898
-0.372510 1.634056 -0.422599
-0.369478 1.634578 -0.422853
-0.366816 1.636862 -0.423968
-0.365617 1.646209 -0.428528
-0.362561 1.646721 -0.428778
-0.360227 1.650763 -0.430750
-0.356804 1.649498 -0.430133
-0.352680 1.644688 -0.427786
-0.351380 1.654027 -0.432343
-0.349525 1.660712 -0.435605
-0.346269 1.660313 -0.435410
-0.344037 1.665222 -0.437805
-0.339091 1.655955 -0.433284
-0.336683 1.659970 -0.435242
-0.332775 1.656004 -0.433307
-0.331170 1.664444 -0.437425
-0.329857 1.674657 -0.442409
-0.326426 1.673338 -0.441765
-0.323950 1.677338 -0.443717
-0.321146 1.679559 -0.444801
-0.318335 1.681777 -0.445883
-0.315975 1.686655 -0.448263
-0.313295 1.689753 -0.449775
-0.310304 1.691071 -0.450418
-0.307309 1.692385 -0.451059
-0.304455 1.694583 -0.452131
-0.301594 1.696777 -0.453202
-0.298726 1.698967 -0.454270
-0.295990 1.702043 -0.455771
-0.293522 1.706895 -0.458138
-0.290348 1.707293 -0.458333
-0.287581 1.710358 -0.459828
-0.284669 1.712528 -0.460887
-0.282013 1.716476 -0.462813
-0.279082 1.718638 -0.463868
-0.276272 1.721688 -0.465356
-0.273324 1.723842 -0.466407
-0.270995 1.730450 -0.469631
-0.267899 1.731705 -0.470244
-0.265043 1.734739 -0.471724
-0.262055 1.736877 -0.472767
-0.258942 1.738118 -0.473373
-0.256058 1.741140 -0.474847
-0.253392 1.745943 -0.477191
-0.250935 1.752529 -0.480404
-0.248453 1.759113 -0.483616
-0.245508 1.762120 -0.485084
-0.242443 1.764230 -0.486113
-0.239158 1.764548 -0.486268
-0.236604 1.771118 -0.489474
-0.233409 1.772321 -0.490061
-0.230512 1.776201 -0.491954
-0.227403 1.778289 -0.492973
-0.224481 1.782161 -0.494862
-0.220970 1.780662 -0.494131
-0.218217 1.786315 -0.496889
-0.214982 1.787490 -0.497462
-0.212377 1.794925 -0.501090
-0.209477 1.799672 -0.503406
-0.206123 1.799938 -0.503536
-0.202769 1.800199 -0.503663
-0.199833 1.804933 -0.505973
-0.197125 1.812350 -0.509592
-0.193827 1.813492 -0.510149
-0.191231 1.822694 -0.514639
-0.788925 1.196637 -0.207248
-0.791365 1.204759 -0.211197
-0.790703 1.208258 -0.212898
-0.789009 1.210211 -0.213847
-0.788836 1.214484 -0.215925
-0.786619 1.215661 -0.216497
-0.784906 1.217610 -0.217445
-0.782178 1.218004 -0.217637
-0.780457 1.219948 -0.218582
-0.778731 1.221889 -0.219526
-0.778000 1.225387 -0.221226
-0.775263 1.225767 -0.221411
-0.774018 1.228483 -0.222732
-0.771774 1.229637 -0.223293
-0.770022 1.231569 -0.224232
-0.767772 1.232716 -0.224790
-0.767483 1.236994 -0.226870
-0.763265 1.235000 -0.225900
-0.761008 1.236137 -0.226453
-0.758749 1.237270 -0.227004
-0.758427 1.241545 -0.229083
-0.755674 1.241887 -0.229249
-0.752922 1.242224 -0.229413
-0.751612 1.244922 -0.230724
-0.750293 1.247619 -0.232036
-0.750875 1.253478 -0.234884
-0.747631 1.253013 -0.234658
-0.745340 1.254125 -0.235199
-0.743046 1.255233 -0.235738
-0.741692 1.257925 -0.237047
-0.740799 1.261410 -0.238741
-0.740363 1.265690 -0.240822
-0.738513 1.267586 -0.241744
-0.735263 1.267092 -0.241504
-0.732017 1.266590 -0.241260
-0.729699 1.267678 -0.241789
-0.726919 1.267963 -0.241927
-0.724598 1.269043 -0.242452
-0.723190 1.271718 -0.243753
-0.722228 1.275194 -0.245443
-0.722164 1.280272 -0.247912
-0.719367 1.280542 -0.248044
-0.717472 1.282413 -0.248953
-0.714225 1.281871 -0.248689
-0.712773 1.284539 -0.249987
-0.711759 1.288010 -0.251675
-0.709399 1.289066 -0.252188
-0.707038 1.290118 -0.252699
-0.705115 1.291973 -0.253602
-0.703628 1.294634 -0.254895
-0.702571 1.298102 -0.256581
-0.701939 1.302379 -0.258661
-0.699551 1.303419 -0.259167
-0.697162 1.304456 -0.259671
-0.694770 1.305488 -0.260173
-0.692377 1.306517 -0.260673
-0.689552 1.306730 -0.260777
-0.688011 1.309377 -0.262064
-0.686462 1.312023 -0.263350
-0.684904 1.314668 -0.264636
-0.683761 1.318127 -0.266318
-0.680501 1.317507 -0.266016
-0.679342 1.320963 -0.267697
-0.677755 1.323601 -0.268980
-0.674493 1.322968 -0.268672
-0.669578 1.319055 -0.266769
-0.666332 1.318407 -0.266454
-0.665148 1.321850 -0.268128
-0.663133 1.323653 -0.269005
-0.661521 1.326274 -0.270279
-0.658680 1.326429 -0.270355
-0.657867 1.330690 -0.272426
-0.656231 1.333307 -0.273699
-0.654588 1.335923 -0.274970
-0.652536 1.337713 -0.275841
-0.649681 1.337851 -0.275908
-0.648019 1.340459 -0.277176
-0.645953 1.342241 -0.278042
-0.645064 1.346500 -0.280113
-0.642592 1.347451 -0.280575
-0.639726 1.347570 -0.280633
-0.638029 1.350170 -0.281897
-0.635937 1.351938 -0.282757
-0.634225 1.354534 -0.284020
-0.633658 1.359619 -0.286492
-0.631159 1.360553 -0.286946
-0.628278 1.360650 -0.286993
-0.626157 1.362407 -0.287847
-0.624787 1.365826 -0.289510
-0.623029 1.368411 -0.290767
-0.620513 1.369328 -0.291212
-0.618369 1.371075 -0.292062
-0.616591 1.373654 -0.293316
-0.615175 1.377067 -0.294975
-0.613747 1.380479 -0.296634
-0.612307 1.383891 -0.298293
-0.609762 1.384791 -0.298731
-0.607215 1.385686 -0.299166
-0.604304 1.385739 -0.299192
-0.602115 1.387465 -0.300031
-0.599563 1.388348 -0.300460
-0.598792 1.393429 -0.302931
-0.596228 1.394307 -0.303358
-0.594369 1.396864 -0.304601
-0.594965 1.405311 -0.308708
-0.591678 1.404499 -0.308313
-0.590487 1.408738 -0.310374
-0.587199 1.407916 -0.309974
-0.584607 1.408776 -0.310393
-0.583044 1.412165 -0.312041
-0.580102 1.412174 -0.312045
-0.578182 1.414714 -0.313280
-0.576593 1.418098 -0.314925
-0.574656 1.420635 -0.316159
-0.572039 1.421475 -0.316567
-0.568753 1.420616 -0.316149
-0.566801 1.423144 -0.317378
-0.565831 1.428215 -0.319844
-0.563529 1.429891 -0.320659
-0.560894 1.430714 -0.321059
-0.558909 1.433233 -0.322284
-0.556592 1.434900 -0.323094
-0.554270 1.436563 -0.323903
-0.552263 1.439075 -0.325124
-0.549930 1.440732 -0.325930
-0.548226 1.444093 -0.327564
-0.546195 1.446598 -0.328782
-0.542900 1.445686 -0.328339
-0.540859 1.448185 -0.329554
-0.539432 1.452392 -0.331599
-0.538917 1.459164 -0.334892
-0.535610 1.458236 -0.334441
-0.531392 1.454734 -0.332738
-0.531750 1.464074 -0.337279
-0.525118 1.453702 -0.332237
-0.525745 1.463900 -0.337195
-0.524240 1.468096 -0.339235
-0.521829 1.469716 -0.340022
-0.518821 1.469614 -0.339973
-0.515522 1.468647 -0.339503
-0.513981 1.472835 -0.341539
-0.515624 1.486487 -0.348177
-0.507966 1.472599 -0.341424
-0.508984 1.484532 -0.347227
-0.505100 1.481822 -0.345909
-0.506909 1.496350 -0.352972
-0.501605 1.489319 -0.349554
-0.501100 1.496950 -0.353264
-0.497777 1.495947 -0.352777
-0.495847 1.499259 -0.354387
-0.493353 1.500840 -0.355156
-0.491676 1.505013 -0.357184
-0.489985 1.509184 -0.359212
-0.486926 1.509025 -0.359135
-0.483869 1.508861 -0.359056
-0.481883 1.512159 -0.360659
-0.479354 1.513721 -0.361418
-0.477085 1.516146 -0.362598
-0.473758 1.515097 -0.362088
-0.470959 1.515779 -0.362419
-0.469451 1.520800 -0.364860
-0.467412 1.524082 -0.366456
-0.465616 1.528232 -0.368474
-0.462537 1.528031 -0.368376
-0.460720 1.532176 -0.370392
-0.458138 1.533708 -0.371137
-0.456545 1.538721 -0.373574
-0.454687 1.542862 -0.375587
-0.451834 1.543513 -0.375904
-0.449466 1.545905 -0.377067
-0.447090 1.548294 -0.378228
-0.444946 1.551553 -0.379813
-0.442314 1.553063 -0.380547
-0.439678 1.554569 -0.381279
-0.437036 1.556071 -0.382010
-0.435091 1.560193 -0.384014
-0.433594 1.566063 -0.386868
-0.430925 1.567557 -0.387594
-0.428252 1.569047 -0.388319
-0.425800 1.571409 -0.389467
-0.423341 1.573768 -0.390614
-0.420427 1.574371 -0.390907
-0.417734 1.575846 -0.391624
-0.415476 1.579072 -0.393193
-0.412988 1.581417 -0.394333
-0.410493 1.583759 -0.395472
-0.408418 1.587855 -0.397464
-0.406543 1.592828 -0.399881
-0.403169 1.591646 -0.399307
-0.400640 1.593976 -0.400439
-0.397895 1.595422 -0.401143
-0.394939 1.595985 -0.401416
-0.393210 1.601825 -0.404256
-0.390647 1.604141 -0.405382
-0.388278 1.607335 -0.406935
-0.385100 1.607001 -0.406773
-0.383110 1.611952 -0.409180
-0.380514 1.614255 -0.410299
-0.379852 1.625377 -0.415707
-0.377801 1.630323 -0.418112
-0.375732 1.635268 -0.420516
-0.372132 1.633147 -0.419485
-0.368353 1.630135 -0.418021
-0.364773 1.628000 -0.416983
-0.363226 1.635583 -0.420669
-0.362015 1.644934 -0.425216
-0.361310 1.656939 -0.431053
-0.355910 1.645941 -0.425706
-0.349846 1.631391 -0.418631
-0.348750 1.641617 -0.423603
-0.346920 1.648302 -0.426854
-0.345925 1.659416 -0.432257
-0.342164 1.656352 -0.430768
-0.339428 1.658600 -0.431861
-0.336183 1.658184 -0.431658
-0.332775 1.656876 -0.431022
-0.330843 1.663547 -0.434266
-0.328725 1.669329 -0.437077
-0.326266 1.673334 -0.439025
-0.323475 1.675560 -0.440107
-0.320521 1.676894 -0.440755
-0.318026 1.680889 -0.442698
-0.315516 1.684881 -0.444639
-0.312538 1.686203 -0.445282
-0.309855 1.689299 -0.446787
-0.306865 1.690613 -0.447426
-0.304309 1.694591 -0.449360
-0.301883 1.699456 -0.451726
-0.298868 1.700758 -0.452359
-0.295849 1.702056 -0.452989
-0.292965 1.704239 -0.454051
-0.290073 1.706418 -0.455111
-0.287310 1.709485 -0.456601
-0.284535 1.712547 -0.458090
-0.282013 1.717389 -0.460445
-0.279212 1.720444 -0.461930
-0.276272 1.722604 -0.462980
-0.273578 1.726544 -0.464896
-0.270618 1.728695 -0.465942
-0.267157 1.727273 -0.465250
-0.264311 1.730308 -0.466726
-0.262055 1.737803 -0.470370
-0.259060 1.739938 -0.471409
-0.255941 1.741176 -0.472010
-0.252932 1.743302 -0.473044
-0.250822 1.752573 -0.477551
-0.247785 1.754692 -0.478582
-0.244849 1.757700 -0.480044
-0.242335 1.764281 -0.483244
-0.239158 1.765493 -0.483834
-0.236291 1.769384 -0.485725
-0.232997 1.769693 -0.485875
-0.230512 1.777154 -0.489503
-0.227701 1.781928 -0.491824
-0.224481 1.783118 -0.492403
-0.221545 1.786989 -0.494285
-0.218688 1.791751 -0.496601
-0.215536 1.793823 -0.497608
-0.212377 1.795890 -0.498613
-0.209033 1.796162 -0.498745
-0.205949 1.799115 -0.500181
-0.202940 1.802960 -0.502051
-0.199749 1.805009 -0.503047
-0.196387 1.805260 -0.503169
-0.193426 1.809988 -0.505468
-0.190917 1.820092 -0.510380
-0.785203 1.196147 -0.204787
-0.790191 1.208142 -0.210596
-0.787988 1.209322 -0.211167
-0.786291 1.211273 -0.212112
-0.784589 1.213222 -0.213056
-0.784400 1.217498 -0.215126
-0.782683 1.219446 -0.216069
-0.779954 1.219836 -0.216258
-0.778731 1.222557 -0.217576
-0.776500 1.223719 -0.218139
-0.774266 1.224877 -0.218700
-0.773024 1.227594 -0.220015
-0.770288 1.227965 -0.220195
-0.769528 1.231461 -0.221888
-0.767279 1.232609 -0.222444
-0.765519 1.234537 -0.223377
-0.763265 1.235678 -0.223930
-0.761008 1.236815 -0.224481
-0.758749 1.237949 -0.225030
-0.757457 1.240654 -0.226339
-0.755191 1.241782 -0.226886
-0.753404 1.243696 -0.227812
-0.752092 1.246397 -0.229120
-0.750772 1.249097 -0.230428
-0.748489 1.250215 -0.230969
-0.748107 1.254496 -0.233042
-0.745814 1.255610 -0.233582
-0.745881 1.260686 -0.236040
-0.740279 1.256238 -0.233886
-0.739390 1.259724 -0.235574
-0.737555 1.261619 -0.236492
-0.736181 1.264309 -0.237794
-0.732474 1.263013 -0.237167
-0.730164 1.264102 -0.237694
-0.729238 1.267582 -0.239379
-0.728300 1.271064 -0.241065
-0.726433 1.272946 -0.241977
-0.725475 1.276427 -0.243662
-0.723140 1.277505 -0.244184
-0.720802 1.278579 -0.244705
-0.719367 1.281256 -0.246000
-0.717022 1.282324 -0.246518
-0.714674 1.283389 -0.247033
-0.712325 1.284450 -0.247547
-0.709974 1.285507 -0.248059
-0.708065 1.287367 -0.248960
-0.706594 1.290032 -0.250250
-0.704674 1.291888 -0.251149
-0.703188 1.294549 -0.252438
-0.702571 1.298828 -0.254510
-0.700192 1.299870 -0.255015
-0.700422 1.305771 -0.257872
-0.696294 1.303565 -0.256804
-0.695634 1.307844 -0.258876
-0.692807 1.308063 -0.258982
-0.691268 1.310716 -0.260266
-0.687584 1.309299 -0.259580
-0.685610 1.311132 -0.260468
-0.683207 1.312147 -0.260960
-0.682493 1.316422 -0.263029
-0.681764 1.320698 -0.265100
-0.680601 1.324158 -0.266776
-0.677337 1.323530 -0.266472
-0.671996 1.318804 -0.264183
-0.670407 1.321436 -0.265458
-0.667158 1.320789 -0.265144
-0.664325 1.320955 -0.265224
-0.661903 1.321936 -0.265700
-0.660704 1.325379 -0.267367
-0.659087 1.328000 -0.268636
-0.656651 1.328974 -0.269108
-0.654617 1.330767 -0.269976
-0.652578 1.332558 -0.270843
-0.650134 1.333522 -0.271310
-0.647687 1.334481 -0.271775
-0.645636 1.336263 -0.272637
-0.644371 1.339695 -0.274300
-0.643489 1.343955 -0.276362
-0.642199 1.347388 -0.278024
-0.640117 1.349163 -0.278884
-0.638029 1.350937 -0.279743
-0.635937 1.352707 -0.280600
-0.634225 1.355305 -0.281858
-0.631352 1.355408 -0.281908
-0.628863 1.356339 -0.282359
-0.626373 1.357265 -0.282807
-0.625778 1.362350 -0.285270
-0.624409 1.365772 -0.286927
-0.622276 1.367525 -0.287776
-0.620888 1.370944 -0.289432
-0.618369 1.371858 -0.289874
-0.615477 1.371932 -0.289910
-0.614065 1.375346 -0.291563
-0.612642 1.378759 -0.293216
-0.610475 1.380497 -0.294058
-0.608667 1.383070 -0.295304
-0.606851 1.385642 -0.296549
-0.604666 1.387373 -0.297387
-0.602835 1.389940 -0.298630
-0.599921 1.389985 -0.298652
-0.597365 1.390866 -0.299078
-0.594808 1.391742 -0.299503
-0.593663 1.395983 -0.301556
-0.590743 1.396011 -0.301570
-0.589226 1.399407 -0.303214
-0.590835 1.410393 -0.308535
-0.589281 1.413792 -0.310180
-0.587024 1.415501 -0.311008
-0.585106 1.418052 -0.312243
-0.580444 1.413835 -0.310201
-0.578182 1.415531 -0.311022
-0.575577 1.416377 -0.311432
-0.573307 1.418067 -0.312251
-0.571368 1.420602 -0.313478
-0.568753 1.421438 -0.313883
-0.567133 1.424816 -0.315519
-0.564509 1.425645 -0.315920
-0.562871 1.429020 -0.317554
-0.560240 1.429842 -0.317953
-0.558258 1.432363 -0.319173
-0.556268 1.434881 -0.320392
-0.553947 1.436545 -0.321198
-0.551943 1.439058 -0.322415
-0.550249 1.442423 -0.324045
-0.547909 1.444079 -0.324846
-0.545248 1.444878 -0.325233
-0.543842 1.449090 -0.327273
-0.541484 1.450738 -0.328071
-0.539742 1.454093 -0.329696
-0.537062 1.454879 -0.330077
-0.535610 1.459087 -0.332114
-0.535366 1.466722 -0.335811
-0.534182 1.471788 -0.338265
-0.532677 1.475997 -0.340303
-0.528150 1.471622 -0.338184
-0.524240 1.468954 -0.336892
-0.519153 1.462842 -0.333932
-0.517639 1.467034 -0.335963
-0.513757 1.464345 -0.334660
-0.511642 1.466811 -0.335855
-0.509228 1.468414 -0.336631
-0.508255 1.474322 -0.339492
-0.508409 1.483679 -0.344023
-0.506529 1.487004 -0.345633
-0.504637 1.490326 -0.347242
-0.502734 1.493647 -0.348850
-0.501381 1.498695 -0.351294
-0.496661 1.493370 -0.348716
-0.495015 1.497548 -0.350738
-0.489218 1.488746 -0.346477
-0.490855 1.503303 -0.353525
-0.486718 1.499682 -0.351772
-0.485303 1.504717 -0.354210
-0.482524 1.505417 -0.354549
-0.480280 1.507848 -0.355726
-0.478558 1.512011 -0.357742
-0.476293 1.514437 -0.358917
-0.474283 1.517729 -0.360511
-0.472001 1.520150 -0.361684
-0.469451 1.521699 -0.362434
-0.467155 1.524114 -0.363603
-0.464594 1.525656 -0.364350
-0.463045 1.530677 -0.366781
-0.461477 1.535697 -0.369212
-0.458638 1.536360 -0.369533
-0.456048 1.537891 -0.370274
-0.453946 1.541161 -0.371858
-0.451588 1.543558 -0.373019
-0.449466 1.546824 -0.374600
-0.446606 1.547468 -0.374912
-0.443745 1.548108 -0.375222
-0.441360 1.550491 -0.376376
-0.438730 1.551997 -0.377105
-0.437036 1.556998 -0.379527
-0.433690 1.555872 -0.378982
-0.431276 1.558242 -0.380129
-0.428394 1.558858 -0.380428
-0.428480 1.570860 -0.386240
-0.425574 1.571471 -0.386535
-0.423341 1.574709 -0.388103
-0.420651 1.576189 -0.388820
-0.417734 1.576788 -0.389110
-0.415036 1.578260 -0.389823
-0.412334 1.579728 -0.390534
-0.410060 1.582950 -0.392094
-0.407989 1.587048 -0.394079
-0.405690 1.590265 -0.395636
-0.402747 1.590841 -0.395915
-0.400221 1.593171 -0.397044
-0.397687 1.595499 -0.398171
-0.395764 1.600465 -0.400575
-0.393210 1.602786 -0.401700
-0.390647 1.605105 -0.402822
-0.387675 1.605656 -0.403089
-0.385299 1.608849 -0.404636
-0.382714 1.611157 -0.405753
-0.380710 1.616109 -0.408151
-0.377133 1.613996 -0.407128
-0.376069 1.623359 -0.411662
-0.373633 1.626538 -0.413201
-0.371943 1.633249 -0.416451
-0.369290 1.635540 -0.417560
-0.366259 1.636058 -0.417811
-0.363778 1.639225 -0.419345
-0.362926 1.650354 -0.424734
-0.360046 1.651747 -0.425408
-0.358235 1.658449 -0.428654
-0.355159 1.658950 -0.428896
-0.351380 1.655901 -0.427420
-0.347441 1.651959 -0.425511
-0.343862 1.649783 -0.424457
-0.340803 1.650261 -0.424689
-0.338754 1.656057 -0.427496
-0.337683 1.667177 -0.432880
-0.334756 1.668532 -0.433537
-0.330680 1.663669 -0.431181
-0.327756 1.665014 -0.431833
-0.325147 1.668132 -0.433343
-0.322685 1.672136 -0.435282
-0.320521 1.677914 -0.438080
-0.317562 1.679245 -0.438724
-0.314445 1.679681 -0.438935
-0.311480 1.681003 -0.439575
-0.309556 1.688549 -0.443230
-0.306865 1.691644 -0.444728
-0.303871 1.692954 -0.445363
-0.301161 1.696041 -0.446858
-0.298440 1.699124 -0.448351
-0.295427 1.700422 -0.448979
-0.293104 1.706172 -0.451763
-0.290211 1.708353 -0.452819
-0.287310 1.710530 -0.453874
-0.284937 1.716270 -0.456654
-0.281881 1.717548 -0.457272
-0.278951 1.719713 -0.458321
-0.275628 1.719197 -0.458071
-0.272942 1.723138 -0.459979
-0.270117 1.726184 -0.461454
-0.266910 1.726546 -0.461629
-0.263946 1.728689 -0.462667
-0.261575 1.735296 -0.465867
-0.258587 1.737432 -0.466901
-0.256058 1.743140 -0.469665
-0.252932 1.744374 -0.470262
-0.250256 1.749180 -0.472590
-0.247562 1.753983 -0.474916
-0.244520 1.756099 -0.475940
-0.242227 1.764474 -0.479996
-0.238945 1.764792 -0.480150
-0.235768 1.766000 -0.480735
-0.233100 1.771680 -0.483485
-0.229906 1.772879 -0.484066
-0.226906 1.775864 -0.485512
-0.223798 1.777950 -0.486522
-0.221257 1.785406 -0.490132
-0.218312 1.789276 -0.492006
-0.215167 1.791349 -0.493010
-0.212649 1.799692 -0.497050
-0.209477 1.801756 -0.498049
-0.206036 1.801126 -0.497744
-0.202513 1.799594 -0.497002
-0.199331 1.801644 -0.497995
-0.196305 1.805483 -0.499854
-0.193265 1.809317 -0.501711
-0.190368 1.814942 -0.504434
-0.787380 1.195350 -0.203097
-0.787770 1.200389 -0.205531
-0.787119 1.203886 -0.207221
-0.787477 1.208933 -0.209659
-0.786291 1.211659 -0.210976
-0.784589 1.213609 -0.211918
-0.783388 1.216334 -0.213234
-0.780665 1.216726 -0.213423
-0.779954 1.220226 -0.215114
-0.777227 1.220611 -0.215300
-0.775500 1.222551 -0.216237
-0.773269 1.223708 -0.216797
-0.772031 1.226425 -0.218109
-0.769297 1.226794 -0.218287
-0.767552 1.228725 -0.219220
-0.766294 1.231437 -0.220530
-0.765028 1.234149 -0.221840
-0.762775 1.235289 -0.222391
-0.760032 1.235641 -0.222561
-0.758263 1.237561 -0.223488
-0.755033 1.237116 -0.223273
-0.754708 1.241394 -0.225340
-0.754368 1.245675 -0.227408
-0.753053 1.248378 -0.228714
-0.751251 1.250291 -0.229638
-0.748967 1.251410 -0.230179
-0.746204 1.251733 -0.230335
-0.744866 1.254430 -0.231638
-0.743518 1.257126 -0.232940
-0.740750 1.257439 -0.233091
-0.738452 1.258542 -0.233624
-0.737087 1.261232 -0.234924
-0.735714 1.263922 -0.236223
-0.733869 1.265814 -0.237137
-0.733407 1.270098 -0.239207
-0.731085 1.271189 -0.239734
-0.729680 1.273875 -0.241031
-0.727809 1.275760 -0.241942
-0.725475 1.276842 -0.242465
-0.720862 1.273913 -0.241050
-0.719440 1.276589 -0.242343
-0.718009 1.279264 -0.243635
-0.715669 1.280331 -0.244150
-0.715124 1.284612 -0.246218
-0.712325 1.284869 -0.246343
-0.712205 1.289956 -0.248800
-0.709844 1.291014 -0.249311
-0.708367 1.293682 -0.250600
-0.705557 1.293926 -0.250718
-0.703628 1.295782 -0.251614
-0.701256 1.296826 -0.252119
-0.700192 1.300297 -0.253795
-0.697375 1.300525 -0.253905
-0.695427 1.302370 -0.254797
-0.693474 1.304214 -0.255688
-0.691946 1.306867 -0.256970
-0.690410 1.309520 -0.258251
-0.689721 1.313800 -0.260318
-0.687313 1.314822 -0.260812
-0.684904 1.315841 -0.261304
-0.682916 1.317671 -0.262189
-0.680080 1.317866 -0.262283
-0.678923 1.321326 -0.263954
-0.676083 1.321513 -0.264045
-0.673245 1.321695 -0.264133
-0.669578 1.320233 -0.263427
-0.667158 1.321224 -0.263905
-0.665148 1.323032 -0.264778
-0.663133 1.324837 -0.265650
-0.660704 1.325817 -0.266124
-0.657867 1.325971 -0.266198
-0.655841 1.327767 -0.267066
-0.653810 1.329560 -0.267932
-0.652176 1.332175 -0.269195
-0.650534 1.334788 -0.270458
-0.648086 1.335749 -0.270922
-0.647225 1.340011 -0.272981
-0.646349 1.344275 -0.275040
-0.644277 1.346056 -0.275901
-0.642199 1.347835 -0.276761
-0.638945 1.347125 -0.276418
-0.636862 1.348897 -0.277274
-0.635549 1.352327 -0.278930
-0.633453 1.354095 -0.279784
-0.631352 1.355860 -0.280637
-0.630777 1.360950 -0.283096
-0.629421 1.364377 -0.284752
-0.627295 1.366137 -0.285602
-0.624031 1.365394 -0.285243
-0.620771 1.364645 -0.284881
-0.618640 1.366393 -0.285726
-0.617623 1.370646 -0.287780
-0.615848 1.373227 -0.289027
-0.614805 1.377479 -0.291081
-0.611906 1.377547 -0.291114
-0.609742 1.379284 -0.291953
-0.607208 1.380181 -0.292386
-0.606125 1.384429 -0.294439
-0.604304 1.386999 -0.295680
-0.601395 1.387047 -0.295703
-0.598846 1.387930 -0.296130
-0.597365 1.391333 -0.297774
-0.594808 1.392210 -0.298198
-0.594723 1.398980 -0.301468
-0.592502 1.400695 -0.302297
-0.591328 1.404938 -0.304346
-0.582121 1.389771 -0.297019
-0.581995 1.396535 -0.300287
-0.583571 1.407529 -0.305598
-0.582357 1.411767 -0.307645
-0.577708 1.407543 -0.305605
-0.580905 1.422783 -0.312967
-0.578626 1.424481 -0.313787
-0.576004 1.425329 -0.314197
-0.572039 1.422779 -0.312965
-0.569087 1.422768 -0.312959
-0.566801 1.424449 -0.313772
-0.564840 1.426978 -0.314993
-0.562542 1.428654 -0.315803
-0.560894 1.432029 -0.317434
-0.558258 1.432849 -0.317830
-0.555620 1.433664 -0.318223
-0.553947 1.437033 -0.319851
-0.552263 1.440400 -0.321478
-0.549611 1.441207 -0.321867
-0.546957 1.442008 -0.322254
-0.543670 1.441097 -0.321814
-0.541644 1.443600 -0.323023
-0.540859 1.449522 -0.325884
-0.539121 1.452878 -0.327505
-0.538608 1.459657 -0.330780
-0.534381 1.456158 -0.329090
-0.530169 1.452649 -0.327395
-0.528709 1.456852 -0.329425
-0.522699 1.448180 -0.325236
-0.522738 1.456668 -0.329336
-0.517661 1.450554 -0.326383
-0.520639 1.467640 -0.334637
-0.518230 1.469257 -0.335418
-0.517286 1.475173 -0.338276
-0.512227 1.469035 -0.335311
-0.512135 1.477532 -0.339415
-0.509122 1.477413 -0.339358
-0.506110 1.477289 -0.339298
-0.503958 1.479749 -0.340486
-0.501513 1.481342 -0.341256
-0.501605 1.490706 -0.345780
-0.499135 1.492297 -0.346548
-0.492198 1.480049 -0.340631
-0.489468 1.480761 -0.340975
-0.487565 1.484065 -0.342571
-0.490033 1.501223 -0.350860
-0.488624 1.506263 -0.353295
-0.486114 1.507836 -0.354055
-0.483869 1.510273 -0.355232
-0.481081 1.510971 -0.355569
-0.478558 1.512534 -0.356324
-0.476293 1.514961 -0.357497
-0.474021 1.517385 -0.358668
-0.471480 1.518938 -0.359418
-0.468934 1.520486 -0.360166
-0.466640 1.522902 -0.361333
-0.464339 1.525314 -0.362498
-0.463552 1.532950 -0.366187
-0.460720 1.533616 -0.366509
-0.458138 1.535150 -0.367250
-0.455053 1.534936 -0.367146
-0.452958 1.538207 -0.368726
-0.449871 1.537984 -0.368619
-0.448735 1.544742 -0.371884
-0.446122 1.546259 -0.372616
-0.443985 1.549520 -0.374192
-0.441122 1.550156 -0.374499
-0.438257 1.550787 -0.374804
-0.436331 1.554915 -0.376798
-0.433690 1.556414 -0.377522
-0.433594 1.567545 -0.382899
-0.433455 1.578680 -0.388278
-0.430078 1.577546 -0.387731
-0.426934 1.577283 -0.387603
-0.422891 1.573505 -0.385778
-0.420651 1.576741 -0.387341
-0.416626 1.572949 -0.385510
-0.414377 1.576177 -0.387069
-0.411679 1.577645 -0.387779
-0.409627 1.581746 -0.389760
-0.408633 1.590243 -0.393864
-0.405477 1.589943 -0.393720
-0.403169 1.593159 -0.395273
-0.400221 1.593731 -0.395549
-0.397687 1.596059 -0.396674
-0.394939 1.597503 -0.397372
-0.392187 1.598943 -0.398067
-0.389836 1.602143 -0.399613
-0.387071 1.603575 -0.400305
-0.385498 1.610298 -0.403553
-0.383110 1.613490 -0.405095
-0.381494 1.620211 -0.408341
-0.379658 1.626048 -0.411161
-0.378379 1.634535 -0.415261
-0.374778 1.632416 -0.414237
-0.370997 1.629406 -0.412783
-0.369665 1.637887 -0.416881
-0.364773 1.629558 -0.412857
-0.360283 1.622989 -0.409683
-0.358006 1.627034 -0.411638
-0.359324 1.648790 -0.422148
-0.356447 1.650179 -0.422819
-0.354273 1.655108 -0.425200
-0.350153 1.650283 -0.422869
-0.346573 1.648111 -0.421820
-0.343174 1.646820 -0.421196
-0.341994 1.657057 -0.426141
-0.340270 1.664633 -0.429801
-0.338851 1.673984 -0.434319
-0.334591 1.668238 -0.431543
-0.332150 1.672255 -0.433483
-0.328079 1.667383 -0.431130
-0.325147 1.668725 -0.431778
-0.322526 1.671842 -0.433284
-0.319895 1.674954 -0.434787
-0.317407 1.678953 -0.436719
-0.314751 1.682060 -0.438220
-0.311933 1.684272 -0.439289
