# This PCD file was generated using the MATLAB® pcwrite function
# from Computer Vision System Toolbox®.
# .PCD v.7 - Point Cloud Data file format
VERSION .7
FIELDS x y z
SIZE 4 4 4
TYPE F F F
COUNT 1 1 1
WIDTH 1743
HEIGHT 1
VIEWPOINT 0 0 0 1 0 0 0
POINTS 1743
DATA ascii
0.099619 1.577162 0.039722
0.102453 1.577900 0.039572
0.105109 1.576682 0.039820
0.108038 1.578386 0.039473
0.110691 1.577158 0.039723
0.113915 1.581779 0.038784
0.116669 1.581517 0.038837
0.119223 1.579300 0.039288
0.122073 1.580003 0.039145
0.124721 1.578752 0.039399
0.127678 1.580421 0.039060
0.130429 1.580135 0.039118
0.133179 1.579845 0.039177
0.135929 1.579550 0.039237
0.138790 1.580224 0.039100
0.141767 1.581866 0.038766
0.144750 1.583503 0.038433
0.147506 1.583189 0.038497
0.150144 1.581896 0.038760
0.152897 1.581572 0.038826
0.155407 1.579297 0.039288
0.158403 1.580909 0.038961
0.161154 1.580571 0.039029
0.164160 1.582172 0.038704
0.167171 1.583768 0.038380
0.169928 1.583414 0.038452
0.172949 1.584999 0.038130
0.175842 1.585607 0.038006
0.178602 1.585239 0.038081
0.181361 1.584866 0.038157
0.183981 1.583518 0.038430
0.186597 1.582166 0.038705
0.189778 1.584689 0.038192
0.192681 1.585267 0.038075
0.195587 1.585839 0.037959
0.198495 1.586407 0.037843
0.201406 1.586969 0.037729
0.204017 1.585588 0.038010
0.206624 1.584204 0.038291
0.209537 1.584751 0.038180
0.212764 1.587229 0.037676
0.215527 1.586798 0.037764
0.218609 1.588296 0.037459
0.221051 1.585921 0.037942
0.224138 1.587409 0.037640
0.226736 1.585992 0.037928
0.229664 1.586503 0.037824
0.232762 1.587975 0.037525
0.235527 1.587509 0.037619
0.238290 1.587039 0.037715
0.241400 1.588494 0.037419
0.244340 1.588979 0.037321
0.247283 1.589458 0.037223
0.250408 1.590896 0.036931
0.252816 1.588473 0.037424
0.255764 1.588937 0.037329
0.258530 1.588432 0.037432
0.261666 1.589848 0.037144
0.264621 1.590296 0.037053
0.267200 1.588814 0.037354
0.269966 1.588289 0.037461
0.272345 1.585837 0.037959
0.275883 1.589149 0.037286
0.278845 1.589571 0.037201
0.282007 1.590948 0.036921
0.284577 1.589438 0.037228
0.287344 1.588884 0.037340
0.290313 1.589284 0.037259
0.293693 1.591598 0.036789
0.296463 1.591028 0.036904
0.299441 1.591413 0.036826
0.302211 1.590833 0.036944
0.305403 1.592165 0.036673
0.308387 1.592532 0.036599
0.311589 1.593852 0.036331
0.315229 1.597078 0.035675
0.318010 1.596472 0.035798
0.320789 1.595860 0.035922
0.323346 1.594289 0.036242
0.326791 1.596534 0.035786
0.329570 1.595908 0.035913
0.332575 1.596231 0.035847
0.335582 1.596549 0.035782
0.339052 1.598769 0.035331
0.342067 1.599075 0.035269
0.344617 1.597470 0.035595
0.347633 1.597765 0.035535
0.350651 1.598055 0.035476
0.354149 1.600243 0.035032
0.356454 1.597668 0.035555
0.358994 1.596040 0.035886
0.361285 1.593458 0.036411
0.364549 1.594672 0.036164
0.368066 1.596830 0.035725
0.371344 1.598032 0.035481
0.374877 1.600175 0.035046
0.377914 1.600415 0.034997
0.380701 1.599701 0.035142
0.382719 1.596141 0.035865
0.386012 1.597313 0.035627
0.389828 1.600371 0.035006
0.392614 1.599637 0.035155
0.395661 1.599844 0.035113
0.398710 1.600045 0.035072
0.402026 1.601185 0.034840
0.405616 1.603263 0.034418
0.408138 1.601559 0.034765
0.410656 1.599850 0.035112
0.413713 1.600023 0.035077
0.416498 1.599248 0.035234
0.420109 1.601294 0.034818
0.423174 1.601450 0.034787
0.426520 1.602541 0.034565
0.429591 1.602684 0.034536
0.432099 1.600942 0.034890
0.434886 1.600136 0.035054
0.438528 1.602142 0.034646
0.441605 1.602263 0.034621
0.444683 1.602378 0.034598
0.447182 1.600613 0.034957
0.450553 1.601655 0.034745
0.454223 1.603627 0.034344
0.456720 1.601846 0.034706
0.460400 1.603805 0.034308
0.463790 1.604820 0.034102
0.467787 1.607698 0.033517
0.471493 1.609633 0.033124
0.474296 1.608759 0.033301
0.477402 1.608814 0.033290
0.479589 1.606065 0.033849
0.482694 1.606109 0.033840
0.485490 1.605216 0.034021
0.489221 1.607111 0.033636
0.492019 1.606207 0.033820
0.494816 1.605298 0.034005
0.498879 1.608102 0.033435
0.501360 1.606252 0.033811
0.505760 1.609969 0.033056
0.507596 1.606253 0.033811
0.511040 1.607172 0.033624
0.513512 1.605304 0.034003
0.516634 1.605284 0.034007
0.519100 1.603408 0.034389
0.523874 1.608002 0.033455
0.527006 1.607963 0.033463
0.530473 1.608841 0.033285
0.533945 1.609713 0.033107
0.538096 1.612423 0.032557
0.540226 1.609591 0.033132
0.543028 1.608600 0.033334
0.546512 1.609445 0.033162
0.549658 1.609363 0.033179
0.552115 1.607436 0.033570
0.553178 1.601829 0.034710
-0.298610 1.561810 0.042655
-0.295238 1.558387 0.043351
-0.292041 1.555923 0.043852
-0.289173 1.555388 0.043961
-0.286308 1.554847 0.044071
-0.283915 1.557206 0.043592
-0.281205 1.557624 0.043506
-0.278494 1.558038 0.043422
-0.275631 1.557478 0.043536
-0.272771 1.556913 0.043651
-0.269913 1.556343 0.043767
-0.267204 1.556737 0.043687
-0.264495 1.557127 0.043607
-0.261785 1.557512 0.043529
-0.258792 1.555952 0.043846
-0.255528 1.552446 0.044559
-0.252963 1.553786 0.044287
-0.250259 1.554152 0.044212
-0.247956 1.557426 0.043547
-0.245378 1.558754 0.043277
-0.242665 1.559106 0.043205
-0.240080 1.560426 0.042937
-0.236856 1.556881 0.043658
-0.233771 1.554302 0.044182
-0.231313 1.556580 0.043719
-0.228604 1.556908 0.043652
-0.226014 1.558204 0.043388
-0.223302 1.558524 0.043324
-0.220473 1.557865 0.043457
-0.217532 1.556228 0.043790
-0.214823 1.556533 0.043728
-0.212226 1.557806 0.043469
-0.209515 1.558102 0.043409
-0.206803 1.558393 0.043350
-0.204303 1.560629 0.042896
-0.201169 1.557012 0.043631
-0.198665 1.559238 0.043178
-0.196052 1.560486 0.042925
-0.193336 1.560754 0.042870
-0.190522 1.560042 0.043015
-0.187711 1.559325 0.043161
-0.184809 1.557628 0.043506
-0.182098 1.557876 0.043455
-0.179477 1.559096 0.043207
-0.176764 1.559336 0.043158
-0.174137 1.560547 0.042912
-0.171250 1.558825 0.043262
-0.168621 1.560027 0.043018
-0.165824 1.559271 0.043171
-0.163191 1.560465 0.042929
-0.160553 1.561653 0.042687
-0.157835 1.561861 0.042645
-0.155117 1.562063 0.042604
-0.152471 1.563239 0.042365
-0.149679 1.562455 0.042524
-0.147029 1.563621 0.042287
-0.144308 1.563805 0.042250
-0.141719 1.565940 0.041816
-0.138929 1.565137 0.041979
-0.136142 1.564330 0.042143
-0.133358 1.563517 0.042308
-0.130637 1.563678 0.042276
-0.127973 1.564812 0.042045
-0.125249 1.564964 0.042014
-0.122525 1.565111 0.041984
-0.119801 1.565253 0.041955
-0.117127 1.566369 0.041728
-0.114255 1.563566 0.042298
-0.111439 1.561736 0.042670
-0.108857 1.564796 0.042048
-0.106221 1.566873 0.041626
-0.103452 1.566008 0.041802
-0.100726 1.566118 0.041779
-0.097923 1.564264 0.042156
-0.095238 1.565344 0.041937
-0.092583 1.567398 0.041519
-0.089855 1.567489 0.041501
-0.087126 1.567576 0.041483
-0.084309 1.564719 0.042064
-0.081669 1.567734 0.041451
-0.078941 1.567807 0.041436
-0.076236 1.568854 0.041223
-0.073483 1.567937 0.041409
-0.070733 1.567016 0.041597
-0.068006 1.567070 0.041586
-0.065296 1.568098 0.041377
-0.062582 1.569123 0.041168
-0.059851 1.569162 0.041160
-0.057132 1.570177 0.040954
-0.054388 1.569228 0.041147
-0.051657 1.569253 0.041142
-0.048919 1.568295 0.041337
-0.046189 1.568311 0.041334
-0.043459 1.568323 0.041331
-0.040728 1.567350 0.041529
-0.038000 1.567352 0.041529
-0.035267 1.570289 0.040931
-0.032527 1.572242 0.040534
-0.029785 1.573211 0.040337
-0.027053 1.572214 0.040540
-0.024326 1.571213 0.040743
-0.021591 1.571187 0.040749
-0.018844 1.572137 0.040556
-0.016079 1.574062 0.040164
-0.013355 1.573042 0.040372
-0.010617 1.572997 0.040381
-0.007879 1.572948 0.040391
-0.005120 1.573874 0.040202
-0.002358 1.574795 0.040015
0.000358 1.573752 0.040227
0.003124 1.574664 0.040042
0.005781 1.571653 0.040654
0.008546 1.572555 0.040471
0.011252 1.571494 0.040686
0.014054 1.573366 0.040306
0.016757 1.572295 0.040523
0.019604 1.575137 0.039946
0.022230 1.572098 0.040563
0.025127 1.575910 0.039788
0.027703 1.571883 0.040607
0.030613 1.575684 0.039834
0.033311 1.574586 0.040058
0.036098 1.575440 0.039884
0.038743 1.573354 0.040308
0.041583 1.575177 0.039937
0.044324 1.575039 0.039966
0.047174 1.576853 0.039597
0.049975 1.577683 0.039428
0.052721 1.577530 0.039459
0.055467 1.577373 0.039491
0.058151 1.576233 0.039723
0.060895 1.576066 0.039757
0.063703 1.576872 0.039593
0.066448 1.576696 0.039629
0.069260 1.577493 0.039467
0.071866 1.575352 0.039902
0.074680 1.576139 0.039742
0.077423 1.575944 0.039782
0.080466 1.579653 0.039027
0.083216 1.579448 0.039069
0.085965 1.579238 0.039112
0.088714 1.579024 0.039155
0.091463 1.578805 0.039200
0.094044 1.576628 0.039642
0.096788 1.576400 0.039689
0.099793 1.579095 0.039141
0.102631 1.579834 0.038991
0.105290 1.578615 0.039238
0.108038 1.578367 0.039289
0.110691 1.577140 0.039538
0.113724 1.579809 0.038996
0.116474 1.579547 0.039049
0.119124 1.578306 0.039301
0.121972 1.579010 0.039158
0.124926 1.580683 0.038818
0.127991 1.583326 0.038281
0.130960 1.584988 0.037943
0.133503 1.582749 0.038398
0.136368 1.583427 0.038260
0.139124 1.583126 0.038321
0.142106 1.584768 0.037987
0.144980 1.585431 0.037852
0.147623 1.584143 0.038114
0.150381 1.583823 0.038179
0.152777 1.580580 0.038839
0.155650 1.581224 0.038708
0.158403 1.580890 0.038776
0.161530 1.583469 0.038252
0.164541 1.585069 0.037926
0.167300 1.584720 0.037997
0.169928 1.583395 0.038266
0.172949 1.584980 0.037944
0.175708 1.584617 0.038018
0.178466 1.584249 0.038093
0.181224 1.583876 0.038169
0.183842 1.582529 0.038443
0.186737 1.583117 0.038323
0.189921 1.585640 0.037810
0.192681 1.585248 0.037890
0.195879 1.587759 0.037379
0.198495 1.586388 0.037658
0.201556 1.587919 0.037347
0.204169 1.586538 0.037627
0.207236 1.588058 0.037318
0.210155 1.588605 0.037207
0.212608 1.586242 0.037688
0.215527 1.586779 0.037579
0.218449 1.587310 0.037470
0.221536 1.588803 0.037167
0.224791 1.591257 0.036668
0.227397 1.589839 0.036956
0.229997 1.588417 0.037245
0.232762 1.587956 0.037339
0.235527 1.587490 0.037434
0.237774 1.584124 0.038118
0.240879 1.585580 0.037822
0.243639 1.585101 0.037920
0.246575 1.585581 0.037822
0.249693 1.587021 0.037529
0.252636 1.587490 0.037434
0.255581 1.587954 0.037340
0.258162 1.586486 0.037638
0.261666 1.589829 0.036958
0.264808 1.591239 0.036672
0.267956 1.592644 0.036386
0.270729 1.592118 0.036493
0.273501 1.591588 0.036601
0.276271 1.591052 0.036710
0.279433 1.592434 0.036429
0.282600 1.593810 0.036149
0.284976 1.591339 0.036651
0.287746 1.590784 0.036764
0.290718 1.591184 0.036683
0.293897 1.592538 0.036407
0.297082 1.593886 0.036133
0.299441 1.591394 0.036640
0.302630 1.592730 0.036368
0.306037 1.595019 0.035903
0.309240 1.596343 0.035634
0.312019 1.595747 0.035755
0.314797 1.595146 0.035877
0.316919 1.591671 0.036584
0.320349 1.593929 0.036125
0.323346 1.594270 0.036055
0.326121 1.593649 0.036182
0.328895 1.593024 0.036309
0.331895 1.593349 0.036243
0.335354 1.595576 0.035790
0.338821 1.597796 0.035338
0.342067 1.599056 0.035082
0.344150 1.595545 0.035796
0.347633 1.597746 0.035349
0.350415 1.597084 0.035483
0.354149 1.600224 0.034845
0.356935 1.599551 0.034982
0.359478 1.597922 0.035313
0.362503 1.598191 0.035258
0.365776 1.599403 0.035012
0.369301 1.601559 0.034573
0.372090 1.600860 0.034715
0.374877 1.600156 0.034859
0.377662 1.599448 0.035003
0.380193 1.597787 0.035340
0.382975 1.597069 0.035486
0.385755 1.596346 0.035633
0.388793 1.596566 0.035589
0.392614 1.599618 0.034968
0.395661 1.599825 0.034926
0.399238 1.601916 0.034501
0.401761 1.600221 0.034845
0.405348 1.602300 0.034423
0.408138 1.601539 0.034577
0.410926 1.600774 0.034733
0.413441 1.599061 0.035081
0.416498 1.599229 0.035047
0.420661 1.603159 0.034248
0.424284 1.605196 0.033834
0.427636 1.606285 0.033612
0.430152 1.604546 0.033966
0.432946 1.603743 0.034129
0.435454 1.601996 0.034485
0.439100 1.604001 0.034077
0.442179 1.604121 0.034052
0.444683 1.602359 0.034411
0.447473 1.601531 0.034579
0.450845 1.602573 0.034367
0.455106 1.606418 0.033585
0.457902 1.605572 0.033757
0.460995 1.605657 0.033740
0.464388 1.606671 0.033534
0.467486 1.606744 0.033519
0.469679 1.604009 0.034075
0.472167 1.602205 0.034442
0.475874 1.604129 0.034051
0.480203 1.607910 0.033282
0.482076 1.604226 0.034031
0.484868 1.603334 0.034212
0.488284 1.604299 0.034016
0.492333 1.607118 0.033443
0.495447 1.607138 0.033439
0.497928 1.605294 0.033814
0.501041 1.605304 0.033812
0.505118 1.608093 0.033245
0.507918 1.607161 0.033434
0.511364 1.608079 0.033248
0.513838 1.606211 0.033627
0.517943 1.608969 0.033067
0.520416 1.607090 0.033449
0.523874 1.607982 0.033267
0.526674 1.607019 0.033463
0.530473 1.608822 0.033097
0.533609 1.608770 0.033107
0.537084 1.609635 0.032931
0.539887 1.608649 0.033132
0.543368 1.609502 0.032958
0.546512 1.609426 0.032974
0.549658 1.609344 0.032990
0.552805 1.609256 0.033008
0.554913 1.606405 0.033588
-0.299105 1.564518 0.040179
-0.294748 1.555297 0.042066
-0.291880 1.554767 0.042174
-0.289173 1.555198 0.042086
-0.286625 1.556593 0.041801
-0.283759 1.556048 0.041912
-0.281050 1.556466 0.041827
-0.278494 1.557848 0.041544
-0.275177 1.554383 0.042253
-0.272471 1.554786 0.042170
-0.270061 1.557123 0.041692
-0.267643 1.559455 0.041215
-0.264784 1.558876 0.041334
-0.261357 1.554413 0.042247
-0.258651 1.554793 0.042169
-0.255667 1.553228 0.042489
-0.252963 1.553597 0.042414
-0.250802 1.557845 0.041544
-0.248224 1.559178 0.041272
-0.245378 1.558564 0.041397
-0.242665 1.558916 0.041325
-0.239823 1.558292 0.041453
-0.237110 1.558635 0.041383
-0.234272 1.558001 0.041513
-0.231313 1.556390 0.041842
-0.228726 1.557691 0.041576
-0.226134 1.558987 0.041311
-0.223421 1.559306 0.041246
-0.220823 1.560594 0.040982
-0.218107 1.560904 0.040919
-0.214937 1.557316 0.041653
-0.212337 1.558590 0.041392
-0.209295 1.555965 0.041929
-0.206911 1.559177 0.041272
-0.203985 1.557515 0.041612
-0.201273 1.557797 0.041554
-0.198562 1.558074 0.041498
-0.195951 1.559321 0.041243
-0.193336 1.560563 0.040988
-0.190522 1.559852 0.041134
-0.187711 1.559135 0.041281
-0.184997 1.559388 0.041229
-0.182191 1.558662 0.041377
-0.179387 1.557930 0.041527
-0.176853 1.560122 0.041079
-0.174312 1.562309 0.040631
-0.171592 1.562539 0.040584
-0.168705 1.560813 0.040937
-0.165824 1.559081 0.041292
-0.163191 1.560274 0.041048
-0.160475 1.560486 0.041004
-0.157835 1.561670 0.040762
-0.155192 1.562849 0.040521
-0.152545 1.564025 0.040280
-0.149679 1.562264 0.040641
-0.146960 1.562452 0.040602
-0.144240 1.562636 0.040564
-0.141586 1.563793 0.040328
-0.138735 1.562013 0.040692
-0.136016 1.562183 0.040657
-0.133297 1.562348 0.040623
-0.130637 1.563486 0.040390
-0.127857 1.562664 0.040559
-0.125193 1.563794 0.040327
-0.122579 1.565897 0.039897
-0.119853 1.566040 0.039868
-0.117077 1.565199 0.040040
-0.114206 1.562396 0.040613
-0.111486 1.562524 0.040587
-0.108812 1.563626 0.040362
-0.106134 1.564723 0.040137
-0.103326 1.562880 0.040514
-0.100646 1.563968 0.040292
-0.097923 1.564073 0.040270
-0.095238 1.565152 0.040050
-0.092513 1.565248 0.040030
-0.089788 1.565339 0.040011
-0.087095 1.566404 0.039793
-0.084368 1.566486 0.039777
-0.081669 1.567542 0.039561
-0.078941 1.567614 0.039546
-0.076188 1.566703 0.039732
-0.073460 1.566766 0.039720
-0.070733 1.566824 0.039708
-0.068006 1.566877 0.039697
-0.065278 1.566926 0.039687
-0.062551 1.566971 0.039678
-0.059851 1.568970 0.039269
-0.057120 1.569005 0.039261
-0.054409 1.570994 0.038854
-0.051648 1.568081 0.039450
-0.048905 1.566143 0.039847
-0.046173 1.565179 0.040044
-0.043452 1.566171 0.039841
-0.040730 1.568137 0.039439
-0.038000 1.572058 0.038637
-0.035260 1.574015 0.038236
-0.032523 1.573029 0.038438
-0.029785 1.573017 0.038441
-0.027039 1.573980 0.038244
-0.024299 1.573959 0.038248
-0.021580 1.571974 0.038654
-0.018832 1.572923 0.038460
-0.016065 1.574847 0.038066
-0.013371 1.571869 0.038676
-0.010635 1.571824 0.038685
-0.007898 1.571775 0.038695
-0.005141 1.572701 0.038505
-0.002381 1.573622 0.038317
0.000310 1.571600 0.038731
0.002993 1.569573 0.039145
0.005753 1.570480 0.038960
0.008576 1.573341 0.038374
0.011346 1.574238 0.038191
0.014120 1.575130 0.038008
0.016757 1.572102 0.038628
0.019494 1.572006 0.038648
0.022230 1.571905 0.038668
0.025007 1.572779 0.038489
0.027745 1.572669 0.038512
0.030482 1.572554 0.038535
0.033175 1.571456 0.038760
0.035957 1.572310 0.038585
0.038645 1.571203 0.038812
0.041481 1.573026 0.038439
0.044220 1.572888 0.038467
0.046958 1.572745 0.038496
0.049807 1.574554 0.038126
0.052778 1.578314 0.037357
0.055526 1.578156 0.037389
0.058274 1.577994 0.037422
0.060895 1.575871 0.037857
0.063638 1.575700 0.037892
0.066315 1.574546 0.038128
0.069124 1.575343 0.037965
0.072006 1.577112 0.037603
0.074894 1.578876 0.037242
0.077716 1.579658 0.037082
0.080466 1.579458 0.037123
0.083139 1.578276 0.037365
0.085965 1.579043 0.037208
0.088634 1.577852 0.037451
0.091463 1.578610 0.037296
0.094127 1.577410 0.037542
0.096873 1.577181 0.037589
0.099793 1.578900 0.037237
0.102631 1.579638 0.037086
0.105653 1.582322 0.036537
0.108407 1.582075 0.036588
0.110973 1.579871 0.037038
0.113820 1.580589 0.036891
0.116571 1.580327 0.036945
0.119322 1.580061 0.037000
0.122073 1.579789 0.037055
0.125029 1.581462 0.036713
0.127991 1.583130 0.036372
0.130747 1.582844 0.036430
0.133611 1.583526 0.036291
0.136478 1.584205 0.036152
0.139236 1.583904 0.036213
0.141653 1.580678 0.036873
0.144405 1.580369 0.036937
0.147156 1.580055 0.037001
0.150381 1.583627 0.036270
0.152777 1.580384 0.036933
0.155772 1.582001 0.036603
0.158526 1.581667 0.036671
0.161530 1.583273 0.036342
0.164287 1.582929 0.036413
0.167429 1.585495 0.035888
0.169798 1.582228 0.036556
0.172684 1.582841 0.036431
0.175306 1.581508 0.036704
0.178195 1.582111 0.036580
0.181224 1.583680 0.036259
0.183842 1.582333 0.036535
0.186597 1.581951 0.036613
0.189350 1.581565 0.036692
0.192681 1.585051 0.035979
0.195441 1.584655 0.036060
0.198347 1.585222 0.035944
0.201107 1.584816 0.036027
0.204320 1.587310 0.035517
0.207236 1.587861 0.035404
0.210465 1.590343 0.034896
0.212764 1.587013 0.035577
0.216002 1.589484 0.035072
0.218769 1.589047 0.035161
0.221697 1.589573 0.035054
0.224628 1.590093 0.034947
0.227397 1.589641 0.035040
0.229997 1.588219 0.035331
0.232762 1.587759 0.035425
0.235527 1.587293 0.035520
0.238118 1.585858 0.035814
0.241053 1.586348 0.035713
0.243814 1.585869 0.035811
0.246575 1.585385 0.035910
0.249335 1.584896 0.036010
0.252816 1.588256 0.035323
0.256128 1.590647 0.034834
0.259081 1.591104 0.034740
0.262223 1.592519 0.034451
0.264808 1.591041 0.034753
0.267767 1.591483 0.034663
0.270538 1.590958 0.034770
0.273115 1.589467 0.035075
0.276077 1.589893 0.034988
0.279041 1.590315 0.034902
0.282600 1.593612 0.034227
0.285375 1.593061 0.034340
0.287746 1.590586 0.034846
0.290515 1.590027 0.034961
0.294306 1.594258 0.034095
0.297494 1.595605 0.033820
0.300272 1.595029 0.033937
0.303259 1.595406 0.033860
0.306037 1.594820 0.033980
0.309240 1.596144 0.033709
0.312233 1.596504 0.033635
0.314797 1.594947 0.033954
0.317573 1.594341 0.034078
0.321229 1.597553 0.033421
0.324010 1.596937 0.033547
0.327237 1.598226 0.033283
0.329570 1.595689 0.033802
0.332575 1.596013 0.033736
0.335354 1.595377 0.033866
0.338591 1.596643 0.033607
0.341835 1.597903 0.033349
0.344617 1.597251 0.033483
0.347868 1.598499 0.033228
0.350415 1.596885 0.033558
0.352956 1.595267 0.033889
0.355974 1.595547 0.033831
0.358994 1.595821 0.033775
0.362747 1.598941 0.033137
0.365776 1.599203 0.033083
0.368807 1.599460 0.033031
0.371592 1.598762 0.033174
0.374877 1.599956 0.032929
0.378166 1.601144 0.032686
0.380954 1.600430 0.032832
0.383485 1.598764 0.033173
0.386012 1.597094 0.033515
0.388793 1.596367 0.033664
0.391572 1.595634 0.033813
0.395137 1.597734 0.033384
0.398710 1.599826 0.032956
0.402026 1.600965 0.032723
0.405081 1.601155 0.032684
0.407600 1.599451 0.033033
0.410656 1.599630 0.032996
0.414530 1.602631 0.032382
0.417320 1.601855 0.032541
0.419558 1.599191 0.033086
0.421788 1.596523 0.033632
0.426241 1.601380 0.032638
0.429871 1.603405 0.032224
0.432663 1.602602 0.032388
0.435738 1.602734 0.032361
0.439385 1.604738 0.031951
0.442179 1.603920 0.032118
0.444972 1.603096 0.032287
0.447763 1.602268 0.032456
0.450261 1.600498 0.032818
0.453929 1.602470 0.032415
0.457015 1.602562 0.032396
0.460400 1.603584 0.032187
0.463491 1.603665 0.032171
0.466284 1.602805 0.032347
0.468470 1.600072 0.032906
0.472167 1.602004 0.032510
0.477097 1.607659 0.031354
0.480203 1.607708 0.031343
0.482694 1.605888 0.031716
0.484868 1.603133 0.032279
0.487660 1.602236 0.032463
0.490763 1.602265 0.032457
0.494816 1.605077 0.031882
0.497293 1.603235 0.032259
0.501998 1.607888 0.031307
0.504477 1.606034 0.031686
0.507918 1.606959 0.031497
0.511688 1.608804 0.031119
0.515466 1.610641 0.030743
0.518925 1.611544 0.030559
0.521731 1.610589 0.030754
0.525196 1.611479 0.030572
0.528335 1.611437 0.030580
0.531141 1.610467 0.030779
0.534280 1.610414 0.030790
0.538096 1.612200 0.030424
0.541581 1.613056 0.030249
0.544389 1.612063 0.030453
0.546854 1.610144 0.030845
0.550689 1.611902 0.030486
0.553841 1.611812 0.030504
0.555260 1.607122 0.031463
-0.298280 1.559480 0.039147
-0.294585 1.554125 0.040250
-0.291718 1.553594 0.040359
-0.289333 1.555959 0.039872
-0.286783 1.557354 0.039585
-0.284228 1.558744 0.039298
-0.281205 1.557228 0.039611
-0.278341 1.556673 0.039725
-0.275480 1.556113 0.039840
-0.273070 1.558454 0.039358
-0.270504 1.559822 0.039077
-0.267496 1.558279 0.039394
-0.264062 1.553823 0.040312
-0.261214 1.553238 0.040432
-0.258510 1.553617 0.040354
-0.256084 1.555932 0.039878
-0.253101 1.554362 0.040201
-0.250666 1.556668 0.039726
-0.247688 1.555088 0.040051
-0.244981 1.555444 0.039978
-0.242274 1.555796 0.039906
-0.239436 1.555171 0.040034
-0.236602 1.554542 0.040164
-0.234147 1.556823 0.039694
-0.231436 1.557156 0.039626
-0.228847 1.558456 0.039358
-0.226375 1.560725 0.038891
-0.223776 1.562017 0.038624
-0.220823 1.560387 0.038960
-0.217992 1.559724 0.039097
-0.215050 1.558083 0.039435
-0.212337 1.558383 0.039373
-0.209624 1.558679 0.039312
-0.206911 1.558970 0.039252
-0.204197 1.559257 0.039193
-0.201483 1.559538 0.039135
-0.198768 1.559816 0.039078
-0.196052 1.560088 0.039022
-0.193237 1.559381 0.039167
-0.190425 1.558670 0.039314
-0.187711 1.558928 0.039261
-0.184903 1.558206 0.039409
-0.182191 1.558455 0.039358
-0.179387 1.557724 0.039509
-0.176942 1.560890 0.038857
-0.174312 1.562101 0.038607
-0.171507 1.561356 0.038761
-0.168537 1.558654 0.039317
-0.165824 1.558874 0.039272
-0.163110 1.559091 0.039227
-0.160475 1.560279 0.038982
-0.157835 1.561462 0.038739
-0.155192 1.562641 0.038496
-0.152471 1.562839 0.038455
-0.149679 1.562056 0.038616
-0.147029 1.563221 0.038376
-0.144308 1.563406 0.038339
-0.141520 1.562608 0.038503
-0.138864 1.563760 0.038266
-0.136142 1.563930 0.038231
-0.133297 1.562140 0.038599
-0.130577 1.562301 0.038566
-0.127915 1.563434 0.038333
-0.125249 1.564564 0.038100
-0.122633 1.566666 0.037667
-0.119906 1.566809 0.037638
-0.117229 1.567925 0.037408
-0.114401 1.566101 0.037783
-0.111627 1.565251 0.037958
-0.108812 1.563418 0.038336
-0.106177 1.565494 0.037909
-0.103452 1.565608 0.037885
-0.100726 1.565717 0.037862
-0.098000 1.565822 0.037841
-0.095238 1.564944 0.038022
-0.092513 1.565039 0.038002
-0.089788 1.565130 0.037983
-0.087095 1.566195 0.037764
-0.084428 1.568235 0.037344
-0.081669 1.567333 0.037530
-0.078915 1.566426 0.037717
-0.076188 1.566494 0.037703
-0.073483 1.567536 0.037488
-0.070796 1.569553 0.037073
-0.068063 1.569606 0.037062
-0.065330 1.569655 0.037052
-0.062582 1.568720 0.037244
-0.059851 1.568760 0.037236
-0.057132 1.569775 0.037027
-0.054388 1.568825 0.037222
-0.051666 1.569831 0.037015
-0.048926 1.568872 0.037213
-0.046205 1.570847 0.036806
-0.043459 1.567921 0.037409
-0.040733 1.569887 0.037004
-0.038000 1.568910 0.037205
-0.035269 1.568907 0.037206
-0.032544 1.566941 0.037610
-0.029821 1.565950 0.037815
-0.027081 1.567893 0.037415
-0.024334 1.569831 0.037015
-0.021559 1.573722 0.036214
-0.018844 1.571733 0.036624
-0.016093 1.572677 0.036429
-0.013355 1.572638 0.036437
-0.010582 1.574552 0.036043
-0.007841 1.574503 0.036053
-0.005099 1.574449 0.036064
-0.002426 1.571452 0.036681
0.000285 1.570410 0.036896
0.003045 1.571322 0.036708
0.005893 1.575165 0.035917
0.008576 1.573130 0.036336
0.011252 1.571090 0.036756
0.013954 1.570025 0.036975
0.016757 1.571891 0.036591
0.019531 1.572774 0.036409
0.022192 1.570716 0.036833
0.024967 1.571589 0.036653
0.027703 1.571479 0.036676
0.030526 1.573322 0.036297
0.033356 1.575159 0.035918
0.036146 1.576013 0.035742
0.038890 1.575884 0.035769
0.041583 1.574772 0.035998
0.044220 1.572677 0.036429
0.046850 1.570579 0.036861
0.049863 1.575321 0.035885
0.052778 1.578102 0.035312
0.055526 1.577944 0.035345
0.058274 1.577782 0.035378
0.061021 1.577615 0.035412
0.063832 1.578421 0.035246
0.066514 1.577267 0.035484
0.069260 1.577086 0.035521
0.071936 1.575923 0.035761
0.074823 1.577687 0.035398
0.077570 1.577492 0.035438
0.080391 1.578268 0.035278
0.083369 1.580993 0.034717
0.086122 1.580784 0.034760
0.088955 1.581545 0.034603
0.091627 1.580350 0.034849
0.094462 1.581102 0.034694
0.097386 1.582825 0.034339
0.100142 1.582591 0.034388
0.102986 1.583328 0.034236
0.105743 1.583085 0.034286
0.108500 1.582837 0.034337
0.111068 1.580634 0.034791
0.113820 1.580377 0.034844
0.116571 1.580115 0.034898
0.119521 1.581797 0.034551
0.122174 1.580551 0.034808
0.124926 1.580275 0.034865
0.127887 1.581942 0.034521
0.130854 1.583604 0.034179
0.133827 1.585261 0.033838
0.136587 1.584964 0.033899
0.139236 1.583690 0.034161
0.141314 1.577546 0.035427
0.144405 1.580156 0.034889
0.147390 1.581787 0.034553
0.150262 1.582441 0.034419
0.153018 1.582117 0.034485
0.155650 1.580816 0.034753
0.158526 1.581454 0.034622
0.161405 1.582088 0.034491
0.164160 1.581744 0.034562
0.167043 1.582368 0.034434
0.169667 1.581044 0.034706
0.172684 1.582628 0.034380
0.175574 1.583236 0.034255
0.178602 1.584809 0.033931
0.181361 1.584437 0.034008
0.184120 1.584059 0.034085
0.186456 1.580768 0.034763
0.189208 1.580382 0.034842
0.192537 1.583868 0.034125
0.195733 1.586379 0.033608
0.198347 1.585008 0.033890
0.201257 1.585570 0.033774
0.204017 1.585159 0.033859
0.206930 1.585711 0.033745
0.210001 1.587225 0.033433
0.213077 1.588733 0.033123
0.216160 1.590236 0.032813
0.218929 1.589799 0.032903
0.221697 1.589358 0.032994
0.224138 1.586979 0.033484
0.226901 1.586528 0.033577
0.229831 1.587039 0.033472
0.232931 1.588509 0.033169
0.235527 1.587079 0.033463
0.238634 1.588539 0.033163
0.241921 1.590957 0.032665
0.245217 1.593369 0.032168
0.248346 1.594810 0.031871
0.250050 1.588537 0.033163
0.252816 1.588042 0.033265
0.255581 1.587542 0.033368
0.258897 1.589926 0.032877
0.262037 1.591341 0.032586
0.264996 1.591788 0.032494
0.267578 1.590306 0.032799
0.270157 1.588820 0.033105
0.272923 1.588291 0.033214
0.275688 1.587757 0.033324
0.278649 1.588179 0.033237
0.281810 1.589555 0.032954
0.284976 1.590926 0.032671
0.288148 1.592290 0.032390
0.291327 1.593648 0.032111
0.294102 1.593083 0.032227
0.297700 1.596346 0.031555
0.300480 1.595770 0.031674
0.303259 1.595189 0.031793
0.305191 1.590774 0.032702
0.308174 1.591142 0.032627
0.311374 1.592461 0.032355
0.314147 1.591861 0.032479
0.318228 1.596992 0.031422
0.321009 1.596381 0.031548
0.324010 1.596720 0.031478
0.327014 1.597053 0.031409
0.329795 1.596427 0.031538
0.333028 1.597704 0.031275
0.335582 1.596114 0.031603
0.338361 1.595473 0.031735
0.340908 1.593874 0.032064
0.344150 1.595129 0.031806
0.347633 1.597329 0.031353
0.350178 1.595716 0.031685
0.353195 1.596001 0.031626
0.357175 1.600084 0.030785
0.359961 1.599406 0.030925
0.362990 1.599673 0.030870
0.365285 1.597087 0.031403
0.368807 1.599242 0.030959
0.371592 1.598544 0.031102
0.374376 1.597842 0.031247
0.377662 1.599030 0.031002
0.380701 1.599264 0.030954
0.383741 1.599493 0.030907
0.386269 1.597823 0.031251
0.389051 1.597096 0.031401
0.392093 1.597309 0.031357
0.395661 1.599407 0.030925
0.398974 1.600553 0.030689
0.400699 1.596026 0.031621
0.405081 1.600937 0.030610
0.408138 1.601120 0.030572
0.410926 1.600355 0.030729
0.413713 1.599586 0.030888
0.416498 1.598811 0.031047
0.420385 1.601798 0.030432
0.423729 1.602894 0.030207
0.426241 1.601161 0.030563
0.428749 1.599425 0.030921
0.431534 1.598625 0.031086
0.435170 1.600637 0.030671
0.439100 1.603581 0.030065
0.441605 1.601825 0.030427
0.444683 1.601940 0.030403
0.447473 1.601112 0.030573
0.450553 1.601217 0.030552
0.453929 1.602252 0.030339
0.457902 1.605151 0.029742
0.460698 1.604301 0.029917
0.463790 1.604380 0.029900
0.466284 1.602586 0.030270
0.470586 1.606390 0.029487
0.473688 1.606451 0.029474
0.477097 1.607439 0.029271
0.479281 1.604692 0.029836
0.482385 1.604737 0.029827
0.484868 1.602914 0.030202
0.488284 1.603879 0.030004
0.491077 1.602977 0.030190
0.494500 1.603929 0.029994
0.498245 1.605802 0.029608
0.502317 1.608596 0.029032
0.505118 1.607670 0.029223
0.507918 1.606740 0.029415
0.510392 1.604877 0.029798
0.514164 1.606716 0.029420
0.517616 1.607620 0.029233
0.520744 1.607593 0.029239
0.524205 1.608485 0.029055
0.527006 1.607521 0.029254
0.530473 1.608399 0.029073
0.533945 1.609271 0.028893
0.538096 1.611979 0.028336
0.540564 1.610070 0.028729
0.543368 1.609079 0.028933
0.545828 1.607162 0.029328
0.549314 1.608001 0.029155
0.552460 1.607914 0.029173
0.555260 1.606902 0.029381
-0.299600 1.567184 0.037322
-0.296055 1.562797 0.038226
-0.291880 1.554537 0.039928
-0.289013 1.554002 0.040039
-0.285992 1.552495 0.040349
-0.283289 1.552916 0.040262
-0.280741 1.554301 0.039977
-0.278188 1.555681 0.039693
-0.275480 1.556090 0.039608
-0.272621 1.555525 0.039725
-0.269765 1.554955 0.039842
-0.267204 1.556318 0.039561
-0.263773 1.551861 0.040480
-0.261072 1.552245 0.040401
-0.258370 1.552624 0.040323
-0.256084 1.555908 0.039646
-0.253376 1.556278 0.039570
-0.250666 1.556644 0.039494
-0.247822 1.556035 0.039620
-0.245114 1.556391 0.039546
-0.242274 1.555772 0.039674
-0.239565 1.556119 0.039602
-0.236729 1.555490 0.039732
-0.234147 1.556799 0.039462
-0.231189 1.555188 0.039794
-0.228604 1.556488 0.039526
-0.226014 1.557784 0.039259
-0.223539 1.560048 0.038793
-0.220473 1.557445 0.039329
-0.217647 1.556781 0.039466
-0.214597 1.554167 0.040005
-0.212226 1.557386 0.039341
-0.209515 1.557682 0.039280
-0.206911 1.558946 0.039020
-0.204091 1.558259 0.039161
-0.201273 1.557566 0.039304
-0.198665 1.558817 0.039046
-0.195749 1.557141 0.039392
-0.193137 1.558383 0.039136
-0.190132 1.555721 0.039684
-0.187519 1.556954 0.039430
-0.184715 1.556232 0.039579
-0.182283 1.559407 0.038925
-0.179477 1.558675 0.039076
-0.176942 1.560866 0.038624
-0.174137 1.560125 0.038777
-0.171336 1.559380 0.038930
-0.168454 1.557654 0.039286
-0.166070 1.561779 0.038436
-0.163191 1.560043 0.038794
-0.160710 1.563184 0.038146
-0.158219 1.566321 0.037500
-0.155492 1.566524 0.037458
-0.152545 1.563792 0.038021
-0.149751 1.563009 0.038183
-0.147029 1.563197 0.038144
-0.144444 1.565336 0.037703
-0.141652 1.564538 0.037867
-0.138929 1.564713 0.037831
-0.136204 1.564883 0.037796
-0.133419 1.564071 0.037964
-0.130696 1.564232 0.037930
-0.127915 1.563410 0.038100
-0.125137 1.562584 0.038270
-0.122471 1.563708 0.038038
-0.119749 1.563850 0.038009
-0.117026 1.563988 0.037981
-0.114401 1.566077 0.037550
-0.111722 1.567184 0.037322
-0.108993 1.567307 0.037297
-0.106221 1.566448 0.037474
-0.103452 1.565584 0.037652
-0.100726 1.565693 0.037629
-0.098039 1.566777 0.037406
-0.095311 1.566877 0.037385
-0.092583 1.566973 0.037366
-0.089855 1.567064 0.037347
-0.087126 1.567150 0.037329
-0.084428 1.568211 0.037110
-0.081753 1.570246 0.036691
-0.079019 1.570318 0.036676
-0.076188 1.566469 0.037469
-0.073483 1.567512 0.037255
-0.070754 1.567570 0.037242
-0.068063 1.569582 0.036828
-0.065278 1.566693 0.037423
-0.062566 1.567717 0.037212
-0.059851 1.568736 0.037002
-0.057120 1.568771 0.036995
-0.054399 1.569781 0.036787
-0.051648 1.567847 0.037185
-0.048933 1.569827 0.036777
-0.046194 1.568864 0.036976
-0.043470 1.570835 0.036570
-0.040735 1.570842 0.036568
-0.038000 1.570844 0.036568
-0.035265 1.570842 0.036568
-0.032544 1.566917 0.037377
-0.029821 1.565926 0.037581
-0.027088 1.566889 0.037383
-0.024360 1.566868 0.037387
-0.021612 1.568801 0.036989
-0.018868 1.569750 0.036793
-0.016107 1.571674 0.036397
-0.013371 1.571634 0.036405
-0.010617 1.572569 0.036212
-0.007898 1.571540 0.036424
-0.005183 1.570508 0.036637
-0.002426 1.571428 0.036447
0.000334 1.572344 0.036259
0.003045 1.571297 0.036474
0.005781 1.571225 0.036489
0.008517 1.571148 0.036505
0.011378 1.574981 0.035715
0.014153 1.575873 0.035531
0.016897 1.575782 0.035550
0.019604 1.574707 0.035772
0.022346 1.574606 0.035792
0.025087 1.574501 0.035814
0.027870 1.575369 0.035635
0.030526 1.573297 0.036062
0.033220 1.572199 0.036288
0.036004 1.573054 0.036112
0.038890 1.575860 0.035534
0.041633 1.575726 0.035562
0.044377 1.575587 0.035590
0.047012 1.573488 0.036023
0.049751 1.573341 0.036053
0.052663 1.576122 0.035480
0.055585 1.578897 0.034908
0.058335 1.578735 0.034942
0.060958 1.576613 0.035379
0.063574 1.574487 0.035817
0.066646 1.579197 0.034846
0.069464 1.579993 0.034682
0.072145 1.578830 0.034922
0.074894 1.578639 0.034961
0.077643 1.578444 0.035001
0.080541 1.580197 0.034640
0.083293 1.579992 0.034682
0.085965 1.578806 0.034927
0.088794 1.579568 0.034770
0.091627 1.580325 0.034614
0.094462 1.581077 0.034459
0.097130 1.579873 0.034707
0.099445 1.574761 0.035761
0.102364 1.576475 0.035407
0.105381 1.579159 0.034854
0.108130 1.578911 0.034905
0.110973 1.579634 0.034756
0.113628 1.578402 0.035010
0.116571 1.580090 0.034662
0.119124 1.577874 0.035119
0.121871 1.577603 0.035175
0.124926 1.580250 0.034629
0.127678 1.579970 0.034687
0.130641 1.581632 0.034345
0.133395 1.581341 0.034404
0.136148 1.581046 0.034465
0.139236 1.583666 0.033925
0.141880 1.582387 0.034189
0.144865 1.584023 0.033852
0.147273 1.580790 0.034518
0.150144 1.581444 0.034383
0.153018 1.582092 0.034250
0.156138 1.584679 0.033716
0.158774 1.583373 0.033986
0.161656 1.584006 0.033855
0.164287 1.582691 0.034126
0.167815 1.588171 0.032997
0.170450 1.586845 0.033270
0.173081 1.585516 0.033544
0.175842 1.585153 0.033619
0.178602 1.584785 0.033695
0.181499 1.585382 0.033572
0.184259 1.585005 0.033649
0.187019 1.584622 0.033728
0.189778 1.584235 0.033808
0.192681 1.584813 0.033689
0.196025 1.588292 0.032972
0.198938 1.588858 0.032855
0.201705 1.588451 0.032939
0.203866 1.584166 0.033822
0.206624 1.583750 0.033908
0.209537 1.584297 0.033795
0.212764 1.586774 0.033285
0.215527 1.586343 0.033374
0.218290 1.585907 0.033463
0.221051 1.585467 0.033554
0.223648 1.584055 0.033845
0.227066 1.587469 0.033141
0.230164 1.588945 0.032837
0.232931 1.588485 0.032932
0.235527 1.587054 0.033227
0.238634 1.588514 0.032926
0.242094 1.591897 0.032229
0.244516 1.589487 0.032726
0.247106 1.588038 0.033024
0.249872 1.587548 0.033125
0.253177 1.589944 0.032632
0.256128 1.590406 0.032536
0.258897 1.589901 0.032640
0.261666 1.589391 0.032745
0.264621 1.589839 0.032653
0.267389 1.589319 0.032760
0.270729 1.591679 0.032274
0.273693 1.592110 0.032185
0.276271 1.590614 0.032493
0.278845 1.589114 0.032803
0.281612 1.588570 0.032915
0.284777 1.589941 0.032632
0.288148 1.592265 0.032153
0.291124 1.592664 0.032071
0.294102 1.593058 0.031990
0.297288 1.594405 0.031712
0.300064 1.593829 0.031831
0.303049 1.594206 0.031753
0.306037 1.594578 0.031676
0.309026 1.594945 0.031601
0.312019 1.595306 0.031526
0.315013 1.595661 0.031453
0.317792 1.595056 0.031578
0.321009 1.596356 0.031310
0.324232 1.597650 0.031043
0.327460 1.598938 0.030778
0.329570 1.595448 0.031497
0.331895 1.592909 0.032020
0.335354 1.595135 0.031562
0.338591 1.596401 0.031301
0.341835 1.597660 0.031041
0.344850 1.597961 0.030979
0.347398 1.596352 0.031311
0.350415 1.596642 0.031251
0.352956 1.595025 0.031584
0.356214 1.596256 0.031331
0.359236 1.596530 0.031274
0.362016 1.595848 0.031415
0.365531 1.598011 0.030969
0.368807 1.599217 0.030720
0.371344 1.597570 0.031060
0.373625 1.594972 0.031595
0.376906 1.596161 0.031350
0.380954 1.600187 0.030521
0.383741 1.599468 0.030669
0.386526 1.598745 0.030818
0.389569 1.598963 0.030773
0.393395 1.602012 0.030144
0.396447 1.602217 0.030102
0.399765 1.603361 0.029866
0.402026 1.600722 0.030410
0.404814 1.599968 0.030566
0.407331 1.598265 0.030917
0.410926 1.600330 0.030491
0.413713 1.599560 0.030650
0.417046 1.600670 0.030421
0.420936 1.603655 0.029806
0.423729 1.602868 0.029968
0.425404 1.598315 0.030906
0.429029 1.600340 0.030489
0.432946 1.603298 0.029879
0.435738 1.602490 0.030046
0.438528 1.601678 0.030213
0.439593 1.595232 0.031542
0.444394 1.600977 0.030358
0.447182 1.600150 0.030528
0.450845 1.602128 0.030120
0.453929 1.602226 0.030100
0.457311 1.603254 0.029888
0.460400 1.603340 0.029871
0.464089 1.605290 0.029469
0.468389 1.609100 0.028684
0.471191 1.608232 0.028863
0.473992 1.607359 0.029043
0.476485 1.605549 0.029416
0.479896 1.606531 0.029213
0.483621 1.608437 0.028820
0.486732 1.608474 0.028813
0.489534 1.607575 0.028998
0.492333 1.606671 0.029184
0.495131 1.605762 0.029372
0.497928 1.604848 0.029560
0.502317 1.608571 0.028793
0.504157 1.604862 0.029557
0.507918 1.606714 0.029175
0.510716 1.605779 0.029368
0.514489 1.607616 0.028989
0.518270 1.609446 0.028612
0.522389 1.612192 0.028046
0.524205 1.608459 0.028816
0.527006 1.607496 0.029014
0.530473 1.608374 0.028833
0.533945 1.609245 0.028654
0.537422 1.610109 0.028476
0.540226 1.609123 0.028679
0.543368 1.609053 0.028693
0.546170 1.608057 0.028899
0.549658 1.608896 0.028726
0.552805 1.608808 0.028744
0.555607 1.607795 0.028952
-0.298280 1.558987 0.034443
-0.295238 1.557498 0.034754
-0.292526 1.557936 0.034663
-0.290133 1.560301 0.034168
-0.286783 1.556863 0.034887
-0.283289 1.552452 0.035809
-0.280741 1.553835 0.035520
-0.278188 1.555215 0.035232
-0.275782 1.557558 0.034742
-0.273518 1.560866 0.034050
-0.270356 1.558361 0.034574
-0.266912 1.553914 0.035504
-0.264062 1.553335 0.035625
-0.261214 1.552750 0.035747
-0.258651 1.554098 0.035465
-0.256223 1.556411 0.034982
-0.253651 1.557751 0.034701
-0.250938 1.558117 0.034625
-0.247956 1.556539 0.034955
-0.245246 1.556895 0.034880
-0.242535 1.557247 0.034807
-0.239565 1.555653 0.035140
-0.236602 1.554053 0.035475
-0.234021 1.555361 0.035201
-0.231436 1.556665 0.034928
-0.228969 1.558936 0.034454
-0.226254 1.559260 0.034386
-0.223539 1.559579 0.034319
-0.220823 1.559894 0.034253
-0.217877 1.558259 0.034595
-0.215050 1.557592 0.034735
-0.212337 1.557892 0.034672
-0.209734 1.559160 0.034407
-0.206911 1.558478 0.034549
-0.204197 1.558764 0.034490
-0.201273 1.557099 0.034838
-0.198973 1.561270 0.033966
-0.195951 1.558621 0.034519
-0.193634 1.562785 0.033649
-0.190912 1.563048 0.033594
-0.188094 1.562333 0.033743
-0.185280 1.561613 0.033894
-0.182560 1.561862 0.033842
-0.179659 1.560157 0.034198
-0.177208 1.563322 0.033537
-0.174224 1.560632 0.034099
-0.171592 1.561837 0.033847
-0.168788 1.561088 0.034004
-0.166070 1.561309 0.033957
-0.163351 1.561526 0.033912
-0.160632 1.561737 0.033868
-0.157912 1.561944 0.033825
-0.155192 1.562147 0.033782
-0.152618 1.564297 0.033333
-0.149822 1.563515 0.033496
-0.147308 1.566633 0.032844
-0.144308 1.562911 0.033623
-0.141586 1.563090 0.033585
-0.138735 1.561311 0.033957
-0.136079 1.562458 0.033717
-0.133297 1.561646 0.033887
-0.130459 1.559852 0.034262
-0.127742 1.560008 0.034230
-0.125305 1.565045 0.033176
-0.122633 1.566170 0.032941
-0.119958 1.567289 0.032707
-0.117229 1.567427 0.032678
-0.114450 1.566582 0.032855
-0.111627 1.564755 0.033237
-0.108857 1.563901 0.033416
-0.106308 1.567931 0.032573
-0.103577 1.568045 0.032549
-0.100846 1.568155 0.032526
-0.098077 1.567282 0.032709
-0.095347 1.567382 0.032688
-0.092618 1.567478 0.032668
-0.089822 1.565612 0.033058
-0.087064 1.564720 0.033244
-0.084339 1.564802 0.033227
-0.081642 1.565857 0.033007
-0.078967 1.567886 0.032582
-0.076188 1.565997 0.032977
-0.073438 1.565081 0.033169
-0.070712 1.565139 0.033157
-0.068006 1.566172 0.032941
-0.065278 1.566221 0.032931
-0.062551 1.566265 0.032921
-0.059809 1.565326 0.033118
-0.057083 1.565361 0.033110
-0.054367 1.566370 0.032899
-0.051666 1.569332 0.032280
-0.048954 1.572289 0.031662
-0.046210 1.571327 0.031863
-0.043473 1.571338 0.031861
-0.040735 1.570367 0.032064
-0.038000 1.567432 0.032677
-0.035263 1.571345 0.031859
-0.032530 1.570360 0.032065
-0.029785 1.572306 0.031658
-0.027060 1.570332 0.032071
-0.024317 1.571289 0.031871
-0.021612 1.568327 0.032490
-0.018844 1.571233 0.031883
-0.016093 1.572177 0.031685
-0.013355 1.572137 0.031694
-0.010617 1.572093 0.031703
-0.007879 1.572044 0.031713
-0.005162 1.571011 0.031929
-0.002426 1.570953 0.031941
0.000310 1.570890 0.031954
0.003098 1.572779 0.031559
0.005837 1.572706 0.031575
0.008576 1.572629 0.031591
0.011315 1.572547 0.031608
0.014020 1.571482 0.031830
0.016897 1.575304 0.031031
0.019604 1.574230 0.031256
0.022384 1.575107 0.031073
0.025087 1.574023 0.031299
0.027954 1.576847 0.030709
0.030744 1.577710 0.030528
0.033492 1.577590 0.030553
0.036004 1.572577 0.031602
0.038694 1.571471 0.031833
0.041431 1.571337 0.031861
0.044167 1.571199 0.031890
0.046958 1.572034 0.031715
0.049919 1.575796 0.030929
0.052951 1.580529 0.029939
0.055763 1.581349 0.029768
0.058396 1.579232 0.030210
0.061083 1.578088 0.030449
0.063832 1.577917 0.030485
0.066580 1.577740 0.030522
0.069464 1.579512 0.030152
0.072215 1.579327 0.030190
0.074894 1.578159 0.030434
0.077643 1.577964 0.030475
0.080466 1.578740 0.030313
0.083216 1.578536 0.030356
0.085808 1.576375 0.030808
0.088634 1.577136 0.030648
0.091545 1.578869 0.030286
0.094713 1.583522 0.029313
0.097386 1.582318 0.029565
0.100142 1.582084 0.029614
0.102720 1.579896 0.030071
0.105199 1.576729 0.030734
0.108038 1.577456 0.030581
0.110691 1.576230 0.030838
0.113436 1.575974 0.030891
0.116181 1.575713 0.030946
0.118925 1.575447 0.031002
0.121871 1.577124 0.030651
0.124926 1.579770 0.030098
0.127887 1.581436 0.029749
0.130747 1.582123 0.029606
0.133503 1.581833 0.029666
0.136368 1.582510 0.029525
0.139124 1.582210 0.029587
0.141880 1.581905 0.029651
0.144520 1.580623 0.029919
0.147273 1.580309 0.029985
0.150499 1.583878 0.029239
0.153498 1.585497 0.028900
0.156016 1.583224 0.029375
0.158774 1.582891 0.029445
0.161405 1.581581 0.029719
0.164160 1.581238 0.029791
0.167043 1.581861 0.029661
0.169928 1.582479 0.029531
0.172817 1.583091 0.029403
0.175976 1.585639 0.028871
0.178738 1.585271 0.028948
0.181361 1.583929 0.029228
0.184120 1.583552 0.029307
0.187160 1.585108 0.028982
0.190064 1.585690 0.028860
0.192826 1.585298 0.028942
0.195587 1.584901 0.029025
0.198643 1.586436 0.028704
0.201556 1.586997 0.028587
0.204471 1.587553 0.028470
0.207542 1.589071 0.028153
0.210310 1.588649 0.028241
0.213077 1.588223 0.028330
0.215527 1.585858 0.028825
0.218130 1.584457 0.029118
0.221212 1.585948 0.028806
0.224138 1.586469 0.028697
0.227066 1.586984 0.028589
0.229997 1.587494 0.028483
0.233268 1.589929 0.027974
0.236207 1.590427 0.027869
0.239494 1.592849 0.027363
0.242268 1.592373 0.027463
0.245042 1.591892 0.027563
0.247638 1.590442 0.027866
0.250587 1.590915 0.027767
0.252997 1.588494 0.028274
0.256310 1.590882 0.027774
0.259265 1.591339 0.027679
0.262409 1.592752 0.027383
0.265183 1.592237 0.027491
0.267578 1.589794 0.028002
0.270347 1.589270 0.028111
0.273886 1.592583 0.027419
0.276854 1.593008 0.027330
0.279825 1.593427 0.027242
0.282007 1.590003 0.027958
0.285773 1.594250 0.027070
0.288551 1.593695 0.027186
0.291529 1.594093 0.027103
0.294511 1.594486 0.027021
0.297082 1.592958 0.027340
0.299856 1.592383 0.027461
0.302840 1.592760 0.027382
0.306037 1.594089 0.027104
0.309026 1.594455 0.027027
0.311804 1.593860 0.027152
0.314797 1.594216 0.027077
0.317137 1.591700 0.027603
0.320789 1.594911 0.026932
0.324010 1.596204 0.026662
0.326791 1.595583 0.026791
0.329795 1.595912 0.026723
0.332802 1.596234 0.026655
0.336039 1.597504 0.026390
0.338821 1.596863 0.026524
0.341603 1.596217 0.026659
0.345317 1.599373 0.025999
0.347398 1.595862 0.026733
0.350415 1.596152 0.026673
0.353195 1.595486 0.026812
0.356454 1.596716 0.026555
0.360203 1.599838 0.025902
0.363234 1.600105 0.025846
0.366267 1.600366 0.025791
0.369301 1.600622 0.025738
0.371592 1.598027 0.026280
0.373875 1.595430 0.026824
0.376654 1.594724 0.026971
0.380954 1.599694 0.025932
0.383741 1.598976 0.026082
0.386783 1.599199 0.026036
0.389828 1.599416 0.025990
0.393395 1.601518 0.025551
0.396710 1.602668 0.025310
0.399765 1.602867 0.025269
0.402292 1.601173 0.025623
0.405348 1.601362 0.025583
0.407869 1.599659 0.025939
0.410926 1.599837 0.025902
0.414530 1.601893 0.025472
0.417594 1.602059 0.025437
0.420661 1.602220 0.025404
0.423729 1.602374 0.025372
0.427078 1.603463 0.025144
0.430152 1.603606 0.025114
0.432946 1.602803 0.025282
0.435170 1.600119 0.025843
0.438528 1.601185 0.025620
0.441317 1.600368 0.025791
0.445261 1.603295 0.025179
0.448054 1.602467 0.025352
0.451138 1.602570 0.025331
0.454223 1.602668 0.025310
0.456720 1.600890 0.025682
0.459806 1.600977 0.025664
0.464089 1.604794 0.024866
0.467787 1.606735 0.024460
0.470586 1.605868 0.024641
0.473080 1.604064 0.025018
0.476485 1.605053 0.024812
0.479589 1.605103 0.024801
0.482694 1.605147 0.024792
0.485800 1.605186 0.024784
0.489221 1.606148 0.024583
0.492019 1.605245 0.024771
0.495131 1.605266 0.024767
0.497928 1.604353 0.024958
0.502636 1.609001 0.023986
0.505760 1.609002 0.023986
0.508885 1.608997 0.023987
0.510068 1.603430 0.025151
0.515140 1.608970 0.023992
0.517616 1.607098 0.024384
0.521731 1.609844 0.023810
0.524535 1.608885 0.024010
0.528003 1.609768 0.023826
0.530807 1.608799 0.024028
0.533945 1.608747 0.024039
0.538096 1.611454 0.023473
0.540564 1.609546 0.023872
0.543709 1.609476 0.023887
0.546854 1.609399 0.023903
0.551033 1.612075 0.023343
0.553496 1.610147 0.023746
0.554566 1.604544 0.024918
-0.303232 1.587803 0.027031
-0.295238 1.557357 0.033423
-0.292526 1.557794 0.033332
-0.289813 1.558226 0.033241
-0.286625 1.555755 0.033760
-0.283602 1.554244 0.034077
-0.281050 1.555628 0.033786
-0.278188 1.555074 0.033903
-0.275782 1.557417 0.033411
-0.273219 1.558788 0.033123
-0.270504 1.559187 0.033039
-0.267496 1.557646 0.033363
-0.263917 1.552225 0.034501
-0.261072 1.551640 0.034624
-0.258370 1.552019 0.034544
-0.255806 1.553362 0.034262
-0.253788 1.558579 0.033167
-0.251209 1.559914 0.032886
-0.248492 1.560276 0.032810
-0.245643 1.559664 0.032939
-0.242926 1.560016 0.032865
-0.240080 1.559393 0.032996
-0.237237 1.558765 0.033128
-0.234021 1.555220 0.033872
-0.231313 1.555552 0.033802
-0.228847 1.557823 0.033326
-0.226134 1.558146 0.033258
-0.223539 1.559437 0.032987
-0.220940 1.560724 0.032717
-0.217877 1.558117 0.033264
-0.214937 1.556477 0.033608
-0.212003 1.554832 0.033954
-0.209295 1.555127 0.033892
-0.206803 1.557363 0.033422
-0.204091 1.557649 0.033362
-0.201483 1.558904 0.033099
-0.198870 1.560154 0.032836
-0.196153 1.560427 0.032779
-0.193535 1.561668 0.032518
-0.190815 1.561932 0.032463
-0.188094 1.562191 0.032409
-0.185185 1.560496 0.032764
-0.182283 1.558796 0.033121
-0.179477 1.558066 0.033275
-0.176942 1.560254 0.032815
-0.174312 1.561464 0.032561
-0.171848 1.564620 0.031898
-0.169040 1.563871 0.032056
-0.166152 1.562142 0.032419
-0.163431 1.562359 0.032373
-0.160789 1.563546 0.032124
-0.158142 1.564729 0.031875
-0.155267 1.562980 0.032243
-0.152545 1.563178 0.032201
-0.149608 1.560443 0.032775
-0.146960 1.561608 0.032531
-0.144240 1.561792 0.032492
-0.141719 1.564900 0.031840
-0.138993 1.565075 0.031803
-0.135953 1.560362 0.032793
-0.133297 1.561503 0.032553
-0.130577 1.561664 0.032519
-0.127973 1.563774 0.032076
-0.125305 1.564902 0.031839
-0.122579 1.565049 0.031808
-0.120010 1.568123 0.031163
-0.117026 1.563374 0.032160
-0.114401 1.565462 0.031722
-0.111675 1.565590 0.031695
-0.109129 1.569624 0.030848
-0.106352 1.568765 0.031028
-0.103535 1.566924 0.031415
-0.100927 1.569967 0.030776
-0.098000 1.565183 0.031780
-0.095421 1.569195 0.030938
-0.092618 1.567335 0.031328
-0.089888 1.567425 0.031309
-0.087126 1.566534 0.031497
-0.084398 1.566615 0.031479
-0.081669 1.566692 0.031463
-0.079045 1.570678 0.030626
-0.076310 1.570745 0.030612
-0.073506 1.567873 0.031215
-0.070712 1.564996 0.031819
-0.067986 1.565050 0.031808
-0.065278 1.566077 0.031592
-0.062582 1.568079 0.031172
-0.059851 1.568118 0.031164
-0.057132 1.569132 0.030951
-0.054399 1.569162 0.030945
-0.051648 1.567231 0.031350
-0.048940 1.570188 0.030729
-0.046210 1.571182 0.030520
-0.043477 1.572173 0.030313
