# This PCD file was generated using the MATLAB® pcwrite function
# from Computer Vision System Toolbox®.
# .PCD v.7 - Point Cloud Data file format
VERSION .7
FIELDS x y z
SIZE 4 4 4
TYPE F F F
COUNT 1 1 1
WIDTH 1704
HEIGHT 1
VIEWPOINT 0 0 0 1 0 0 0
POINTS 1704
DATA ascii
0.121743 1.588799 -0.211462
0.124785 1.590405 -0.212046
0.127126 1.585461 -0.210246
0.130169 1.587057 -0.210828
0.133531 1.591452 -0.212428
0.136379 1.591168 -0.212324
0.139119 1.589946 -0.211879
0.141745 1.587785 -0.211092
0.144809 1.589355 -0.211664
0.147766 1.589987 -0.211894
0.150957 1.592480 -0.212802
0.153573 1.590301 -0.212009
0.156301 1.589052 -0.211554
0.159024 1.587798 -0.211097
0.162109 1.589338 -0.211658
0.164954 1.589007 -0.211538
0.168173 1.591469 -0.212434
0.171021 1.591128 -0.212310
0.174126 1.592647 -0.212863
0.176585 1.589502 -0.211718
0.180091 1.593805 -0.213284
0.183077 1.594376 -0.213492
0.186338 1.596804 -0.214377
0.189608 1.599226 -0.215258
0.192331 1.597919 -0.214783
0.196178 1.604051 -0.217016
0.198621 1.600875 -0.215859
0.201343 1.599555 -0.215378
0.203913 1.597301 -0.214557
0.205885 1.591326 -0.212382
0.208883 1.591853 -0.212574
0.211278 1.588659 -0.211411
0.214427 1.590105 -0.211937
0.217736 1.592473 -0.212800
0.221368 1.596692 -0.214336
0.224701 1.599048 -0.215194
0.229481 1.609745 -0.219089
0.232202 1.608377 -0.218591
0.235244 1.608858 -0.218766
0.236474 1.599140 -0.215227
0.239503 1.599615 -0.215400
0.243883 1.607493 -0.218269
0.247952 1.613510 -0.220460
0.249465 1.605633 -0.217592
0.252166 1.604234 -0.217082
0.255038 1.603756 -0.216908
0.258263 1.605122 -0.217406
0.261315 1.605559 -0.217565
0.264731 1.607838 -0.218395
0.268156 1.610111 -0.219222
0.271406 1.611454 -0.219711
0.274663 1.612791 -0.220198
0.277737 1.613198 -0.220347
0.281382 1.616369 -0.221501
0.284086 1.614920 -0.220974
0.287170 1.615312 -0.221116
0.289868 1.613855 -0.220585
0.293541 1.617000 -0.221731
0.296832 1.618296 -0.222203
0.299929 1.618666 -0.222337
0.303229 1.619950 -0.222805
0.305927 1.618468 -0.222265
0.309439 1.620661 -0.223064
0.311928 1.618250 -0.222186
0.315242 1.619512 -0.222645
0.318561 1.620768 -0.223103
0.322097 1.622936 -0.223892
0.325643 1.625097 -0.224679
0.328553 1.624498 -0.224461
0.332328 1.627564 -0.225578
0.334589 1.624203 -0.224354
0.339036 1.630007 -0.226467
0.341513 1.627553 -0.225574
0.344874 1.628760 -0.226013
0.347341 1.626299 -0.225117
0.349574 1.622919 -0.223886
0.352480 1.622281 -0.223654
0.356765 1.627125 -0.225418
0.360375 1.629217 -0.226180
0.366327 1.640439 -0.230266
0.368561 1.637034 -0.229026
0.370072 1.630887 -0.226788
0.371323 1.623828 -0.224217
0.374712 1.624979 -0.224636
0.380283 1.634328 -0.228041
0.384672 1.639108 -0.229781
0.386872 1.635680 -0.228533
0.389308 1.633159 -0.227615
0.390741 1.626996 -0.225371
0.396910 1.638116 -0.229420
0.402113 1.645584 -0.232140
0.404046 1.641225 -0.230552
0.407497 1.642314 -0.230949
0.410182 1.640673 -0.230351
0.414157 1.643566 -0.231405
0.417101 1.642822 -0.231134
0.420831 1.644794 -0.231852
0.424042 1.644945 -0.231907
0.427520 1.645997 -0.232290
0.430469 1.645231 -0.232011
0.433685 1.645365 -0.232060
0.436904 1.645494 -0.232107
0.440941 1.648329 -0.233139
0.443894 1.647541 -0.232852
0.447397 1.648555 -0.233221
0.451183 1.650465 -0.233917
0.454419 1.650563 -0.233952
0.457657 1.650655 -0.233986
0.460615 1.649839 -0.233689
0.463855 1.649920 -0.233718
0.467668 1.651796 -0.234401
0.470628 1.650964 -0.234099
0.473586 1.650128 -0.233794
0.477996 1.653782 -0.235125
0.481837 1.655629 -0.235797
0.481863 1.645793 -0.232215
0.484812 1.644938 -0.231904
0.487759 1.644078 -0.231591
0.495788 1.658456 -0.236827
0.501767 1.666540 -0.239770
0.505661 1.668339 -0.240426
0.508955 1.668340 -0.240426
0.513474 1.671914 -0.241727
0.512783 1.660277 -0.237490
0.516067 1.660265 -0.237486
0.515315 1.648637 -0.233251
0.519518 1.651297 -0.234220
0.523104 1.652165 -0.234536
0.528274 1.657483 -0.236472
0.536321 1.670810 -0.241325
0.540911 1.674318 -0.242603
0.545195 1.676926 -0.243552
0.548524 1.676857 -0.243527
0.549586 1.670559 -0.241234
0.550627 1.664262 -0.238941
0.554919 1.666846 -0.239882
0.559222 1.669420 -0.240819
0.563536 1.671986 -0.241753
0.568194 1.675428 -0.243007
0.571198 1.674432 -0.242644
0.574535 1.674315 -0.242602
0.577873 1.674193 -0.242557
0.582907 1.678485 -0.244120
0.586256 1.678348 -0.244070
0.589607 1.678205 -0.244018
0.592959 1.678055 -0.243964
0.597349 1.680546 -0.244870
0.600362 1.679501 -0.244490
0.604070 1.680213 -0.244749
0.607782 1.680918 -0.245006
0.611500 1.681615 -0.245260
0.615928 1.684064 -0.246152
0.619303 1.683867 -0.246080
0.622322 1.682787 -0.245686
0.627489 1.686965 -0.247208
0.631234 1.687624 -0.247448
0.635345 1.689152 -0.248004
0.640190 1.692423 -0.249195
0.645049 1.695683 -0.250382
0.645525 1.688440 -0.247745
0.645607 1.680327 -0.244791
0.646401 1.673965 -0.242474
0.649773 1.673713 -0.242382
0.657995 1.684788 -0.246415
0.662514 1.687129 -0.247268
0.670430 1.697296 -0.250970
0.673474 1.696131 -0.250546
0.677654 1.697570 -0.251070
0.678793 1.692050 -0.249060
0.681828 1.690872 -0.248631
0.686781 1.694027 -0.249779
0.691748 1.697170 -0.250924
0.695955 1.698569 -0.251434
0.699779 1.699094 -0.251625
0.702826 1.697882 -0.251183
0.710972 1.707900 -0.254831
0.714035 1.706670 -0.254383
0.717096 1.705434 -0.253933
0.720950 1.705918 -0.254109
0.725206 1.707256 -0.254597
0.728268 1.706001 -0.254140
0.733338 1.709044 -0.255248
0.737211 1.709496 -0.255412
0.741492 1.710800 -0.255887
0.745781 1.712094 -0.256358
0.749261 1.711664 -0.256202
0.753151 1.712084 -0.256355
0.758280 1.715066 -0.257441
0.762596 1.716325 -0.257899
0.764846 1.713299 -0.256797
0.766671 1.709417 -0.255384
0.772244 1.713217 -0.256767
0.775737 1.712739 -0.256593
0.780494 1.714811 -0.257348
0.785683 1.717724 -0.258409
0.790037 1.718923 -0.258845
0.793121 1.717563 -0.258350
0.798339 1.720445 -0.259399
0.802713 1.721617 -0.259826
0.806663 1.721932 -0.259941
0.811481 1.723934 -0.260670
0.814574 1.722538 -0.260162
0.818970 1.723675 -0.260576
0.824683 1.727339 -0.261910
0.829536 1.729300 -0.262624
0.833519 1.729562 -0.262719
0.837065 1.728974 -0.262505
0.841053 1.729221 -0.262595
0.846379 1.731985 -0.263601
0.850826 1.733055 -0.263991
0.855279 1.734115 -0.264377
0.859290 1.734326 -0.264454
0.862853 1.733691 -0.264223
0.867322 1.734725 -0.264599
0.872705 1.737424 -0.265582
0.876734 1.737601 -0.265646
0.882138 1.740277 -0.266621
0.885720 1.739600 -0.266374
0.889303 1.738917 -0.266126
0.894270 1.740727 -0.266785
0.898785 1.741694 -0.267137
0.904700 1.745147 -0.268394
0.910630 1.748585 -0.269646
0.916109 1.751179 -0.270591
0.920191 1.751271 -0.270624
0.924748 1.752184 -0.270957
0.928839 1.752259 -0.270984
0.932459 1.751498 -0.270707
0.937505 1.753210 -0.271330
0.939221 1.749130 -0.269845
0.106453 1.579239 -0.206201
0.109912 1.585553 -0.208492
0.113118 1.589051 -0.209762
0.115961 1.588801 -0.209671
0.118612 1.586675 -0.208900
0.121353 1.585480 -0.208466
0.124189 1.585216 -0.208370
0.126924 1.584013 -0.207933
0.129757 1.583740 -0.207834
0.133009 1.587202 -0.209091
0.135848 1.586919 -0.208988
0.138903 1.588500 -0.209562
0.141855 1.589142 -0.209795
0.145032 1.591647 -0.210704
0.148106 1.593212 -0.211273
0.150957 1.592905 -0.211161
0.153457 1.589792 -0.210031
0.156182 1.588542 -0.209577
0.158904 1.587288 -0.209122
0.161866 1.587895 -0.209343
0.164830 1.588498 -0.209561
0.168048 1.590961 -0.210455
0.171021 1.591552 -0.210670
0.173869 1.591207 -0.210545
0.176716 1.590857 -0.210418
0.180355 1.596093 -0.212318
0.184015 1.601322 -0.214216
0.187424 1.604680 -0.215435
0.190295 1.604308 -0.215300
0.193584 1.606724 -0.216177
0.196460 1.606341 -0.216038
0.199335 1.605954 -0.215898
0.202930 1.610214 -0.217444
0.206835 1.616325 -0.219662
0.205885 1.591750 -0.210742
0.208434 1.589488 -0.209921
0.211883 1.592798 -0.211122
0.215192 1.595173 -0.211984
0.218046 1.594755 -0.211833
0.220586 1.592476 -0.211005
0.225966 1.606900 -0.216241
0.229161 1.608320 -0.216756
0.232525 1.610663 -0.217607
0.236388 1.615781 -0.219464
0.238950 1.613474 -0.218627
0.240337 1.604676 -0.215434
0.243040 1.603290 -0.214931
0.248292 1.615795 -0.219469
0.250841 1.613471 -0.218626
0.252513 1.606514 -0.216101
0.255739 1.607886 -0.216599
0.258617 1.607402 -0.216423
0.261672 1.607838 -0.216581
0.264731 1.608268 -0.216738
0.267791 1.608694 -0.216892
0.271038 1.610037 -0.217380
0.274477 1.612299 -0.218201
0.278112 1.615478 -0.219354
0.281193 1.615879 -0.219500
0.284086 1.615353 -0.219309
0.286977 1.614823 -0.219117
0.290062 1.615209 -0.219257
0.293149 1.615590 -0.219395
0.297029 1.619652 -0.220870
0.299729 1.618179 -0.220335
0.302827 1.618543 -0.220467
0.305724 1.617982 -0.220263
0.309234 1.620176 -0.221060
0.312341 1.620523 -0.221186
0.315450 1.620866 -0.221310
0.318352 1.620284 -0.221099
0.321886 1.622453 -0.221886
0.325856 1.626452 -0.223338
0.329197 1.627689 -0.223787
0.332545 1.628919 -0.224233
0.336116 1.631061 -0.225011
0.338816 1.629528 -0.224454
0.342177 1.630741 -0.224894
0.345990 1.633780 -0.225998
0.350041 1.637727 -0.227430
0.352067 1.633426 -0.225869
0.355677 1.635529 -0.226632
0.359296 1.637625 -0.227393
0.363619 1.642457 -0.229147
0.366561 1.641796 -0.228907
0.369031 1.639302 -0.228002
0.369362 1.628587 -0.224112
0.371323 1.624264 -0.222544
0.374712 1.625415 -0.222961
0.381493 1.639329 -0.228012
0.385159 1.641373 -0.228754
0.387608 1.638854 -0.227839
0.387332 1.626312 -0.223287
0.391239 1.629254 -0.224355
0.394907 1.631278 -0.225089
0.400349 1.639661 -0.228132
0.403793 1.640758 -0.228531
0.407753 1.643666 -0.229586
0.411211 1.644749 -0.229979
0.414416 1.644918 -0.230040
0.417101 1.643266 -0.229441
0.420307 1.643424 -0.229498
0.423778 1.644483 -0.229882
0.427254 1.645535 -0.230264
0.430736 1.646581 -0.230644
0.433685 1.645810 -0.230364
0.436904 1.645938 -0.230411
0.440124 1.646061 -0.230455
0.443346 1.646178 -0.230498
0.446846 1.647194 -0.230866
0.450906 1.650008 -0.231888
0.454140 1.650106 -0.231924
0.456815 1.648394 -0.231302
0.460050 1.648482 -0.231334
0.463571 1.649465 -0.231691
0.467383 1.651342 -0.232372
0.470628 1.651411 -0.232397
0.473586 1.650574 -0.232093
0.477124 1.651531 -0.232441
0.480667 1.652481 -0.232786
0.484510 1.654323 -0.233454
0.489543 1.659749 -0.235424
0.495193 1.666958 -0.238041
0.496087 1.659802 -0.235443
0.500564 1.663406 -0.236751
0.503544 1.662520 -0.236430
0.508043 1.666107 -0.237731
0.508277 1.657154 -0.234482
0.512168 1.658938 -0.235129
0.512977 1.651775 -0.232529
0.518111 1.657123 -0.234471
0.522329 1.659781 -0.235435
0.526558 1.662429 -0.236396
0.531431 1.666852 -0.238002
0.534100 1.665023 -0.237338
0.538997 1.669428 -0.238937
0.543913 1.673821 -0.240531
0.548201 1.676423 -0.241476
0.553473 1.681684 -0.243386
0.554208 1.674490 -0.240774
0.557209 1.673516 -0.240421
0.559880 1.671649 -0.239743
0.563867 1.673327 -0.240352
0.567530 1.674111 -0.240637
0.571198 1.674887 -0.240918
0.574199 1.673885 -0.240555
0.578547 1.676418 -0.241474
0.581890 1.676289 -0.241427
0.585916 1.677921 -0.242020
0.590633 1.681311 -0.243250
0.594677 1.682926 -0.243836
0.597694 1.681885 -0.243459
0.601055 1.681721 -0.243399
0.604070 1.680670 -0.243018
0.608833 1.684017 -0.244232
0.612555 1.684713 -0.244485
0.615575 1.683643 -0.244097
0.619303 1.684326 -0.244345
0.623392 1.685880 -0.244908
0.627489 1.687425 -0.245469
0.631234 1.688084 -0.245709
0.635345 1.689613 -0.246264
0.638737 1.689382 -0.246180
0.645414 1.697021 -0.248952
0.648457 1.695897 -0.248545
0.653706 1.700012 -0.250038
0.655645 1.696255 -0.248674
0.656086 1.689005 -0.246043
0.658368 1.686119 -0.244995
0.664013 1.691075 -0.246794
0.667797 1.691663 -0.247008
0.672341 1.693984 -0.247850
0.676895 1.696295 -0.248689
0.679937 1.695119 -0.248262
0.683741 1.695676 -0.248464
0.687550 1.696225 -0.248664
0.691748 1.697634 -0.249175
0.694017 1.694701 -0.248110
0.700168 1.700425 -0.250188
0.703998 1.700942 -0.250376
0.709795 1.705774 -0.252130
0.712459 1.703681 -0.251370
0.715910 1.703311 -0.251235
0.720552 1.705522 -0.252038
0.724009 1.705137 -0.251898
0.727067 1.703884 -0.251444
0.730524 1.703487 -0.251300
0.734789 1.704804 -0.251778
0.739062 1.706112 -0.252252
0.743748 1.708270 -0.253035
0.749261 1.712133 -0.254438
0.752332 1.710839 -0.253968
0.756634 1.712110 -0.254429
0.760944 1.713372 -0.254887
0.764431 1.712914 -0.254721
0.767920 1.712449 -0.254553
0.771408 1.711979 -0.254382
0.775318 1.712355 -0.254518
0.779230 1.712723 -0.254652
0.784415 1.715640 -0.255711
0.789189 1.717693 -0.256456
0.791844 1.715483 -0.255654
0.795775 1.715818 -0.255775
0.800997 1.718694 -0.256819
0.806232 1.721557 -0.257858
0.809320 1.720169 -0.257355
0.813706 1.721318 -0.257771
0.818970 1.724149 -0.258799
0.824247 1.726969 -0.259823
0.829536 1.729776 -0.260842
0.833080 1.729194 -0.260630
0.837506 1.730293 -0.261029
0.840610 1.728854 -0.260507
0.845490 1.730778 -0.261205
0.850380 1.732691 -0.261900
0.854384 1.732912 -0.261980
0.858841 1.733964 -0.262362
0.862853 1.734168 -0.262436
0.866417 1.733526 -0.262203
0.872251 1.737065 -0.263487
0.876734 1.738079 -0.263856
0.881224 1.739084 -0.264220
0.886179 1.740915 -0.264885
0.890223 1.741065 -0.264939
0.895194 1.742875 -0.265596
0.901101 1.746340 -0.266854
0.904700 1.745629 -0.266596
0.909698 1.747406 -0.267241
0.914705 1.749171 -0.267882
0.918783 1.749265 -0.267916
0.922864 1.749352 -0.267947
0.926476 1.748601 -0.267675
0.931984 1.751154 -0.268601
0.936078 1.751214 -0.268623
0.941130 1.752918 -0.269242
0.942361 1.748008 -0.267459
0.106453 1.579875 -0.203722
0.109731 1.584318 -0.205327
0.112564 1.584074 -0.205238
0.115397 1.583824 -0.205148
0.118324 1.584506 -0.205395
0.121255 1.585183 -0.205639
0.124090 1.584919 -0.205544
0.127732 1.592137 -0.208151
0.130580 1.591862 -0.208052
0.133322 1.590648 -0.207613
0.136061 1.589429 -0.207173
0.138795 1.588206 -0.206731
0.141855 1.589783 -0.207301
0.144920 1.591355 -0.207868
0.147880 1.591987 -0.208097
0.150727 1.591679 -0.207986
0.153223 1.588565 -0.206861
0.155946 1.587315 -0.206409
0.158784 1.586994 -0.206293
0.161744 1.587602 -0.206513
0.164583 1.587272 -0.206394
0.167672 1.588803 -0.206947
0.170894 1.591262 -0.207835
0.173998 1.592782 -0.208384
0.176846 1.592432 -0.208257
0.179826 1.593009 -0.208466
0.182809 1.593581 -0.208673
0.186881 1.601603 -0.211570
0.188783 1.594710 -0.209080
0.192192 1.598061 -0.210291
0.195192 1.598612 -0.210490
0.199049 1.604743 -0.212704
0.201776 1.603421 -0.212227
0.204644 1.603025 -0.212084
0.207216 1.600764 -0.211267
0.209780 1.598499 -0.210449
0.213849 1.605528 -0.212988
0.215803 1.599535 -0.210823
0.218200 1.596329 -0.209665
0.220899 1.594977 -0.209177
0.224859 1.601050 -0.211370
0.230281 1.615471 -0.216579
0.233171 1.615029 -0.216419
0.236714 1.618293 -0.217598
0.235979 1.597432 -0.210063
0.239670 1.601616 -0.211575
0.241861 1.597450 -0.210070
0.246590 1.607183 -0.213586
0.249981 1.609493 -0.214420
0.253034 1.609944 -0.214583
0.255564 1.607612 -0.213741
0.258617 1.608054 -0.213900
0.261672 1.608490 -0.214058
0.264911 1.609846 -0.214547
0.267973 1.610271 -0.214701
0.271222 1.611615 -0.215186
0.274477 1.612953 -0.215670
0.277737 1.614286 -0.216151
0.280437 1.612842 -0.215629
0.283513 1.613240 -0.215773
0.286592 1.613633 -0.215915
0.289868 1.614943 -0.216388
0.293149 1.616247 -0.216859
0.295843 1.614779 -0.216329
0.299331 1.616993 -0.217129
0.302626 1.618280 -0.217594
0.305522 1.617718 -0.217391
0.308416 1.617152 -0.217186
0.311722 1.618422 -0.217645
0.315242 1.620605 -0.218434
0.318771 1.622782 -0.219220
0.321886 1.623113 -0.219339
0.325430 1.625277 -0.220121
0.328983 1.627433 -0.220900
0.334925 1.639684 -0.225325
0.338951 1.643659 -0.226761
0.338157 1.627440 -0.220902
0.338632 1.616731 -0.217034
0.341748 1.617027 -0.217141
0.347791 1.629231 -0.221549
0.354107 1.642337 -0.226283
0.356134 1.638028 -0.224727
0.358146 1.633717 -0.223170
0.360375 1.630320 -0.221942
0.363759 1.631492 -0.222366
0.366444 1.629916 -0.221797
0.367941 1.623767 -0.219576
0.371323 1.624925 -0.219994
0.376393 1.632468 -0.222718
0.380283 1.635436 -0.223790
0.383698 1.636571 -0.224200
0.386627 1.635876 -0.223950
0.389555 1.635177 -0.223697
0.389498 1.623541 -0.219494
0.395909 1.635585 -0.223844
0.399340 1.636690 -0.224244
0.405315 1.646887 -0.227927
0.408008 1.645248 -0.227334
0.411468 1.646331 -0.227726
0.414674 1.646499 -0.227786
0.417883 1.646662 -0.227845
0.420569 1.645003 -0.227246
0.423514 1.644248 -0.226973
0.427254 1.646208 -0.227681
0.430469 1.646349 -0.227732
0.433416 1.645577 -0.227453
0.437174 1.647517 -0.228154
0.440396 1.647640 -0.228198
0.443346 1.646852 -0.227914
0.446846 1.647868 -0.228281
0.450628 1.649780 -0.228972
0.453861 1.649879 -0.229007
0.456815 1.649069 -0.228715
0.459768 1.648255 -0.228421
0.463855 1.651042 -0.229427
0.467383 1.652019 -0.229780
0.470628 1.652087 -0.229805
0.473586 1.651250 -0.229502
0.477706 1.654007 -0.230498
0.481544 1.655857 -0.231166
0.486274 1.660395 -0.232806
0.488360 1.656837 -0.231520
0.488948 1.648786 -0.228613
0.494293 1.655099 -0.230893
0.498760 1.658708 -0.232196
0.501428 1.656928 -0.231553
0.504395 1.656040 -0.231233
0.507666 1.656042 -0.231234
0.513090 1.662304 -0.233495
0.516685 1.663186 -0.233814
0.519975 1.663167 -0.233807
0.524515 1.666716 -0.235089
0.528128 1.667576 -0.235400
0.531115 1.666644 -0.235063
0.532196 1.660356 -0.232792
0.534851 1.658526 -0.232131
0.544233 1.675401 -0.238226
0.543045 1.662868 -0.233699
0.546671 1.663692 -0.233996
0.549325 1.661840 -0.233328
0.556228 1.671539 -0.236831
0.559880 1.672337 -0.237119
0.563867 1.674016 -0.237726
0.566533 1.672139 -0.237048
0.570530 1.673804 -0.237649
0.573864 1.673688 -0.237607
0.577536 1.674452 -0.237883
0.581552 1.676094 -0.238476
0.585235 1.676844 -0.238747
0.589949 1.680237 -0.239973
0.593303 1.680087 -0.239918
0.597003 1.680814 -0.240181
0.600362 1.680651 -0.240122
0.603721 1.680482 -0.240061
0.607082 1.680307 -0.239998
0.612203 1.684528 -0.241523
0.616282 1.686098 -0.242089
0.619303 1.685021 -0.241701
0.623035 1.685697 -0.241945
0.626414 1.685488 -0.241869
0.631234 1.688782 -0.243059
0.634622 1.688558 -0.242978
0.640553 1.694461 -0.245110
0.642860 1.691594 -0.244075
0.648823 1.697474 -0.246199
0.652234 1.697219 -0.246106
0.656754 1.699579 -0.246959
0.658315 1.694942 -0.245284
0.662844 1.697288 -0.246131
0.665137 1.694391 -0.245085
0.670430 1.698462 -0.246556
0.673852 1.698168 -0.246449
0.677275 1.697867 -0.246341
0.679555 1.694951 -0.245287
0.680680 1.689426 -0.243292
0.688702 1.699532 -0.246942
0.694064 1.703543 -0.248391
0.700605 1.710142 -0.250774
0.702114 1.705461 -0.249084
0.704780 1.703378 -0.248331
0.708618 1.703886 -0.248515
0.712065 1.703523 -0.248383
0.715514 1.703153 -0.248250
0.718964 1.702777 -0.248114
0.723611 1.704982 -0.248910
0.726266 1.702867 -0.248147
0.731328 1.705916 -0.249248
0.735596 1.707232 -0.249723
0.739062 1.706820 -0.249574
0.742934 1.707260 -0.249733
0.747219 1.708551 -0.250200
0.751922 1.710691 -0.250973
0.755811 1.711106 -0.251123
0.760531 1.713227 -0.251889
0.765675 1.716193 -0.252960
0.769585 1.716581 -0.253100
0.772244 1.714399 -0.252312
0.775737 1.713920 -0.252139
0.780073 1.715141 -0.252580
0.786106 1.719762 -0.254249
0.790886 1.721814 -0.254990
0.794398 1.721302 -0.254805
0.797057 1.719083 -0.254004
0.800997 1.719408 -0.254121
0.807093 1.723971 -0.255769
0.811049 1.724278 -0.255880
0.814574 1.723729 -0.255682
0.819840 1.726561 -0.256705
0.823810 1.726842 -0.256806
0.829098 1.729651 -0.257821
0.832640 1.729070 -0.257611
0.835740 1.727638 -0.257094
0.839724 1.727888 -0.257184
0.845935 1.732342 -0.258793
0.849487 1.731730 -0.258572
0.854384 1.733634 -0.259260
0.858391 1.733847 -0.259337
0.862853 1.734892 -0.259714
0.868227 1.737604 -0.260694
0.871343 1.736114 -0.260155
0.876279 1.737968 -0.260825
0.879853 1.737301 -0.260584
0.884803 1.739135 -0.261247
0.889763 1.740958 -0.261905
0.895194 1.743603 -0.262861
0.900638 1.746237 -0.263812
0.904235 1.745526 -0.263555
0.909231 1.747305 -0.264197
0.913301 1.747410 -0.264235
0.917375 1.747506 -0.264270
0.923335 1.750913 -0.265501
0.928366 1.752648 -0.266127
0.932933 1.753544 -0.266451
0.936554 1.752775 -0.266173
0.939221 1.750346 -0.265296
0.106098 1.576127 -0.202368
0.109550 1.582445 -0.204650
0.112287 1.581264 -0.204224
0.115491 1.584760 -0.205487
0.118516 1.586378 -0.206071
0.121353 1.586119 -0.205977
0.124288 1.586791 -0.206220
0.127328 1.588394 -0.206799
0.130580 1.591862 -0.208052
0.133427 1.591583 -0.207951
0.136273 1.591300 -0.207848
0.138903 1.589141 -0.207069
0.141635 1.587914 -0.206625
0.144698 1.589486 -0.207193
0.147540 1.589183 -0.207084
0.150497 1.589811 -0.207311
0.152990 1.586697 -0.206186
0.155709 1.585447 -0.205735
0.158664 1.586060 -0.205956
0.161500 1.585735 -0.205839
0.165077 1.591005 -0.207742
0.167922 1.590670 -0.207621
0.170894 1.591262 -0.207835
0.173869 1.591850 -0.208047
0.176716 1.591499 -0.207921
0.179826 1.593009 -0.208466
0.181469 1.584261 -0.205306
0.184574 1.585762 -0.205848
0.187821 1.588189 -0.206725
0.191496 1.593404 -0.208609
0.194487 1.593956 -0.208808
0.198764 1.602881 -0.212032
0.200909 1.597837 -0.210210
0.203329 1.594651 -0.209059
0.205294 1.588672 -0.206899
0.208733 1.591990 -0.208098
0.212639 1.598090 -0.210301
0.216568 1.604183 -0.212502
0.218819 1.600046 -0.211008
0.222620 1.605195 -0.212868
0.224226 1.597336 -0.210029
0.227563 1.599688 -0.210878
0.230262 1.598322 -0.210385
0.232794 1.596023 -0.209555
0.235979 1.597432 -0.210063
0.239336 1.599762 -0.210905
0.243714 1.607648 -0.213753
0.246931 1.609037 -0.214255
0.249637 1.607640 -0.213751
0.252166 1.605313 -0.212910
0.255388 1.606686 -0.213406
0.258617 1.608054 -0.213900
0.261672 1.608490 -0.214058
0.265092 1.610771 -0.214881
0.268156 1.611195 -0.215035
0.270670 1.608842 -0.214185
0.273734 1.609257 -0.214335
0.276988 1.610590 -0.214816
0.280248 1.611918 -0.215296
0.283132 1.611393 -0.215106
0.286785 1.614556 -0.216249
0.289673 1.614020 -0.216055
0.292757 1.614402 -0.216193
0.295646 1.613857 -0.215996
0.298932 1.615150 -0.216463
0.302626 1.618280 -0.217594
0.306130 1.620481 -0.218389
0.309030 1.619914 -0.218184
0.312135 1.620262 -0.218310
0.315242 1.620605 -0.218434
0.318561 1.621862 -0.218888
0.321886 1.623113 -0.219339
0.325004 1.623439 -0.219457
0.328338 1.624678 -0.219905
0.331895 1.626829 -0.220682
0.336116 1.631726 -0.222451
0.339916 1.634780 -0.223553
0.342842 1.634157 -0.223329
0.345097 1.630779 -0.222108
0.347341 1.627399 -0.220887
0.350027 1.625848 -0.220327
0.354763 1.632534 -0.222742
0.357455 1.630971 -0.222178
0.361070 1.633065 -0.222934
0.362125 1.625091 -0.220054
0.367385 1.633573 -0.223118
0.369835 1.631078 -0.222216
0.373709 1.634059 -0.223293
0.375432 1.628816 -0.221399
0.378348 1.628135 -0.221153
0.382236 1.631098 -0.222224
0.385646 1.632229 -0.222632
0.388814 1.632443 -0.222709
0.389995 1.625363 -0.220152
0.393154 1.625569 -0.220226
0.397072 1.628499 -0.221285
0.401509 1.633241 -0.222998
0.407753 1.644338 -0.227006
0.411211 1.645422 -0.227397
0.413639 1.642865 -0.226474
0.416580 1.642121 -0.226205
0.419782 1.642280 -0.226263
0.423514 1.644248 -0.226973
0.426989 1.645302 -0.227354
0.430202 1.645442 -0.227405
0.432879 1.643765 -0.226799
0.436904 1.646612 -0.227827
0.440124 1.646735 -0.227872
0.443346 1.646852 -0.227914
0.447397 1.649676 -0.228934
0.451183 1.651588 -0.229624
0.453861 1.649879 -0.229007
0.457096 1.649972 -0.229041
0.459486 1.647352 -0.228095
0.463287 1.649238 -0.228776
0.467954 1.653821 -0.230431
0.471203 1.653889 -0.230456
0.474453 1.653951 -0.230478
0.478868 1.657607 -0.231799
0.481544 1.655857 -0.231166
0.485098 1.656799 -0.231507
0.489543 1.660431 -0.232819
0.491030 1.655072 -0.230883
0.492498 1.649714 -0.228948
0.494851 1.647047 -0.227984
0.502940 1.661410 -0.233172
0.506827 1.663208 -0.233822
0.511334 1.666788 -0.235115
0.515549 1.669464 -0.236081
0.516067 1.661397 -0.233168
0.517489 1.656015 -0.231224
0.524515 1.666716 -0.235089
0.529384 1.671148 -0.236690
0.531431 1.667537 -0.235385
0.531562 1.658572 -0.232147
0.538678 1.669223 -0.235994
0.541668 1.668274 -0.235652
0.543690 1.664649 -0.234342
0.542784 1.653014 -0.230140
0.549976 1.663619 -0.233970
0.555573 1.669761 -0.236189
0.559551 1.671449 -0.236798
0.563206 1.672241 -0.237084
0.566865 1.673026 -0.237368
0.570530 1.673804 -0.237649
0.574870 1.676346 -0.238567
0.578210 1.676223 -0.238523
0.581552 1.676094 -0.238476
0.584554 1.675075 -0.238108
0.588923 1.677586 -0.239015
0.592616 1.678321 -0.239280
0.597003 1.680814 -0.240181
0.601055 1.682415 -0.240759
0.604070 1.681364 -0.240380
0.607082 1.680307 -0.239998
0.611148 1.681887 -0.240569
0.615575 1.684338 -0.241454
0.620013 1.686780 -0.242336
0.623749 1.687454 -0.242580
0.626414 1.685488 -0.241869
0.628714 1.682639 -0.240840
0.633175 1.685050 -0.241711
0.636921 1.685699 -0.241945
0.641765 1.688967 -0.243126
0.646991 1.693099 -0.244618
0.652234 1.697219 -0.246106
0.654536 1.694335 -0.245065
0.655344 1.687956 -0.242761
0.659114 1.688561 -0.242979
0.666260 1.697007 -0.246030
0.669678 1.696720 -0.245926
0.673474 1.697297 -0.246135
0.676895 1.696997 -0.246026
0.678793 1.693212 -0.244659
0.679914 1.687688 -0.242664
0.682938 1.686507 -0.242237
0.691362 1.697469 -0.246197
0.693629 1.694535 -0.245137
0.699001 1.698530 -0.246580
0.699310 1.691257 -0.243953
0.704302 1.694370 -0.245077
0.711277 1.701794 -0.247759
0.715514 1.703153 -0.248250
0.718567 1.701913 -0.247802
0.723212 1.704119 -0.248599
0.726667 1.703729 -0.248458
0.731730 1.706777 -0.249559
0.734789 1.705511 -0.249102
0.739062 1.706820 -0.249574
0.743341 1.708119 -0.250044
0.746811 1.707693 -0.249890
0.751102 1.708976 -0.250353
0.754165 1.707678 -0.249884
0.757639 1.707231 -0.249723
0.764846 1.714481 -0.252342
0.768336 1.714016 -0.252174
0.771408 1.712690 -0.251695
0.774479 1.711359 -0.251214
0.781757 1.718553 -0.253812
0.785683 1.718910 -0.253941
0.788765 1.717555 -0.253452
0.789289 1.711089 -0.251116
0.792784 1.710579 -0.250932
0.805715 1.728754 -0.257497
0.811829 1.733309 -0.259142
0.814505 1.731063 -0.258331
0.814140 1.722881 -0.255376
0.821146 1.729101 -0.257622
0.823373 1.725996 -0.256501
0.828221 1.727961 -0.257210
0.830440 1.724847 -0.256086
0.834415 1.725107 -0.256180
0.838838 1.726202 -0.256575
0.844601 1.729814 -0.257880
0.848149 1.729205 -0.257660
0.854832 1.734475 -0.259563
0.858391 1.733847 -0.259337
0.863755 1.736571 -0.260320
0.868679 1.738443 -0.260997
0.872705 1.738628 -0.261063
0.875823 1.737131 -0.260523
0.881224 1.739811 -0.261491
0.885262 1.739971 -0.261548
0.889303 1.740123 -0.261603
0.896117 1.745272 -0.263463
0.900638 1.746237 -0.263812
0.903305 1.743860 -0.262953
0.908298 1.745641 -0.263596
0.912833 1.746578 -0.263935
0.918314 1.749167 -0.264870
0.923806 1.751743 -0.265801
0.928366 1.752648 -0.266127
0.933881 1.755200 -0.267049
0.937030 1.753602 -0.266472
0.940175 1.751999 -0.265893
0.942361 1.748739 -0.264716
0.103279 1.577023 -0.199852
0.106364 1.579601 -0.200778
0.109731 1.584985 -0.202713
0.112656 1.585677 -0.202962
0.115679 1.587301 -0.203545
0.118516 1.587046 -0.203454
0.121353 1.586787 -0.203360
0.124189 1.586523 -0.203265
0.127126 1.587190 -0.203505
0.129860 1.585981 -0.203071
0.132904 1.587574 -0.203643
0.136061 1.590099 -0.204550
0.139011 1.590746 -0.204783
0.141964 1.591388 -0.205014
0.144698 1.590155 -0.204571
0.147540 1.589853 -0.204462
0.150382 1.589546 -0.204352
0.153223 1.589234 -0.204240
0.156064 1.588917 -0.204126
0.158784 1.587662 -0.203675
0.161744 1.588271 -0.203894
0.164954 1.590742 -0.204782
0.167797 1.590406 -0.204661
0.170894 1.591933 -0.205210
0.173482 1.589721 -0.204415
0.176454 1.590304 -0.204624
0.180091 1.595546 -0.206508
0.182139 1.589590 -0.204368
0.185252 1.591091 -0.204907
0.188371 1.592586 -0.205444
0.191775 1.595940 -0.206649
0.194487 1.594628 -0.206178
0.196197 1.586793 -0.203362
0.200765 1.597580 -0.207239
0.204498 1.602772 -0.209104
0.207216 1.601440 -0.208626
0.209930 1.600105 -0.208146
0.212790 1.599695 -0.207999
0.215956 1.601141 -0.208518
0.218355 1.597932 -0.207365
0.223089 1.608663 -0.211221
0.226915 1.613807 -0.213070
0.228522 1.605938 -0.210242
0.231394 1.605498 -0.210084
0.233121 1.598554 -0.207589
0.237795 1.608316 -0.211097
0.241004 1.609716 -0.211600
0.243883 1.609256 -0.211434
0.244888 1.598589 -0.207602
0.247574 1.597195 -0.207101
0.252340 1.606919 -0.210595
0.255915 1.610145 -0.211754
0.258794 1.609660 -0.211580
0.261672 1.609170 -0.211404
0.264550 1.608676 -0.211226
0.267973 1.610953 -0.212044
0.271038 1.611373 -0.212195
0.274477 1.613637 -0.213009
0.276988 1.611272 -0.212159
0.280248 1.612601 -0.212636
0.283132 1.612076 -0.212448
0.286014 1.611546 -0.212257
0.288896 1.611011 -0.212065
0.292365 1.613241 -0.212866
0.295646 1.614541 -0.213333
0.298732 1.614913 -0.213467
0.302425 1.618044 -0.214592
0.306130 1.621169 -0.215715
0.309439 1.622444 -0.216173
0.312341 1.621871 -0.215967
0.315658 1.623134 -0.216421
0.318561 1.622551 -0.216212
0.321675 1.622883 -0.216331
0.324578 1.622289 -0.216118
0.327909 1.623530 -0.216563
0.332545 1.630277 -0.218988
0.334370 1.625074 -0.217118
0.337717 1.626296 -0.217557
0.340848 1.626594 -0.217664
0.344204 1.627804 -0.218099
0.349141 1.635426 -0.220838
0.352067 1.634788 -0.220609
0.354763 1.633229 -0.220049
0.358836 1.637161 -0.221461
0.359911 1.629183 -0.218595
0.364693 1.635847 -0.220990
0.367855 1.636098 -0.221080
0.372677 1.642744 -0.223468
0.376571 1.645722 -0.224538
0.379757 1.645952 -0.224621
0.380767 1.637959 -0.221748
0.383698 1.637269 -0.221500
0.387118 1.638398 -0.221906
0.390049 1.637698 -0.221654
0.393228 1.637904 -0.221728
0.394907 1.632637 -0.219836
0.397828 1.631924 -0.219580
0.403539 1.641219 -0.222920
0.407242 1.643221 -0.223639
0.410440 1.643396 -0.223702
0.413898 1.644475 -0.224090
0.416059 1.641005 -0.222843
0.420044 1.643889 -0.223879
0.423514 1.644950 -0.224261
0.426458 1.644190 -0.223987
0.429667 1.644331 -0.224038
0.432610 1.643561 -0.223761
0.436363 1.645503 -0.224459
0.439852 1.646533 -0.224829
0.443072 1.646651 -0.224872
0.446846 1.648572 -0.225562
0.450351 1.649581 -0.225925
0.453861 1.650584 -0.226285
0.456815 1.649774 -0.225994
0.459768 1.648959 -0.225701
0.463287 1.649943 -0.226055
0.467383 1.652725 -0.227054
0.471203 1.654597 -0.227727
0.474164 1.653758 -0.227426
0.479159 1.659218 -0.229387
0.482714 1.660166 -0.229728
0.485392 1.658408 -0.229097
0.486882 1.653051 -0.227172
0.492814 1.661172 -0.230090
0.499077 1.670176 -0.233325
0.500865 1.665701 -0.231717
0.502335 1.660328 -0.229786
0.504699 1.657645 -0.228822
0.506749 1.654063 -0.227535
0.509709 1.653166 -0.227213
0.512050 1.650474 -0.226246
0.516557 1.654041 -0.227527
0.520455 1.655809 -0.228163
0.523104 1.653996 -0.227511
0.524802 1.649500 -0.225896
0.527437 1.647681 -0.225242
0.534532 1.658345 -0.229074
0.535256 1.651162 -0.226493
0.541756 1.660018 -0.229675
0.547319 1.666186 -0.231891
0.552255 1.670561 -0.233464
0.557209 1.674925 -0.235032
0.560866 1.675722 -0.235318
0.564197 1.675624 -0.235283
0.566865 1.673745 -0.234608
0.570864 1.675411 -0.235206
0.574535 1.676181 -0.235483
0.578547 1.677830 -0.236076
0.582229 1.678586 -0.236347
0.585235 1.677565 -0.235980
0.589949 1.680961 -0.237200
0.592616 1.679043 -0.236511
0.596313 1.679771 -0.236773
0.601055 1.683140 -0.237984
0.605115 1.684734 -0.238556
0.609183 1.686320 -0.239126
0.613259 1.687897 -0.239693
0.616635 1.687705 -0.239624
0.619658 1.686627 -0.239237
0.623392 1.687303 -0.239479
0.626414 1.686214 -0.239088
0.629074 1.684242 -0.238380
0.632814 1.684899 -0.238616
0.634015 1.679411 -0.236643
0.643590 1.694076 -0.241913
0.645525 1.690327 -0.240566
0.651129 1.695327 -0.242363
0.654166 1.694193 -0.241955
0.654601 1.686937 -0.239348
0.658368 1.687543 -0.239566
0.661016 1.685524 -0.238840
0.668173 1.693965 -0.241873
0.672341 1.695417 -0.242395
0.677654 1.699472 -0.243852
0.681842 1.700904 -0.244367
0.681445 1.691894 -0.241129
0.686397 1.695054 -0.242265
0.694450 1.705148 -0.245892
0.701380 1.712618 -0.248576
0.705227 1.713135 -0.248762
0.699310 1.691987 -0.241163
0.702340 1.690774 -0.240727
0.712853 1.705990 -0.246194
0.716305 1.705619 -0.246061
0.719758 1.705241 -0.245925
0.723212 1.704857 -0.245787
0.727067 1.705329 -0.245957
0.730524 1.704931 -0.245814
0.733982 1.704527 -0.245669
0.737441 1.704117 -0.245521
0.743748 1.709719 -0.247534
0.747628 1.710151 -0.247689
0.752332 1.712291 -0.248459
0.756634 1.713564 -0.248916
0.760118 1.713113 -0.248754
0.763602 1.712656 -0.248590
0.767087 1.712193 -0.248423
0.770991 1.712577 -0.248561
0.775737 1.714664 -0.249311
0.780915 1.717592 -0.250364
0.784415 1.717098 -0.250186
0.789613 1.720006 -0.251231
0.790141 1.713534 -0.248905
0.791502 1.708768 -0.247193
0.799281 1.716755 -0.250062
0.797622 1.706033 -0.246210
0.809752 1.722481 -0.252120
0.809370 1.714302 -0.249181
0.817229 1.722228 -0.252029
0.820752 1.721667 -0.251828
0.826906 1.726175 -0.253448
0.832200 1.728978 -0.254455
0.835740 1.728390 -0.254244
0.839281 1.727796 -0.254030
0.843267 1.728039 -0.254117
0.848595 1.730800 -0.255109
0.853936 1.733548 -0.256097
0.857942 1.733762 -0.256174
0.864206 1.738168 -0.257757
0.867774 1.737523 -0.257525
0.871797 1.737710 -0.257592
0.875368 1.737051 -0.257355
0.880767 1.739733 -0.258319
0.885720 1.741566 -0.258978
0.891604 1.745059 -0.260233
0.895656 1.745199 -0.260284
0.900638 1.746999 -0.260930
0.904700 1.747122 -0.260974
0.908765 1.747235 -0.261015
0.912833 1.747341 -0.261053
0.916436 1.746608 -0.260790
0.921451 1.748358 -0.261419
0.927421 1.751756 -0.262640
0.933407 1.755139 -0.263855
0.938456 1.756853 -0.264471
0.939221 1.751111 -0.262408
0.105742 1.573346 -0.197206
0.109278 1.580608 -0.199809
0.112379 1.583176 -0.200729
0.115302 1.583863 -0.200976
0.118324 1.585483 -0.201557
0.121060 1.584287 -0.201128
0.124189 1.586833 -0.202041
0.127126 1.587501 -0.202280
0.129963 1.587228 -0.202182
0.132904 1.587885 -0.202418
0.135848 1.588538 -0.202652
0.138903 1.590122 -0.203219
0.141745 1.589829 -0.203114
0.144475 1.588596 -0.202672
0.147653 1.591100 -0.203570
0.150037 1.587052 -0.202119
0.152873 1.586741 -0.202007
0.155472 1.584555 -0.201224
0.158424 1.585170 -0.201444
0.161378 1.585779 -0.201663
0.164212 1.585449 -0.201544
0.167546 1.588850 -0.202764
0.170386 1.588510 -0.202642
0.173611 1.590966 -0.203522
0.176454 1.590616 -0.203397
0.179826 1.593994 -0.204607
0.183345 1.598298 -0.206150
0.186745 1.601662 -0.207356
0.189333 1.599426 -0.206555
0.191914 1.597186 -0.205751
0.194487 1.594941 -0.204947
0.197338 1.594557 -0.204809
0.199755 1.591374 -0.203668
0.203767 1.598431 -0.206198
0.206477 1.597100 -0.205721
0.210229 1.602281 -0.207578
0.212942 1.600940 -0.207097
0.215803 1.600526 -0.206949
0.218355 1.598246 -0.206132
0.222150 1.603401 -0.207980
0.225017 1.602971 -0.207825
0.227882 1.602537 -0.207670
0.230747 1.602098 -0.207512
0.233448 1.600725 -0.207020
0.236639 1.602134 -0.207525
0.240003 1.604465 -0.208361
0.243209 1.605861 -0.208861
0.246250 1.606325 -0.209027
0.249465 1.607710 -0.209524
0.251992 1.605381 -0.208689
0.255564 1.608609 -0.209846
0.258263 1.607198 -0.209341
0.261672 1.609488 -0.210161
0.264370 1.608067 -0.209652
0.267609 1.609419 -0.210137
0.270670 1.609840 -0.210288
0.273734 1.610255 -0.210436
0.276988 1.611590 -0.210915
0.279869 1.611070 -0.210729
0.283322 1.613318 -0.211534
0.286785 1.615559 -0.212338
0.289868 1.615946 -0.212476
0.292953 1.616328 -0.212613
0.295843 1.615782 -0.212418
0.298732 1.615231 -0.212220
0.302023 1.616520 -0.212682
0.304913 1.615959 -0.212481
0.308825 1.620000 -0.213930
0.312135 1.621270 -0.214385
0.315450 1.622534 -0.214838
0.318352 1.621951 -0.214629
0.321252 1.621363 -0.214418
0.324152 1.620771 -0.214206
0.327050 1.620173 -0.213992
0.330597 1.622328 -0.214764
0.332625 1.618046 -0.213229
0.336398 1.621107 -0.214327
0.340183 1.624162 -0.215422
0.343311 1.624456 -0.215527
0.345766 1.621992 -0.214644
0.349347 1.624110 -0.215403
0.353850 1.629887 -0.217474
0.355615 1.624660 -0.215600
0.360375 1.631337 -0.217993
0.362125 1.626103 -0.216117
0.367620 1.635508 -0.219489
0.371730 1.639412 -0.220888
0.374663 1.638736 -0.220646
0.376874 1.635314 -0.219419
0.381734 1.641937 -0.221793
0.384916 1.642159 -0.221873
0.388590 1.644199 -0.222604
0.388567 1.632550 -0.218428
0.392482 1.635493 -0.219483
0.394156 1.630227 -0.217596
0.397828 1.632247 -0.218320
0.401255 1.633350 -0.218715
0.405454 1.637176 -0.220087
0.409411 1.640084 -0.221129
0.413122 1.642075 -0.221843
0.416059 1.641331 -0.221576
0.419782 1.643308 -0.222285
0.423514 1.645277 -0.222991
0.426723 1.645424 -0.223043
0.429133 1.642844 -0.222118
0.432610 1.643887 -0.222492
0.436904 1.647643 -0.223839
0.440396 1.648672 -0.224207
0.443346 1.647883 -0.223925
0.446846 1.648900 -0.224289
0.450351 1.649910 -0.224651
0.454140 1.651817 -0.225335
0.457938 1.653716 -0.226016
0.460897 1.652899 -0.225723
0.463855 1.652077 -0.225428
0.467097 1.652152 -0.225455
0.469766 1.650418 -0.224833
0.473297 1.651384 -0.225180
0.476252 1.650542 -0.224878
0.481544 1.656896 -0.227155
0.483922 1.654240 -0.226204
0.486290 1.651582 -0.225251
0.492517 1.660605 -0.228485
0.492797 1.651646 -0.225274
0.498158 1.657954 -0.227535
0.499916 1.653481 -0.225931
0.504699 1.657976 -0.227543
0.506138 1.652600 -0.225616
0.509709 1.653495 -0.225937
0.513595 1.655279 -0.226576
0.518111 1.658844 -0.227854
0.524515 1.667765 -0.231052
0.528128 1.668626 -0.231360
0.530484 1.665907 -0.230385
0.530610 1.656936 -0.227170
0.531980 1.651538 -0.225235
0.536859 1.655949 -0.226816
0.544012 1.666587 -0.230629
0.550234 1.674534 -0.233478
0.552906 1.672675 -0.232812
0.555573 1.670813 -0.232144
0.560537 1.675169 -0.233706
0.563867 1.675071 -0.233671
0.566865 1.674080 -0.233315
0.569862 1.673084 -0.232958
0.574199 1.675630 -0.233871
0.578210 1.677280 -0.234463
0.582568 1.679808 -0.235369
0.585235 1.677901 -0.234685
0.589265 1.679528 -0.235268
0.592616 1.679379 -0.235215
0.596313 1.680108 -0.235476
0.599321 1.679063 -0.235102
0.603721 1.681543 -0.235990
0.607782 1.683131 -0.236560
0.610444 1.681187 -0.235863
0.614161 1.681880 -0.236111
0.617527 1.681686 -0.236042
0.622679 1.685883 -0.237546
0.626773 1.687432 -0.238101
0.630874 1.688972 -0.238653
0.634260 1.688748 -0.238573
0.636558 1.685887 -0.237548
0.644684 1.697046 -0.241548
0.643692 1.686288 -0.237691
0.644503 1.679914 -0.235407
0.648250 1.680539 -0.235631
0.654601 1.687276 -0.238045
0.662471 1.697490 -0.241707
0.664387 1.693718 -0.240355
0.664411 1.685584 -0.237439
0.667429 1.684427 -0.237025
0.674239 1.691975 -0.239730
0.679174 1.695154 -0.240870
0.682210 1.693973 -0.240446
0.686397 1.695395 -0.240956
0.690977 1.697676 -0.241774
0.696730 1.702550 -0.243521
0.696666 1.694404 -0.240601
0.699700 1.693194 -0.240167
0.705479 1.698041 -0.241904
0.712853 1.706334 -0.244877
0.715119 1.703369 -0.243814
0.719361 1.704721 -0.244299
0.722414 1.703474 -0.243852
0.726266 1.703947 -0.244022
0.730524 1.705275 -0.244498
0.734789 1.706594 -0.244970
0.738251 1.706182 -0.244823
0.741714 1.705764 -0.244673
0.747628 1.710496 -0.246369
0.751102 1.710061 -0.246213
0.754577 1.709620 -0.246055
0.757639 1.708315 -0.245587
0.762358 1.710432 -0.246346
0.768336 1.715106 -0.248022
0.771826 1.714634 -0.247852
0.776156 1.715864 -0.248294
0.779230 1.714524 -0.247813
0.783570 1.715738 -0.248248
0.787916 1.716944 -0.248680
0.794398 1.722398 -0.250636
0.795775 1.717624 -0.248924
0.802713 1.723904 -0.251176
0.801066 1.713175 -0.247329
0.806296 1.716038 -0.248356
0.808502 1.712952 -0.247250
0.813312 1.714949 -0.247965
0.819005 1.718628 -0.249284
0.827783 1.728217 -0.252721
0.833080 1.731019 -0.253726
0.836623 1.730430 -0.253515
0.838838 1.727302 -0.252394
0.845935 1.733448 -0.254597
0.850380 1.734520 -0.254981
0.854384 1.734741 -0.255060
0.860189 1.738318 -0.256343
0.864206 1.738521 -0.256415
0.866869 1.736197 -0.255582
0.869527 1.733868 -0.254747
0.873545 1.734051 -0.254813
0.879395 1.737574 -0.256076
0.884803 1.740247 -0.257034
0.891143 1.744578 -0.258586
0.895194 1.744719 -0.258637
0.901101 1.748189 -0.259881
0.906094 1.749977 -0.260522
0.909231 1.748423 -0.259965
0.912365 1.746865 -0.259406
0.915966 1.746132 -0.259143
0.920980 1.747884 -0.259771
0.926476 1.750453 -0.260692
0.932933 1.754668 -0.262203
0.936554 1.753898 -0.261927
0.936358 1.746504 -0.259277
0.939010 1.744074 -0.258406
0.106187 1.578252 -0.198025
0.109369 1.581764 -0.199282
0.112379 1.583394 -0.199865
0.115397 1.585019 -0.200447
0.118229 1.584765 -0.200356
0.121060 1.584506 -0.200263
0.124288 1.587989 -0.201510
0.127126 1.587720 -0.201414
0.130271 1.590256 -0.202321
0.133113 1.589978 -0.202221
0.135742 1.587822 -0.201450
0.138687 1.588470 -0.201682
0.141635 1.589113 -0.201912
0.144586 1.589751 -0.202140
0.147880 1.593191 -0.203371
0.150267 1.589142 -0.201922
0.153107 1.588830 -0.201811
0.155709 1.586644 -0.201028
0.158664 1.587258 -0.201248
0.161500 1.586932 -0.201132
0.164336 1.586602 -0.201014
0.167170 1.586267 -0.200894
0.170259 1.587796 -0.201441
0.174126 1.594921 -0.203990
0.177238 1.596437 -0.204533
0.180223 1.597014 -0.204739
0.183211 1.597586 -0.204944
0.186338 1.599086 -0.205481
0.188783 1.595917 -0.204347
0.191079 1.591813 -0.202878
0.194487 1.595162 -0.204077
0.198479 1.602233 -0.206607
0.201487 1.602774 -0.206801
0.204206 1.601447 -0.206326
0.207364 1.602909 -0.206849
0.209930 1.600641 -0.206037
0.212337 1.597439 -0.204892
0.215956 1.601678 -0.206408
0.219129 1.603118 -0.206924
0.222463 1.605483 -0.207770
0.224542 1.600405 -0.205953
0.228362 1.605547 -0.207793
0.231232 1.605107 -0.207636
0.232304 1.594445 -0.203820
0.236639 1.602356 -0.206651
0.240170 1.605615 -0.207817
0.243714 1.608868 -0.208981
0.246590 1.608403 -0.208815
0.250325 1.612571 -0.210306
0.253729 1.614876 -0.211131
0.255739 1.609760 -0.209300
0.258440 1.608348 -0.208795
0.261136 1.606932 -0.208289
0.264550 1.609216 -0.209106
0.267427 1.608717 -0.208927
0.270486 1.609138 -0.209078
0.273549 1.609554 -0.209227
0.277175 1.612739 -0.210367
0.280815 1.615917 -0.211504
0.283704 1.615391 -0.211315
0.287362 1.618555 -0.212448
0.289868 1.616171 -0.211595
0.293149 1.617476 -0.212062
0.296041 1.616930 -0.211866
0.298732 1.615456 -0.211339
0.302023 1.616745 -0.211800
0.305724 1.619872 -0.212919
0.308825 1.620226 -0.213046
0.312135 1.621496 -0.213500
0.315242 1.621839 -0.213623
0.318352 1.622177 -0.213744
0.321463 1.622509 -0.213863
0.324365 1.621916 -0.213651
0.327265 1.621318 -0.213437
0.331030 1.624393 -0.214537
0.333934 1.623784 -0.214319
0.337277 1.625008 -0.214757
0.339740 1.622552 -0.213878
0.343758 1.626518 -0.215297
0.346891 1.626805 -0.215400
0.351387 1.632590 -0.217470
0.352480 1.624614 -0.214616
0.356305 1.627635 -0.215697
0.361302 1.635228 -0.218414
0.363993 1.633654 -0.217851
0.366444 1.631161 -0.216959
0.368651 1.627749 -0.215738
0.371800 1.627993 -0.215825
0.375673 1.630973 -0.216892
0.380283 1.636686 -0.218936
0.383210 1.635996 -0.218689
0.390797 1.652644 -0.224647
0.388320 1.631865 -0.217211
0.391487 1.632074 -0.217286
0.393905 1.629543 -0.216380
0.398332 1.634297 -0.218081
0.402778 1.639042 -0.219779
0.406986 1.642867 -0.221148
0.410954 1.645773 -0.222188
0.413898 1.645033 -0.221923
0.416580 1.643379 -0.221331
0.419520 1.642629 -0.221063
0.422986 1.643692 -0.221443
0.426458 1.644747 -0.221821
0.429934 1.645796 -0.222196
0.433685 1.647745 -0.222893
0.436904 1.647874 -0.222940
0.440396 1.648903 -0.223308
0.442798 1.646303 -0.222378
0.446295 1.647321 -0.222742
0.450074 1.649237 -0.223427
0.453861 1.651145 -0.224110
0.456815 1.650334 -0.223820
0.460615 1.652228 -0.224498
0.464423 1.654115 -0.225173
0.468240 1.655993 -0.225845
0.470915 1.654257 -0.225224
0.474453 1.655221 -0.225569
0.477706 1.655277 -0.225589
0.481544 1.657129 -0.226251
0.483922 1.654473 -0.225301
0.485108 1.648216 -0.223062
0.489840 1.652748 -0.224684
0.493994 1.655472 -0.225658
0.499061 1.660881 -0.227594
0.499614 1.652816 -0.224708
0.501051 1.647445 -0.222786
0.505221 1.650143 -0.223751
0.509402 1.652832 -0.224714
0.515449 1.660884 -0.227595
0.517800 1.658183 -0.226628
0.521704 1.659950 -0.227261
0.523732 1.656346 -0.225971
0.526380 1.654527 -0.225320
0.530927 1.658062 -0.226585
0.536446 1.664263 -0.228804
0.542951 1.673127 -0.231976
0.545623 1.671278 -0.231315
0.555741 1.689914 -0.237983
0.554534 1.677363 -0.233492
0.558845 1.679945 -0.234416
0.560208 1.674516 -0.232473
0.563536 1.674419 -0.232439
0.566201 1.672540 -0.231766
0.569195 1.671545 -0.231410
0.573864 1.674980 -0.232639
0.578210 1.677517 -0.233547
0.582229 1.679160 -0.234135
0.585575 1.679023 -0.234086
0.588923 1.678881 -0.234035
0.593303 1.681385 -0.234931
0.596658 1.681229 -0.234876
0.600015 1.681066 -0.234817
0.603721 1.681780 -0.235073
0.607082 1.681605 -0.235010
0.610444 1.681424 -0.234945
0.615222 1.684760 -0.236139
0.618948 1.685444 -0.236384
0.622679 1.686121 -0.236626
0.626414 1.686791 -0.236866
0.630514 1.688332 -0.237417
0.633175 1.686353 -0.236709
0.639827 1.694020 -0.239453
0.642130 1.691151 -0.238426
0.645158 1.690030 -0.238025
0.643399 1.677525 -0.233550
0.648620 1.681651 -0.235027
0.657572 1.694508 -0.239627
0.661352 1.695110 -0.239843
0.662514 1.689593 -0.237869
0.666292 1.690184 -0.238080
0.671963 1.695126 -0.239849
0.677654 1.700055 -0.241612
0.680318 1.698006 -0.240879
0.679149 1.687255 -0.237032
0.681785 1.685205 -0.236298
0.684416 1.683151 -0.235563
0.694017 1.696716 -0.240418
0.699390 1.700715 -0.241849
0.701654 1.697767 -0.240794
0.706656 1.700880 -0.241908
0.710884 1.702250 -0.242398
0.713932 1.701016 -0.241956
0.717375 1.700642 -0.241823
0.721617 1.701989 -0.242304
0.725866 1.703326 -0.242783
0.730926 1.706379 -0.243876
0.736000 1.709420 -0.244964
0.739872 1.709868 -0.245124
0.743341 1.709447 -0.244973
0.747219 1.709880 -0.245128
0.749462 1.706869 -0.244051
0.754988 1.710721 -0.245429
0.758878 1.711131 -0.245576
0.761529 1.708962 -0.244800
0.766254 1.711070 -0.245554
0.772244 1.715733 -0.247223
0.777415 1.718673 -0.248275
0.781336 1.719038 -0.248406
0.786106 1.721103 -0.249144
0.791310 1.724009 -0.250184
0.792270 1.718384 -0.248171
0.795348 1.717017 -0.247682
0.800139 1.719047 -0.248409
0.808385 1.727865 -0.251564
0.811049 1.725623 -0.250762
0.811972 1.719983 -0.248744
0.812877 1.714345 -0.246726
0.815511 1.712098 -0.245922
0.819892 1.713231 -0.246328
0.831320 1.727884 -0.251571
0.835740 1.728987 -0.251966
0.841053 1.731769 -0.252961
0.843712 1.729479 -0.252142
0.847703 1.729713 -0.252225
0.851250 1.729096 -0.252005
0.861087 1.740250 -0.255996
0.865108 1.740450 -0.256068
0.869132 1.740643 -0.256137
0.871343 1.737472 -0.255002
0.877190 1.741004 -0.256266
0.880767 1.740335 -0.256027
0.886179 1.743006 -0.256982
0.890223 1.743156 -0.257036
0.895194 1.744969 -0.257685
0.900174 1.746771 -0.258330
0.904700 1.747727 -0.258672
0.908298 1.747009 -0.258415
0.913301 1.748779 -0.259048
0.917375 1.748876 -0.259083
0.922393 1.750626 -0.259709
0.925058 1.748215 -0.258847
0.929614 1.749117 -0.259169
0.933700 1.749181 -0.259192
0.936835 1.747581 -0.258620
0.105742 1.574353 -0.193199
0.108734 1.575991 -0.193782
0.112102 1.581376 -0.195697
0.115114 1.583003 -0.196275
0.118037 1.583687 -0.196518
0.120963 1.584365 -0.196760
0.124090 1.586914 -0.197666
0.126924 1.586645 -0.197570
0.129860 1.587309 -0.197806
0.132799 1.587968 -0.198041
0.135742 1.588621 -0.198273
0.138795 1.590207 -0.198837
0.141635 1.589914 -0.198733
0.144475 1.589616 -0.198627
0.147766 1.593058 -0.199851
0.150612 1.592750 -0.199741
0.153457 1.592438 -0.199630
0.156182 1.591185 -0.199185
0.158544 1.587122 -0.197740
0.161500 1.587732 -0.197957
0.164459 1.588336 -0.198172
0.167170 1.587066 -0.197720
0.170386 1.589530 -0.198596
0.173354 1.590119 -0.198806
0.176324 1.590704 -0.199014
0.179165 1.590349 -0.198887
0.182273 1.591857 -0.199424
0.185524 1.594293 -0.200290
0.189608 1.602322 -0.203145
0.192471 1.601946 -0.203011
0.195473 1.602497 -0.203207
0.197623 1.597448 -0.201412
0.199322 1.589599 -0.198621
0.202160 1.589207 -0.198481
0.203816 1.581355 -0.195689
0.210079 1.602382 -0.203166
0.212942 1.601972 -0.203020
0.215803 1.601556 -0.202873
0.218665 1.601137 -0.202723
0.220743 1.596059 -0.200918
0.223752 1.596562 -0.201097
0.228682 1.608220 -0.205242
0.232363 1.612428 -0.206739
0.234428 1.607333 -0.204927
0.236474 1.602237 -0.203115
0.239670 1.603641 -0.203614
0.242029 1.600396 -0.202460
0.244888 1.599933 -0.202295
0.247230 1.596681 -0.201139
0.250951 1.600849 -0.202621
0.255038 1.606865 -0.204760
0.257909 1.606380 -0.204588
0.260778 1.605891 -0.204414
0.264008 1.607251 -0.204898
0.267427 1.609532 -0.205709
0.270486 1.609953 -0.205859
0.273549 1.610369 -0.206006
0.276613 1.610780 -0.206153
0.280059 1.613036 -0.206955
0.283132 1.613435 -0.207097
