# This PCD file was generated using the MATLAB® pcwrite function
# from Computer Vision System Toolbox®.
# .PCD v.7 - Point Cloud Data file format
VERSION .7
FIELDS x y z
SIZE 4 4 4
TYPE F F F
COUNT 1 1 1
WIDTH 1692
HEIGHT 1
VIEWPOINT 0 0 0 1 0 0 0
POINTS 1692
DATA ascii
0.256839 1.422992 -0.469792
0.259749 1.423391 -0.470031
0.261338 1.417890 -0.466734
0.264623 1.419966 -0.467978
0.265222 1.410252 -0.462156
0.267336 1.407272 -0.460370
0.268068 1.398401 -0.455054
0.270543 1.397100 -0.454274
0.274609 1.402520 -0.457522
0.277290 1.402050 -0.457240
0.279970 1.401576 -0.456956
0.281627 1.396900 -0.454154
0.283885 1.394741 -0.452860
0.286134 1.392579 -0.451564
0.288795 1.392092 -0.451272
0.291244 1.390762 -0.450475
0.293901 1.390267 -0.450179
0.296772 1.390606 -0.450382
0.298564 1.386753 -0.448073
0.300558 1.383736 -0.446265
0.302762 1.381554 -0.444957
0.304736 1.378532 -0.443146
0.307145 1.377181 -0.442336
0.309099 1.374155 -0.440523
0.312403 1.376140 -0.441712
0.314802 1.374778 -0.440896
0.317427 1.374248 -0.440578
0.320050 1.373714 -0.440258
0.321506 1.369006 -0.437436
0.323649 1.366798 -0.436113
0.325783 1.364588 -0.434789
0.331965 1.376536 -0.441950
0.335555 1.379311 -0.443613
0.335044 1.367930 -0.436792
0.335705 1.360715 -0.432467
0.335848 1.351838 -0.427147
0.338920 1.352939 -0.427807
0.341003 1.350711 -0.426472
0.344080 1.351802 -0.427126
0.346154 1.349568 -0.425787
0.348727 1.348991 -0.425441
0.351555 1.349240 -0.425590
0.353870 1.347826 -0.424743
0.356699 1.348066 -0.424887
0.358488 1.344988 -0.423042
0.361052 1.344393 -0.422685
0.362559 1.340484 -0.420343
0.364849 1.339056 -0.419487
0.366599 1.335971 -0.417638
0.369145 1.335364 -0.417274
0.371960 1.335578 -0.417402
0.374777 1.335787 -0.417528
0.376774 1.333518 -0.416168
0.378764 1.331246 -0.414806
0.380190 1.327324 -0.412455
0.382719 1.326696 -0.412079
0.384684 1.324417 -0.410714
0.387206 1.323783 -0.410333
0.389727 1.323144 -0.409951
0.392818 1.324146 -0.410551
0.395627 1.324321 -0.410656
0.398149 1.323670 -0.410266
0.399797 1.320553 -0.408398
0.401435 1.317435 -0.406529
0.403060 1.314315 -0.404659
0.405562 1.313653 -0.404263
0.409252 1.316263 -0.405827
0.412355 1.317229 -0.406405
0.416066 1.319825 -0.407961
0.416462 1.313420 -0.404123
0.418354 1.311104 -0.402734
0.420237 1.308785 -0.401345
0.420883 1.303200 -0.397998
0.423980 1.304142 -0.398563
0.424908 1.299373 -0.395704
0.426754 1.297048 -0.394311
0.429535 1.297165 -0.394381
0.431370 1.294835 -0.392984
0.437322 1.303078 -0.397925
0.435655 1.291797 -0.391163
0.437790 1.290273 -0.390250
0.439275 1.287123 -0.388362
0.442046 1.287218 -0.388420
0.447422 1.293797 -0.392362
0.449882 1.293068 -0.391926
0.451354 1.289906 -0.390030
0.453475 1.288362 -0.389105
0.451938 1.277916 -0.382844
0.453698 1.275563 -0.381435
0.458133 1.279674 -0.383898
0.463261 1.285390 -0.387324
0.463332 1.278988 -0.383487
0.468144 1.283882 -0.386420
0.469216 1.279898 -0.384032
0.471647 1.279137 -0.383576
0.473387 1.276762 -0.382153
0.474771 1.273581 -0.380247
0.476492 1.271204 -0.378822
0.478906 1.270432 -0.378359
0.481670 1.270459 -0.378375
0.483022 1.267272 -0.376465
0.484717 1.264887 -0.375036
0.486048 1.261698 -0.373125
0.488442 1.260912 -0.372654
0.490835 1.260122 -0.372180
0.494673 1.262528 -0.373622
0.497069 1.261728 -0.373143
0.500558 1.263321 -0.374097
0.501856 1.260119 -0.372178
0.503143 1.256917 -0.370259
0.505897 1.256902 -0.370250
0.507911 1.255289 -0.369284
0.510665 1.255266 -0.369270
0.511922 1.252057 -0.367347
0.514297 1.251232 -0.366852
0.515537 1.248021 -0.364928
0.518662 1.248778 -0.365381
0.521411 1.248735 -0.365356
0.522249 1.244726 -0.362953
0.524608 1.243886 -0.362449
0.526581 1.242251 -0.361469
0.528160 1.239822 -0.360014
0.531677 1.241343 -0.360926
0.532077 1.236541 -0.358047
0.535204 1.237264 -0.358481
0.536761 1.234827 -0.357020
0.539496 1.234753 -0.356976
0.541439 1.233099 -0.355985
0.542977 1.230657 -0.354521
0.544908 1.228999 -0.353527
-0.173702 1.710301 -0.637000
-0.169630 1.701077 -0.631500
-0.165937 1.696130 -0.628550
-0.161998 1.687749 -0.623553
-0.158611 1.686218 -0.622640
-0.155167 1.683825 -0.621213
-0.151672 1.680569 -0.619272
-0.148428 1.680737 -0.619372
-0.145299 1.682615 -0.620492
-0.141716 1.677628 -0.617518
-0.137830 1.667489 -0.611473
-0.134351 1.663348 -0.609003
-0.130990 1.660917 -0.607554
-0.127786 1.661054 -0.607635
-0.124535 1.660328 -0.607203
-0.121377 1.661313 -0.607790
-0.117998 1.658003 -0.605817
-0.114674 1.655546 -0.604352
-0.111361 1.653084 -0.602884
-0.108096 1.651475 -0.601924
-0.104838 1.649861 -0.600962
-0.101622 1.649101 -0.600508
-0.098342 1.646619 -0.599028
-0.095073 1.644131 -0.597545
-0.091844 1.642497 -0.596571
-0.088650 1.641717 -0.596106
-0.085459 1.640932 -0.595638
-0.082222 1.638425 -0.594143
-0.078996 1.635913 -0.592645
-0.075759 1.632537 -0.590632
-0.072575 1.630874 -0.589640
-0.069345 1.626629 -0.587110
-0.066179 1.624956 -0.586112
-0.063034 1.624137 -0.585624
-0.059868 1.621596 -0.584108
-0.056818 1.627639 -0.587711
-0.053612 1.620793 -0.583630
-0.050469 1.618238 -0.582106
-0.047315 1.612242 -0.578531
-0.044210 1.612254 -0.578538
-0.041103 1.611402 -0.578030
-0.038000 1.607968 -0.575983
-0.034911 1.604530 -0.573933
-0.031825 1.603665 -0.573417
-0.028738 1.603653 -0.573410
-0.025671 1.601060 -0.571864
-0.022650 1.595027 -0.568266
-0.019601 1.593284 -0.567227
-0.016559 1.591537 -0.566185
-0.013510 1.590643 -0.565652
-0.010528 1.586310 -0.563069
-0.007546 1.582832 -0.560995
-0.004481 1.583643 -0.561478
-0.001456 1.582731 -0.560935
0.001589 1.582674 -0.560901
0.004512 1.578319 -0.558304
0.007469 1.575678 -0.556729
0.010416 1.573031 -0.555151
0.013323 1.569523 -0.553059
0.016403 1.571160 -0.554035
0.019392 1.570218 -0.553473
0.022376 1.569271 -0.552909
0.025064 1.561454 -0.548248
0.028027 1.560499 -0.547678
0.030866 1.556964 -0.545571
0.034026 1.560292 -0.547555
0.037156 1.562756 -0.549024
0.040523 1.569505 -0.553048
0.043588 1.570243 -0.553488
0.046022 1.559824 -0.547276
0.048008 1.542539 -0.536970
0.050291 1.531258 -0.530243
0.052906 1.525977 -0.527094
0.056785 1.540417 -0.535704
0.059571 1.537701 -0.534085
0.062761 1.540982 -0.536041
0.065538 1.538257 -0.534416
0.068179 1.533813 -0.531767
0.070156 1.520795 -0.524004
0.073009 1.519774 -0.523395
0.075926 1.519605 -0.523295
0.079191 1.523716 -0.525746
0.082402 1.526965 -0.527683
0.085040 1.523356 -0.525531
0.087664 1.519744 -0.523377
0.090504 1.518697 -0.522753
0.093105 1.515077 -0.520595
0.096093 1.515734 -0.520987
0.098837 1.513819 -0.519845
0.101491 1.511044 -0.518190
0.104390 1.510833 -0.518064
0.107114 1.508906 -0.516915
0.109831 1.506975 -0.515764
0.112359 1.503330 -0.513590
0.115150 1.502247 -0.512945
0.118408 1.505436 -0.514846
0.121583 1.507764 -0.516234
0.124963 1.511796 -0.518639
0.127864 1.511550 -0.518492
0.130663 1.510445 -0.517833
0.133150 1.506772 -0.515643
0.134995 1.497972 -0.510396
0.138080 1.499418 -0.511258
0.139983 1.491467 -0.506517
0.143281 1.494613 -0.508393
0.145366 1.488364 -0.504667
0.147880 1.485527 -0.502975
0.150727 1.485246 -0.502808
0.153457 1.484108 -0.502129
0.155827 1.480407 -0.499923
0.158664 1.480115 -0.499748
0.161378 1.478966 -0.499063
0.164088 1.477812 -0.498375
0.166042 1.471542 -0.494637
0.168226 1.466974 -0.491913
0.171035 1.466663 -0.491728
0.173974 1.467199 -0.492047
0.176520 1.465177 -0.490841
0.179192 1.464002 -0.490141
0.181995 1.463674 -0.489945
0.184798 1.463342 -0.489747
0.186904 1.458753 -0.487011
0.189696 1.458414 -0.486809
0.192203 1.456370 -0.485590
0.194847 1.455173 -0.484877
0.197340 1.453123 -0.483654
0.199678 1.450220 -0.481923
0.202453 1.449861 -0.481709
0.205227 1.449499 -0.481493
0.207848 1.448283 -0.480768
0.210620 1.447913 -0.480547
0.213234 1.446689 -0.479818
0.216002 1.446311 -0.479592
0.216371 1.433210 -0.471781
0.218950 1.431979 -0.471047
0.221198 1.429050 -0.469300
0.223600 1.426965 -0.468057
0.226495 1.427418 -0.468327
0.230909 1.435485 -0.473137
0.233995 1.436773 -0.473905
0.236915 1.437209 -0.474165
0.239490 1.435949 -0.473414
0.241885 1.433840 -0.472156
0.244627 1.433418 -0.471905
0.245044 1.422007 -0.465100
0.246498 1.415667 -0.461320
0.248839 1.413549 -0.460058
0.252827 1.419027 -0.463324
0.254425 1.413525 -0.460043
0.256938 1.412241 -0.459278
0.258880 1.408423 -0.457001
0.263478 1.416408 -0.461762
0.263489 1.404154 -0.454455
0.268308 1.412968 -0.459711
0.268264 1.400715 -0.452405
0.271729 1.403622 -0.454138
0.274011 1.401472 -0.452856
0.276687 1.401002 -0.452576
0.279159 1.399688 -0.451792
0.281014 1.395847 -0.449502
0.283266 1.393686 -0.448214
0.285926 1.393202 -0.447926
0.287957 1.390195 -0.446132
0.290821 1.390544 -0.446341
0.293262 1.389210 -0.445545
0.295484 1.387034 -0.444247
0.297265 1.383178 -0.441948
0.299686 1.381835 -0.441148
0.302322 1.381327 -0.440844
0.304957 1.380815 -0.440539
0.307145 1.378624 -0.439233
0.309774 1.378105 -0.438923
0.311496 1.374235 -0.436616
0.314802 1.376218 -0.437798
0.316967 1.374015 -0.436485
0.318892 1.370975 -0.434672
0.321039 1.368767 -0.433356
0.319651 1.354035 -0.424572
0.325310 1.364345 -0.430719
0.325763 1.356292 -0.425917
0.329549 1.359913 -0.428076
0.331173 1.356027 -0.425759
0.336680 1.365468 -0.431388
0.337075 1.357410 -0.426584
0.339167 1.355181 -0.425255
0.341749 1.354614 -0.424917
0.344330 1.354043 -0.424576
0.346406 1.351805 -0.423242
0.349235 1.352058 -0.423393
0.351555 1.350645 -0.422550
0.353870 1.349229 -0.421706
0.355923 1.346980 -0.420365
0.358227 1.345559 -0.419517
0.360265 1.343305 -0.418174
0.361504 1.338564 -0.415347
0.364318 1.338791 -0.415482
0.366866 1.338186 -0.415121
0.369413 1.337577 -0.414758
0.371418 1.335311 -0.413407
0.373960 1.334695 -0.413040
0.375952 1.332424 -0.411685
0.377937 1.330150 -0.410330
0.380190 1.328700 -0.409465
0.382719 1.328071 -0.409090
0.384965 1.326614 -0.408221
0.386924 1.324330 -0.406859
0.388875 1.322044 -0.405496
0.391104 1.320579 -0.404623
0.394190 1.321579 -0.405219
0.396415 1.320107 -0.404341
0.398925 1.319454 -0.403952
0.400850 1.317155 -0.402581
0.403649 1.317316 -0.402677
0.405562 1.315011 -0.401303
0.409847 1.319264 -0.403839
0.411757 1.316952 -0.402460
0.414562 1.317095 -0.402545
0.416462 1.314777 -0.401163
0.418354 1.312458 -0.399780
0.421154 1.312589 -0.399859
0.420269 1.302909 -0.394087
0.422744 1.302220 -0.393676
0.423976 1.298262 -0.391316
0.429878 1.306543 -0.396253
0.432361 1.305839 -0.395834
0.435158 1.305947 -0.395898
0.433832 1.295462 -0.389646
0.441715 1.308591 -0.397475
0.438431 1.293226 -0.388313
0.439598 1.289258 -0.385947
0.440426 1.284477 -0.383097
0.443515 1.285382 -0.383636
0.444646 1.281412 -0.381269
0.447078 1.280687 -0.380837
0.450500 1.282390 -0.381852
0.458913 1.296238 -0.390109
0.462043 1.297111 -0.390629
0.470880 1.311733 -0.399348
0.469328 1.301265 -0.393106
0.468413 1.292421 -0.387833
0.461337 1.269047 -0.373896
0.462375 1.265068 -0.371523
0.466149 1.267542 -0.372999
0.468898 1.267591 -0.373028
0.471995 1.268440 -0.373534
0.474052 1.266869 -0.372597
0.476805 1.266904 -0.372618
0.479911 1.267738 -0.373116
0.481961 1.266157 -0.372173
0.484007 1.264573 -0.371228
0.486048 1.262986 -0.370282
0.488442 1.262199 -0.369813
0.490115 1.259805 -0.368385
0.492142 1.258211 -0.367435
0.494526 1.257414 -0.366960
0.498004 1.259013 -0.367913
0.501123 1.259806 -0.368386
0.503143 1.258198 -0.367427
0.504788 1.255789 -0.365991
0.506054 1.252581 -0.364078
0.506562 1.247779 -0.361215
0.511173 1.251739 -0.363576
0.513169 1.250118 -0.362609
0.516292 1.250880 -0.363064
0.517524 1.247663 -0.361146
0.520268 1.247623 -0.361122
0.522249 1.245991 -0.360149
0.525377 1.246735 -0.360592
0.528124 1.246681 -0.360560
0.530485 1.245831 -0.360053
0.529732 1.238647 -0.355770
0.530123 1.233841 -0.352904
0.533635 1.235358 -0.353809
0.537155 1.236868 -0.354709
0.538705 1.234426 -0.353253
0.540644 1.232772 -0.352266
0.543376 1.232690 -0.352218
0.548511 1.237326 -0.354982
-0.172844 1.701441 -0.627957
-0.168793 1.692206 -0.622472
-0.165053 1.686395 -0.619020
-0.161601 1.684010 -0.617604
-0.158095 1.680761 -0.615674
-0.154728 1.679223 -0.614760
-0.151550 1.680254 -0.615373
-0.148310 1.680421 -0.615472
-0.145127 1.681443 -0.616079
-0.141270 1.672158 -0.610564
-0.137559 1.664584 -0.606066
-0.134246 1.663014 -0.605133
-0.130889 1.660580 -0.603688
-0.127688 1.660717 -0.603769
-0.124252 1.656555 -0.601297
-0.120924 1.654105 -0.599842
-0.117736 1.654227 -0.599914
-0.114465 1.652627 -0.598964
-0.111200 1.651021 -0.598010
-0.107943 1.649410 -0.597053
-0.104692 1.647794 -0.596093
-0.101412 1.645314 -0.594620
-0.098243 1.645407 -0.594676
-0.095011 1.643776 -0.593707
-0.091755 1.641281 -0.592225
-0.088538 1.639640 -0.591251
-0.085328 1.637995 -0.590273
-0.082125 1.636345 -0.589293
-0.078951 1.635549 -0.588820
-0.075906 1.639906 -0.591408
-0.072863 1.645118 -0.594504
-0.069519 1.636572 -0.589428
-0.066053 1.619423 -0.579243
-0.062964 1.621182 -0.580287
-0.059893 1.624656 -0.582351
-0.056776 1.625546 -0.582880
-0.053463 1.607518 -0.572171
-0.050392 1.610118 -0.573716
-0.047304 1.611854 -0.574747
-0.044199 1.611005 -0.574243
-0.041093 1.607573 -0.572204
-0.038000 1.607576 -0.572206
-0.034911 1.605854 -0.571183
-0.031832 1.603267 -0.569647
-0.028759 1.601536 -0.568619
-0.025706 1.598081 -0.566567
-0.022641 1.597201 -0.566044
-0.019622 1.592877 -0.563475
-0.016584 1.591127 -0.562437
-0.013566 1.588514 -0.560884
-0.010512 1.588475 -0.560861
-0.007493 1.586712 -0.559814
-0.004481 1.584945 -0.558764
-0.001539 1.580594 -0.556180
0.001431 1.577958 -0.554615
0.004439 1.577037 -0.554068
0.007391 1.574393 -0.552497
0.010416 1.574323 -0.552455
0.013382 1.572529 -0.551390
0.016592 1.577606 -0.554405
0.019823 1.582677 -0.557418
0.022865 1.582588 -0.557365
0.025467 1.572184 -0.551185
0.027605 1.552326 -0.539391
0.030545 1.551367 -0.538821
0.033859 1.558134 -0.542840
0.036851 1.558024 -0.542775
0.039888 1.558768 -0.543217
0.042364 1.549202 -0.537535
0.045093 1.544785 -0.534912
0.047957 1.542941 -0.533816
0.051128 1.546244 -0.535778
0.053934 1.543532 -0.534168
0.056506 1.537383 -0.530515
0.059571 1.538956 -0.531450
0.062584 1.539666 -0.531871
0.065599 1.540371 -0.532290
0.068493 1.539355 -0.531687
0.071382 1.538335 -0.531081
0.074135 1.535595 -0.529453
0.076470 1.527704 -0.524767
0.079051 1.523242 -0.522116
0.081973 1.523064 -0.522011
0.084894 1.522882 -0.521902
0.087739 1.521838 -0.521282
0.090428 1.519075 -0.519642
0.093105 1.516309 -0.517999
0.095932 1.515253 -0.517371
0.098346 1.509908 -0.514197
0.101575 1.513129 -0.516110
0.104475 1.512917 -0.515984
0.107637 1.515271 -0.517382
0.110453 1.514193 -0.516742
0.112994 1.510544 -0.514574
0.115243 1.504322 -0.510879
0.118408 1.506658 -0.512266
0.120816 1.502142 -0.509584
0.123890 1.503613 -0.510458
0.127169 1.506790 -0.512345
0.131168 1.515949 -0.517785
0.133252 1.508851 -0.513569
0.135517 1.503461 -0.510368
0.137548 1.496360 -0.506150
0.138687 1.482418 -0.497869
0.140977 1.477878 -0.495173
0.144252 1.481025 -0.497042
0.147653 1.485021 -0.499415
0.150612 1.485594 -0.499756
0.153340 1.484455 -0.499079
0.155709 1.480751 -0.496879
0.158304 1.478751 -0.495691
0.160891 1.476747 -0.494501
0.163718 1.476447 -0.494323
0.166168 1.473583 -0.492622
0.168861 1.472422 -0.491932
0.171422 1.470404 -0.490734
0.173844 1.467530 -0.489027
0.176255 1.464653 -0.487318
0.179058 1.464330 -0.487126
0.181452 1.461447 -0.485413
0.184385 1.461967 -0.485722
0.187043 1.460779 -0.485017
0.189696 1.459589 -0.484310
0.191775 1.454990 -0.481578
0.194413 1.453792 -0.480867
0.196609 1.450039 -0.478638
0.199382 1.449685 -0.478428
0.202004 1.448477 -0.477710
0.204622 1.447264 -0.476990
0.206777 1.443500 -0.474754
0.209537 1.443130 -0.474534
0.212608 1.444455 -0.475321
0.213313 1.433040 -0.468542
0.217010 1.437754 -0.471341
0.218788 1.432278 -0.468089
0.222178 1.435284 -0.469874
0.224096 1.430651 -0.467123
0.224160 1.416692 -0.458832
0.226191 1.412907 -0.456583
0.227527 1.405730 -0.452321
0.235883 1.433280 -0.468684
0.237059 1.425246 -0.463913
0.237852 1.415521 -0.458136
0.240377 1.414258 -0.457386
0.245401 1.424836 -0.463669
0.248123 1.424408 -0.463415
0.253030 1.434122 -0.469184
0.253195 1.421851 -0.461896
0.256096 1.422257 -0.462137
0.256189 1.409990 -0.454851
0.259258 1.411235 -0.455591
0.261952 1.410787 -0.455324
0.265415 1.413710 -0.457060
0.266171 1.404818 -0.451779
0.268264 1.401830 -0.450005
0.271729 1.404740 -0.451733
0.274210 1.403431 -0.450955
0.275682 1.397907 -0.447674
0.278145 1.396592 -0.446894
0.281014 1.396958 -0.447111
0.283472 1.395636 -0.446325
0.285926 1.394310 -0.445538
0.287747 1.390460 -0.443251
0.289553 1.386607 -0.440963
0.291984 1.385274 -0.440171
0.294410 1.383937 -0.439377
0.297049 1.383436 -0.439079
0.299686 1.382931 -0.438780
0.302762 1.384100 -0.439474
0.305622 1.384425 -0.439667
0.309824 1.389774 -0.442844
0.311799 1.386737 -0.441040
0.312630 1.379511 -0.436748
0.315259 1.378983 -0.436434
0.317887 1.378451 -0.436118
0.323295 1.387951 -0.441761
0.320105 1.366506 -0.429024
0.322238 1.364295 -0.427711
0.325073 1.364588 -0.427885
0.329580 1.370721 -0.431528
0.333152 1.373506 -0.433182
0.332382 1.361268 -0.425913
0.331077 1.347368 -0.417657
0.330942 1.337644 -0.411881
0.337438 1.350418 -0.419469
0.340755 1.352351 -0.420617
0.343078 1.350949 -0.419784
0.345650 1.350375 -0.419443
0.348220 1.349797 -0.419100
0.351044 1.350047 -0.419248
0.353613 1.349461 -0.418900
0.355405 1.346380 -0.417070
0.356664 1.341637 -0.414253
0.358692 1.339384 -0.412915
0.362032 1.341275 -0.414038
0.364318 1.339844 -0.413188
0.366599 1.338410 -0.412336
0.368876 1.336972 -0.411483
0.370877 1.334704 -0.410136
0.373143 1.333262 -0.409279
0.375404 1.331816 -0.408420
0.377385 1.329541 -0.407069
0.379359 1.327263 -0.405716
0.381882 1.326635 -0.405343
0.384123 1.325178 -0.404477
0.386359 1.323718 -0.403610
0.388875 1.323079 -0.403231
0.391104 1.321613 -0.402360
0.393041 1.319320 -0.400998
0.395259 1.317848 -0.400124
0.397181 1.315551 -0.398759
0.399973 1.315718 -0.398859
0.402178 1.314237 -0.397979
0.404084 1.311932 -0.396610
0.403602 1.303058 -0.391339
0.409066 1.310598 -0.395818
0.412457 1.312385 -0.396879
0.414345 1.310068 -0.395503
0.415617 1.306111 -0.393153
0.414735 1.296424 -0.387399
0.415044 1.290015 -0.383593
0.418109 1.290969 -0.384159
0.422422 1.295186 -0.386664
0.427067 1.300211 -0.389648
0.427965 1.295430 -0.386809
0.428845 1.290650 -0.383969
0.430342 1.287501 -0.382099
0.433103 1.287611 -0.382165
0.436507 1.289346 -0.383195
0.437664 1.285376 -0.380837
0.440102 1.284661 -0.380412
0.444166 1.288006 -0.382399
0.446610 1.287281 -0.381968
0.447736 1.283304 -0.379607
0.444881 1.269590 -0.371461
0.449280 1.273729 -0.373920
0.454365 1.279480 -0.377335
0.457126 1.279549 -0.377376
0.457867 1.274757 -0.374530
0.462316 1.278865 -0.376970
0.466102 1.281346 -0.378444
0.465454 1.273316 -0.373674
0.467180 1.270944 -0.372266
0.470624 1.272605 -0.373252
0.472689 1.271034 -0.372319
0.474749 1.269459 -0.371384
0.476455 1.267078 -0.369969
0.478855 1.266304 -0.369509
0.481255 1.265526 -0.369048
0.484007 1.265549 -0.369061
0.486048 1.263961 -0.368118
0.487726 1.261567 -0.366696
0.488675 1.257568 -0.364321
0.493226 1.261585 -0.366707
0.495253 1.259986 -0.365757
0.498004 1.259984 -0.365756
0.499291 1.256778 -0.363852
0.502039 1.256769 -0.363847
0.503679 1.254360 -0.362415
0.506054 1.253545 -0.361931
0.507681 1.251131 -0.360498
0.510049 1.250311 -0.360010
0.512040 1.248690 -0.359048
0.513648 1.246271 -0.357611
0.515247 1.243850 -0.356173
0.517982 1.243813 -0.356151
0.522631 1.247743 -0.358485
0.524608 1.246106 -0.357513
0.525423 1.242087 -0.355126
0.526223 1.238070 -0.352740
0.528175 1.236429 -0.351766
0.529732 1.233995 -0.350320
0.531673 1.232350 -0.349343
0.534398 1.232284 -0.349304
0.536728 1.231423 -0.348792
0.537864 1.228192 -0.346873
0.541382 1.229692 -0.347764
0.545309 1.231972 -0.349118
0.556883 1.249202 -0.359352
-0.177446 1.718084 -0.634098
-0.171986 1.692537 -0.618983
-0.168584 1.691019 -0.618085
-0.165325 1.691213 -0.618200
-0.161468 1.683673 -0.613739
-0.158224 1.683856 -0.613847
-0.154979 1.684034 -0.613952
-0.151611 1.682489 -0.613038
-0.148013 1.677502 -0.610088
-0.144609 1.675088 -0.608659
-0.140712 1.664934 -0.602652
-0.137343 1.662507 -0.601216
-0.134037 1.660935 -0.600286
-0.130737 1.659358 -0.599353
-0.127591 1.660355 -0.599942
-0.124252 1.657908 -0.598495
-0.120969 1.656315 -0.597552
-0.117649 1.653858 -0.596099
-0.114549 1.655695 -0.597185
-0.111120 1.650648 -0.594199
-0.107866 1.649036 -0.593245
-0.104618 1.647418 -0.592288
-0.101412 1.646656 -0.591837
-0.098144 1.644168 -0.590365
-0.095011 1.645116 -0.590926
-0.091844 1.645199 -0.590976
-0.088678 1.645278 -0.591022
-0.085433 1.642771 -0.589538
-0.082222 1.641119 -0.588561
-0.078928 1.636020 -0.585545
-0.075675 1.631777 -0.583034
-0.072517 1.630971 -0.582557
-0.069379 1.631020 -0.582586
-0.066085 1.622460 -0.577521
-0.062853 1.615615 -0.573472
-0.059759 1.616511 -0.574002
-0.056734 1.623426 -0.578093
-0.053586 1.620870 -0.576581
-0.050364 1.607981 -0.568955
-0.047283 1.609719 -0.569983
-0.044185 1.608870 -0.569481
-0.041094 1.609737 -0.569994
-0.038000 1.605437 -0.567450
-0.034918 1.603713 -0.566430
-0.031863 1.596821 -0.562352
-0.028800 1.595949 -0.561836
-0.025734 1.595933 -0.561826
-0.022676 1.595051 -0.561305
-0.019612 1.595026 -0.561290
-0.016571 1.593275 -0.560254
-0.013580 1.588938 -0.557688
-0.010575 1.586317 -0.556137
-0.007615 1.581971 -0.553566
-0.004596 1.581063 -0.553028
-0.001644 1.577568 -0.550961
0.001340 1.575791 -0.549909
0.004317 1.574008 -0.548855
0.007286 1.572222 -0.547798
0.010193 1.568710 -0.545720
0.013293 1.571216 -0.547203
0.016403 1.573718 -0.548683
0.019823 1.583956 -0.554740
0.022446 1.573545 -0.548581
0.024734 1.556251 -0.538348
0.027451 1.550134 -0.534730
0.030706 1.556054 -0.538232
0.034068 1.563687 -0.542748
0.036633 1.554978 -0.537595
0.039253 1.547986 -0.533458
0.041280 1.530674 -0.523215
0.044556 1.536570 -0.526704
0.047451 1.535584 -0.526121
0.051390 1.551783 -0.535705
0.054042 1.546491 -0.532574
0.056059 1.531742 -0.523847
0.058823 1.529021 -0.522237
0.061813 1.529732 -0.522658
0.064745 1.529580 -0.522568
0.067676 1.529424 -0.522476
0.070350 1.525827 -0.520348
0.072942 1.521369 -0.517710
0.075790 1.520341 -0.517102
0.078982 1.523602 -0.519031
0.081830 1.522566 -0.518418
0.084674 1.521525 -0.517803
0.087364 1.518764 -0.516169
0.090121 1.516857 -0.515041
0.092870 1.514947 -0.513910
0.095692 1.513890 -0.513285
0.097772 1.505110 -0.508090
0.100654 1.504904 -0.507968
0.104048 1.509838 -0.510888
0.107637 1.516482 -0.514818
0.108498 1.496544 -0.503022
0.111725 1.499750 -0.504919
0.114689 1.500380 -0.505292
0.118032 1.504433 -0.507690
0.120816 1.503340 -0.507043
0.123305 1.499673 -0.504873
0.126672 1.503710 -0.507262
0.129450 1.502604 -0.506608
0.132533 1.504063 -0.507471
0.134576 1.496957 -0.503267
0.137229 1.494984 -0.502100
0.137607 1.475040 -0.490299
0.140428 1.474774 -0.490142
0.143471 1.476215 -0.490994
0.146408 1.476795 -0.491337
0.149692 1.479936 -0.493196
0.152290 1.477942 -0.492016
0.155235 1.478508 -0.492351
0.157703 1.475653 -0.490662
0.160281 1.473648 -0.489476
0.162852 1.471640 -0.488288
0.165541 1.470483 -0.487603
0.168099 1.468467 -0.486410
0.170906 1.468156 -0.486226
0.173713 1.467840 -0.486039
0.176123 1.464960 -0.484336
0.178790 1.463784 -0.483639
0.181045 1.460045 -0.481428
0.183698 1.458862 -0.480727
0.186208 1.456822 -0.479520
0.188428 1.453075 -0.477303
0.190777 1.450177 -0.475589
0.193403 1.448980 -0.474881
0.196025 1.447779 -0.474170
0.198938 1.448277 -0.474464
0.201257 1.445366 -0.472742
0.203412 1.441601 -0.470515
0.206471 1.442938 -0.471306
0.209382 1.443419 -0.471590
0.213390 1.449845 -0.475392
0.215053 1.443517 -0.471648
0.218769 1.448232 -0.474438
0.220243 1.441050 -0.470189
0.223485 1.443207 -0.471465
0.225416 1.438568 -0.468720
0.229164 1.443262 -0.471497
0.229224 1.429285 -0.463228
0.232463 1.431426 -0.464494
0.233992 1.425083 -0.460741
0.237927 1.430605 -0.464009
0.239781 1.425952 -0.461256
0.241617 1.421297 -0.458502
0.243613 1.417488 -0.456248
0.246859 1.419603 -0.457499
0.248474 1.414095 -0.454241
0.251723 1.416201 -0.455487
0.252940 1.408998 -0.451225
0.255439 1.407714 -0.450465
0.258123 1.407271 -0.450203
0.261952 1.411893 -0.452938
0.264837 1.412285 -0.453170
0.267919 1.413517 -0.453898
0.266304 1.394488 -0.442640
0.270938 1.402466 -0.447360
0.273413 1.401156 -0.446585
0.276084 1.400686 -0.446307
0.278145 1.397684 -0.444531
0.280196 1.394680 -0.442754
0.282647 1.393358 -0.441971
0.284471 1.389507 -0.439693
0.286909 1.388179 -0.438907
0.289342 1.386848 -0.438120
0.292410 1.388036 -0.438822
0.294410 1.385016 -0.437036
0.295533 1.378633 -0.433259
0.298159 1.378130 -0.432962
0.299024 1.370906 -0.428688
0.302963 1.375434 -0.431366
0.305582 1.374920 -0.431062
0.303926 1.358468 -0.421329
0.306737 1.358791 -0.421520
0.312062 1.368326 -0.427161
0.314666 1.367798 -0.426849
0.315647 1.361406 -0.423067
0.318238 1.360873 -0.422751
0.321297 1.362009 -0.423423
0.324126 1.362304 -0.423598
0.326956 1.362593 -0.423769
0.326906 1.352853 -0.418006
0.329963 1.353974 -0.418669
0.331808 1.350915 -0.416859
0.332905 1.345351 -0.413568
0.337438 1.351464 -0.417184
0.340257 1.351732 -0.417343
0.342327 1.349495 -0.416019
0.344641 1.348089 -0.415188
0.347205 1.347512 -0.414846
0.349256 1.345268 -0.413518
0.351813 1.344684 -0.413173
0.353593 1.341603 -0.411350
0.356143 1.341012 -0.411001
0.358692 1.340419 -0.410649
0.359921 1.335670 -0.407840
0.361928 1.333411 -0.406503
0.364728 1.333638 -0.406637
0.368069 1.335518 -0.407750
0.370607 1.334906 -0.407387
0.371782 1.330149 -0.404573
0.374309 1.329532 -0.404208
0.376834 1.328911 -0.403841
0.379913 1.329939 -0.404449
0.381882 1.327657 -0.403099
0.383842 1.325372 -0.401747
0.386359 1.324737 -0.401371
0.388023 1.321622 -0.399528
0.389961 1.319330 -0.398172
0.392466 1.318686 -0.397791
0.394392 1.316389 -0.396432
0.396600 1.314915 -0.395560
0.398803 1.313437 -0.394685
0.401590 1.313601 -0.394783
0.404971 1.315406 -0.395850
0.408062 1.316382 -0.396428
0.411159 1.317352 -0.397002
0.413359 1.315855 -0.396116
0.411019 1.302049 -0.387948
0.410449 1.293174 -0.382697
0.411372 1.288401 -0.379873
0.415044 1.291000 -0.381411
0.419036 1.294411 -0.383428
0.424287 1.301085 -0.387377
0.425817 1.297936 -0.385514
0.431419 1.305409 -0.389935
0.426951 1.286735 -0.378887
0.433515 1.296645 -0.384750
0.435655 1.295120 -0.383848
0.439713 1.298482 -0.385837
0.440242 1.292874 -0.382519
0.443017 1.292969 -0.382575
0.444166 1.288989 -0.380220
0.447591 1.290703 -0.381234
0.446092 1.280218 -0.375031
0.448517 1.279489 -0.374600
0.451605 1.280380 -0.375127
0.455033 1.282077 -0.376131
0.460146 1.287821 -0.379529
0.460227 1.281399 -0.375730
0.457574 1.268502 -0.368099
0.460996 1.270183 -0.369094
0.463401 1.269432 -0.368649
0.466492 1.270294 -0.369159
0.469243 1.270342 -0.369188
0.471302 1.268771 -0.368258
0.473355 1.267197 -0.367327
0.475054 1.264815 -0.365918
0.477096 1.263237 -0.364984
0.479134 1.261657 -0.364049
0.482232 1.262487 -0.364540
0.484621 1.261704 -0.364077
0.487009 1.260917 -0.363611
0.489755 1.260929 -0.363619
0.492142 1.260135 -0.363149
0.494526 1.259337 -0.362676
0.494720 1.253727 -0.359357
0.497825 1.254527 -0.359831
0.500934 1.255321 -0.360300
0.503679 1.255309 -0.360293
0.505311 1.252895 -0.358865
0.506562 1.249682 -0.356964
0.508551 1.248064 -0.356007
0.510911 1.247241 -0.355520
0.512892 1.245618 -0.354560
0.514109 1.242400 -0.352656
0.516838 1.242365 -0.352635
0.519187 1.241529 -0.352141
0.521150 1.239896 -0.351174
0.523493 1.239055 -0.350676
0.526223 1.239003 -0.350646
0.528564 1.238153 -0.350143
0.530514 1.236508 -0.349170
0.532458 1.234861 -0.348195
0.534398 1.233211 -0.347219
0.537123 1.233140 -0.347177
0.539056 1.231485 -0.346197
0.541382 1.230616 -0.345684
0.543707 1.229744 -0.345168
0.561304 1.258815 -0.362368
-0.171557 1.688301 -0.614042
-0.168096 1.685922 -0.612638
-0.164917 1.686974 -0.613259
-0.161535 1.685444 -0.612356
-0.157901 1.680471 -0.609421
-0.154602 1.679789 -0.609019
-0.151428 1.680821 -0.609628
-0.147895 1.676691 -0.607191
-0.144321 1.671695 -0.604242
-0.140712 1.665833 -0.600783
-0.137343 1.663405 -0.599350
-0.133984 1.660972 -0.597914
-0.130737 1.660254 -0.597490
-0.127444 1.658670 -0.596556
-0.124205 1.657942 -0.596126
-0.120924 1.656349 -0.595186
-0.117387 1.649588 -0.591196
-0.114172 1.648844 -0.590757
-0.110960 1.648096 -0.590316
-0.107789 1.648203 -0.590379
-0.104618 1.648306 -0.590439
-0.101238 1.643239 -0.587449
-0.098210 1.646775 -0.589536
-0.094854 1.641698 -0.586540
-0.091577 1.638338 -0.584557
-0.088315 1.634973 -0.582571
-0.085249 1.637629 -0.584138
-0.082344 1.646307 -0.589260
-0.078996 1.639483 -0.585233
-0.075550 1.627488 -0.578154
-0.072267 1.620654 -0.574121
-0.069135 1.619842 -0.573642
-0.066022 1.619887 -0.573668
-0.062936 1.621649 -0.574708
-0.059905 1.627712 -0.578286
-0.056703 1.621714 -0.574746
-0.053516 1.614850 -0.570696
-0.050385 1.611427 -0.568675
-0.047257 1.606276 -0.565636
-0.044168 1.605426 -0.565134
-0.041081 1.603711 -0.564122
-0.038000 1.601990 -0.563107
-0.034933 1.596821 -0.560056
-0.031867 1.596814 -0.560052
-0.028806 1.595941 -0.559537
-0.025741 1.595925 -0.559527
-0.022694 1.594182 -0.558499
-0.019653 1.592434 -0.557467
-0.016632 1.589821 -0.555925
-0.013608 1.588064 -0.554888
-0.010654 1.582859 -0.551816
-0.007668 1.580232 -0.550266
-0.004635 1.580184 -0.550238
-0.001623 1.579271 -0.549699
0.001362 1.577492 -0.548649
0.004268 1.573126 -0.546072
0.007181 1.569616 -0.544001
0.010193 1.569546 -0.543960
0.013204 1.569471 -0.543916
0.016184 1.568531 -0.543361
0.019292 1.571030 -0.544835
0.022202 1.568359 -0.543259
0.025320 1.570849 -0.544728
0.028181 1.567309 -0.542639
0.030465 1.551718 -0.533438
0.033482 1.552473 -0.533884
0.036066 1.544620 -0.529250
0.038845 1.541065 -0.527152
0.041657 1.538366 -0.525559
0.044605 1.538244 -0.525487
0.047553 1.538118 -0.525413
0.050709 1.541427 -0.527366
0.053555 1.539572 -0.526271
0.056338 1.536852 -0.524666
0.059168 1.534989 -0.523566
0.061457 1.525384 -0.517898
0.064195 1.522653 -0.516286
0.067551 1.528514 -0.519745
0.070543 1.529213 -0.520157
0.073075 1.523891 -0.517017
0.075858 1.522004 -0.515903
0.078703 1.520971 -0.515294
0.081544 1.519935 -0.514682
0.084381 1.518894 -0.514068
0.087214 1.517849 -0.513451
0.089967 1.515941 -0.512325
0.092713 1.514030 -0.511197
0.095772 1.515548 -0.512093
0.098264 1.511053 -0.509440
0.101658 1.515995 -0.512357
0.103963 1.509777 -0.508687
0.106679 1.507845 -0.507547
0.109387 1.505910 -0.506405
0.112722 1.509975 -0.508804
0.114873 1.502886 -0.504620
0.116808 1.494080 -0.499424
0.119858 1.495559 -0.500297
0.123305 1.500463 -0.503190
0.127268 1.509645 -0.508609
0.130158 1.509394 -0.508461
0.130888 1.491149 -0.497694
0.133009 1.484898 -0.494005
0.135848 1.484639 -0.493852
0.138687 1.484375 -0.493697
0.141964 1.487532 -0.495559
0.144809 1.487259 -0.495398
0.146861 1.480992 -0.491700
0.149577 1.479857 -0.491030
0.152290 1.478717 -0.490358
0.154998 1.477574 -0.489683
0.157703 1.476427 -0.489006
0.160160 1.473566 -0.487318
0.162482 1.469848 -0.485123
0.164914 1.466981 -0.483431
0.167591 1.465820 -0.482746
0.170520 1.466363 -0.483066
0.173322 1.466047 -0.482880
0.175991 1.464874 -0.482188
0.177986 1.459429 -0.478975
0.180638 1.458249 -0.478278
0.183148 1.456213 -0.477076
0.185790 1.455025 -0.476376
0.188146 1.452129 -0.474666
0.190634 1.450082 -0.473459
0.193114 1.448032 -0.472249
0.196025 1.448534 -0.472545
0.198938 1.449032 -0.472839
0.201257 1.446120 -0.471120
0.203715 1.444055 -0.469902
0.206012 1.441137 -0.468179
0.208763 1.440768 -0.467962
0.211357 1.439544 -0.467240
0.215686 1.447671 -0.472036
0.218290 1.446437 -0.471308
0.219758 1.439251 -0.467067
0.222832 1.440561 -0.467840
0.225416 1.439317 -0.467106
0.227829 1.437221 -0.465869
0.230235 1.435122 -0.464630
0.232974 1.434716 -0.464391
0.234680 1.429217 -0.461145
0.237753 1.430501 -0.461903
0.240482 1.430084 -0.461657
0.241440 1.421188 -0.456407
0.242719 1.413987 -0.452157
0.245054 1.411869 -0.450907
0.248839 1.416522 -0.453653
0.251539 1.416089 -0.453398
0.253311 1.411420 -0.450643
0.255626 1.409289 -0.449385
0.257178 1.403771 -0.446128
0.260044 1.404171 -0.446364
0.262527 1.402876 -0.445600
0.263840 1.396508 -0.441842
0.266696 1.396897 -0.442072
0.268962 1.394749 -0.440804
0.271618 1.394285 -0.440530
0.274475 1.394662 -0.440753
0.277131 1.394190 -0.440474
0.279991 1.394557 -0.440691
0.282029 1.391549 -0.438916
0.284263 1.389381 -0.437636
0.286909 1.388895 -0.437349
0.288708 1.385038 -0.435073
0.293688 1.393800 -0.440244
0.295913 1.391618 -0.438956
0.296183 1.381865 -0.433201
0.299249 1.383042 -0.433895
0.300563 1.377492 -0.430620
0.303406 1.377821 -0.430814
0.306252 1.378145 -0.431005
0.308425 1.375947 -0.429708
0.310136 1.372070 -0.427420
0.310007 1.361483 -0.421172
0.313976 1.365986 -0.423830
0.314257 1.357078 -0.418573
0.318704 1.363246 -0.422212
0.322943 1.368567 -0.425353
0.325547 1.368023 -0.425032
0.329103 1.370820 -0.426682
0.329549 1.362742 -0.421915
0.332624 1.363859 -0.422574
0.333269 1.356618 -0.418301
0.335358 1.354388 -0.416985
0.337191 1.351321 -0.415175
0.339760 1.350755 -0.414841
0.342077 1.349352 -0.414013
0.344641 1.348778 -0.413675
0.347458 1.349034 -0.413826
0.350022 1.348453 -0.413483
0.352842 1.348700 -0.413628
0.354111 1.343951 -0.410826
0.355622 1.340034 -0.408514
0.357381 1.336947 -0.406693
0.360184 1.337182 -0.406831
0.363521 1.339072 -0.407947
0.366064 1.338467 -0.407589
0.367800 1.335369 -0.405761
0.369795 1.333099 -0.404422
0.371782 1.330827 -0.403081
0.373761 1.328553 -0.401738
0.376007 1.327104 -0.400883
0.378249 1.325652 -0.400027
0.380766 1.325025 -0.399657
0.382439 1.321913 -0.397821
0.385512 1.322932 -0.398422
0.387739 1.321468 -0.397557
0.389675 1.319175 -0.396205
0.391604 1.316881 -0.394850
0.394103 1.316233 -0.394468
0.396890 1.316406 -0.394570
0.399096 1.314927 -0.393697
0.401590 1.314268 -0.393308
0.403196 1.311137 -0.391461
0.404791 1.308005 -0.389613
0.404580 1.299942 -0.384854
0.407646 1.300917 -0.385430
0.405274 1.287111 -0.377282
0.407712 1.286443 -0.376888
0.408621 1.281671 -0.374072
0.415044 1.291652 -0.379962
0.420890 1.299979 -0.384876
0.426772 1.308292 -0.389782
0.427379 1.302683 -0.386471
0.431419 1.306070 -0.388470
0.433264 1.303728 -0.387088
0.437322 1.307101 -0.389079
0.439801 1.306385 -0.388656
0.442919 1.307296 -0.389194
0.438631 1.289451 -0.378663
0.441398 1.289547 -0.378720
0.442864 1.286382 -0.376852
0.443010 1.279961 -0.373062
0.446092 1.280863 -0.373595
0.446204 1.274443 -0.369806
0.453598 1.285899 -0.376566
0.451361 1.273792 -0.369422
0.457126 1.281168 -0.373775
0.456182 1.272314 -0.368550
0.461300 1.278052 -0.371936
0.464060 1.278109 -0.371970
0.466480 1.277353 -0.371523
0.468554 1.275784 -0.370597
0.469588 1.271788 -0.368239
0.471648 1.270215 -0.367311
0.472658 1.266219 -0.364952
0.474704 1.264642 -0.364022
0.476744 1.263064 -0.363091
0.479134 1.262288 -0.362633
0.480456 1.259094 -0.360748
0.483194 1.259117 -0.360762
0.485934 1.259136 -0.360773
0.489755 1.261561 -0.362204
0.491780 1.259963 -0.361261
0.495253 1.261572 -0.362210
0.496544 1.258363 -0.360317
0.500024 1.259962 -0.361260
0.502407 1.259151 -0.360782
0.504049 1.256737 -0.359357
0.505311 1.253521 -0.357459
0.507308 1.251904 -0.356505
0.508551 1.248687 -0.354606
0.510159 1.246268 -0.353179
0.511758 1.243847 -0.351750
0.514109 1.243019 -0.351261
0.516838 1.242984 -0.351240
0.518804 1.241352 -0.350278
0.522687 1.243694 -0.351660
0.525037 1.242849 -0.351161
0.525060 1.237238 -0.347850
0.528954 1.239563 -0.349222
0.528951 1.233953 -0.345911
0.530889 1.232307 -0.344939
0.532034 1.229075 -0.343032
0.537123 1.233753 -0.345793
0.538659 1.231306 -0.344349
0.540186 1.228858 -0.342904
0.542506 1.227988 -0.342391
0.550452 1.238153 -0.348390
-0.175834 1.701455 -0.618254
-0.171486 1.688762 -0.610792
-0.168235 1.688960 -0.610908
-0.164781 1.686574 -0.609505
-0.161402 1.685042 -0.608604
-0.157901 1.681784 -0.606689
-0.154225 1.675939 -0.603253
-0.150757 1.672670 -0.601330
-0.147480 1.671977 -0.600923
-0.144148 1.670418 -0.600006
-0.140712 1.667132 -0.598075
-0.137235 1.662981 -0.595634
-0.133827 1.659684 -0.593695
-0.130535 1.658104 -0.592766
-0.127346 1.658241 -0.592847
-0.124016 1.655790 -0.591405
-0.120697 1.653333 -0.589961
-0.117431 1.651733 -0.589020
-0.114297 1.652711 -0.589595
-0.110839 1.646794 -0.586117
-0.107789 1.649486 -0.587699
-0.104435 1.645281 -0.585227
-0.101412 1.648825 -0.587310
-0.097845 1.638579 -0.581286
-0.094414 1.630912 -0.576778
-0.091548 1.638749 -0.581387
-0.088036 1.627626 -0.574846
-0.085066 1.632869 -0.577929
-0.081587 1.620872 -0.570876
-0.078724 1.630416 -0.576487
-0.075571 1.629613 -0.576015
-0.072363 1.626219 -0.574019
-0.069118 1.620235 -0.570501
-0.065818 1.609937 -0.564446
-0.062783 1.613424 -0.566496
-0.059600 1.607425 -0.562969
-0.056567 1.611765 -0.565521
-0.053437 1.608343 -0.563509
-0.050329 1.605778 -0.562001
-0.047236 1.604070 -0.560996
-0.044154 1.603219 -0.560496
-0.041077 1.603226 -0.560501
-0.038000 1.601505 -0.559488
-0.034937 1.596330 -0.556446
-0.031874 1.596323 -0.556442
-0.028832 1.592864 -0.554408
-0.025790 1.591123 -0.553384
-0.022746 1.590241 -0.552866
-0.019748 1.585905 -0.550317
-0.016718 1.585014 -0.549792
-0.013678 1.584980 -0.549772
-0.010669 1.583217 -0.548736
-0.007738 1.578002 -0.545670
-0.004731 1.577092 -0.545135
-0.001707 1.577040 -0.545104
0.001272 1.575259 -0.544057
0.004243 1.573474 -0.543008
0.007181 1.570823 -0.541449
0.010025 1.565583 -0.538368
0.013085 1.567232 -0.539337
0.015775 1.558537 -0.534225
0.019027 1.565346 -0.538228
0.021922 1.562673 -0.536657
0.024844 1.560858 -0.535590
0.027566 1.554731 -0.531987
0.030344 1.550324 -0.529396
0.033021 1.544190 -0.525789
0.035717 1.538913 -0.522687
0.038663 1.538800 -0.522621
0.041893 1.543849 -0.525589
0.043872 1.526506 -0.515393
0.047654 1.541017 -0.523924
0.050448 1.538303 -0.522329
0.053609 1.541611 -0.524273
0.056562 1.541471 -0.524191
0.059513 1.541327 -0.524106
0.061931 1.533433 -0.519465
0.064439 1.527257 -0.515834
0.067174 1.524520 -0.514225
0.070092 1.524360 -0.514130
0.072942 1.523335 -0.513528
0.075585 1.519725 -0.511406
0.078284 1.516972 -0.509787
0.080757 1.511636 -0.506650
0.084527 1.521772 -0.512609
0.087589 1.523305 -0.513510
0.090197 1.519676 -0.511376
0.093027 1.518621 -0.510756
0.095531 1.514126 -0.508113
0.097936 1.508768 -0.504963
0.100822 1.508561 -0.504841
0.104305 1.514362 -0.508252
0.107550 1.517581 -0.510145
0.109742 1.510491 -0.505976
0.111725 1.501681 -0.500796
0.115612 1.510896 -0.506214
0.116714 1.494357 -0.496490
0.118899 1.488115 -0.492820
0.121841 1.488735 -0.493184
0.125083 1.491923 -0.495059
0.128339 1.495106 -0.496931
0.130683 1.490566 -0.494261
0.133322 1.488596 -0.493103
0.136167 1.488336 -0.492950
0.138687 1.485501 -0.491283
0.141306 1.483519 -0.490118
0.143694 1.479821 -0.487943
0.146634 1.480402 -0.488285
0.149577 1.480978 -0.488624
0.152407 1.480694 -0.488457
0.154998 1.478693 -0.487280
0.157102 1.473266 -0.484089
0.159550 1.470403 -0.482406
0.162234 1.469249 -0.481727
0.164789 1.467235 -0.480543
0.167591 1.466928 -0.480363
0.170005 1.464051 -0.478672
0.172800 1.463736 -0.478487
0.175330 1.461708 -0.477294
0.177852 1.459677 -0.476100
0.180095 1.455933 -0.473899
0.183148 1.457311 -0.474709
0.185929 1.456976 -0.474512
0.188428 1.454930 -0.473309
0.190492 1.450321 -0.470599
0.192681 1.446564 -0.468390
0.195587 1.447067 -0.468686
0.198347 1.446714 -0.468478
0.200658 1.443799 -0.466764
0.203261 1.442586 -0.466051
0.205706 1.440517 -0.464834
0.207989 1.437593 -0.463115
0.211044 1.438924 -0.463898
0.212206 1.430035 -0.458672
0.216851 1.439868 -0.464453
0.218465 1.433528 -0.460725
0.222178 1.438243 -0.463497
0.223765 1.431897 -0.459767
0.227329 1.435751 -0.462033
0.230067 1.435350 -0.461797
0.231612 1.428999 -0.458062
0.233820 1.426043 -0.456325
0.235843 1.422236 -0.454086
0.237150 1.415033 -0.449851
0.237898 1.405284 -0.444119
0.241825 1.410804 -0.447365
0.246137 1.418012 -0.451603
0.249568 1.420973 -0.453344
0.252827 1.423080 -0.454583
0.257210 1.430264 -0.458806
0.255814 1.411189 -0.447591
0.257367 1.405666 -0.444344
0.260044 1.405220 -0.444081
0.263682 1.408999 -0.446303
0.266365 1.408543 -0.446035
0.268656 1.406392 -0.444771
0.270345 1.401704 -0.442014
0.272615 1.399548 -0.440747
0.274877 1.397390 -0.439478
0.277131 1.395229 -0.438207
0.279378 1.393065 -0.436935
0.281616 1.390899 -0.435661
0.284679 1.392102 -0.436369
0.288795 1.397515 -0.439551
0.292935 1.402919 -0.442729
0.295393 1.401577 -0.441940
0.293981 1.385077 -0.432238
0.297265 1.387100 -0.433428
0.296195 1.372292 -0.424721
0.299244 1.373469 -0.425413
0.301191 1.370438 -0.423631
0.307368 1.383370 -0.431235
0.309549 1.381169 -0.429940
0.311270 1.377285 -0.427657
0.313889 1.376758 -0.427347
0.315586 1.372871 -0.425062
0.318197 1.372337 -0.424748
0.318004 1.361740 -0.418517
0.319181 1.356176 -0.415246
0.320810 1.352286 -0.412959
0.323855 1.353419 -0.413625
0.326666 1.353709 -0.413795
0.328512 1.350649 -0.411996
0.332295 1.354276 -0.414129
0.334377 1.352046 -0.412817
0.337191 1.352319 -0.412978
0.339014 1.349248 -0.411172
0.341576 1.348679 -0.410838
0.344137 1.348106 -0.410501
0.346443 1.346695 -0.409671
0.348489 1.344448 -0.408350
0.351042 1.343864 -0.408007
0.353334 1.342444 -0.407172
0.355362 1.340189 -0.405846
0.357381 1.337932 -0.404519
0.359921 1.337335 -0.404168
0.362459 1.336734 -0.403815
0.364728 1.335299 -0.402971
0.366455 1.332200 -0.401149
0.368442 1.329930 -0.399814
0.370965 1.329317 -0.399454
0.373487 1.328700 -0.399091
0.375732 1.327250 -0.398239
0.378249 1.326626 -0.397871
0.379650 1.322686 -0.395555
0.382158 1.322056 -0.395185
0.384383 1.320595 -0.394326
0.385751 1.316651 -0.392007
0.387676 1.314360 -0.390660
0.389880 1.312892 -0.389797
0.393524 1.315547 -0.391358
0.395437 1.313246 -0.390005
0.397926 1.312593 -0.389621
0.400414 1.311935 -0.389234
0.404084 1.314567 -0.390782
0.407170 1.315546 -0.391357
0.411159 1.318987 -0.393381
0.408247 1.303511 -0.384281
0.408600 1.297086 -0.380504
0.408016 1.288200 -0.375279
0.414735 1.299018 -0.381639
0.420269 1.306538 -0.386061
0.420581 1.300108 -0.382280
0.421490 1.295319 -0.379465
0.423319 1.292988 -0.378094
0.424511 1.289019 -0.375760
0.428529 1.292411 -0.377755
0.430342 1.290072 -0.376379
0.438525 1.304072 -0.384611
0.439713 1.300087 -0.382268
0.439598 1.292838 -0.378006
0.439454 1.285593 -0.373746
0.439934 1.279982 -0.370447
0.440393 1.274374 -0.367150
0.440501 1.267954 -0.363375
0.449178 1.282690 -0.372039
0.448616 1.274638 -0.367305
0.453030 1.278779 -0.369740
0.456120 1.279663 -0.370259
0.459890 1.282164 -0.371730
0.461300 1.278980 -0.369858
0.461337 1.272553 -0.366079
0.462717 1.269369 -0.364207
0.464774 1.267805 -0.363287
0.465790 1.263810 -0.360939
0.469220 1.265476 -0.361918
0.473007 1.267943 -0.363369
0.474704 1.265558 -0.361966
0.477096 1.264784 -0.361511
0.477366 1.259169 -0.358210
0.479746 1.258392 -0.357753
0.481411 1.256001 -0.356347
0.483425 1.254413 -0.355413
0.485795 1.253626 -0.354951
0.489972 1.256855 -0.356849
0.493073 1.257665 -0.357326
0.494720 1.255259 -0.355911
0.496725 1.253654 -0.354967
0.499830 1.254451 -0.355436
0.502570 1.254441 -0.355430
0.504197 1.252025 -0.354009
0.506562 1.251207 -0.353529
0.507802 1.247988 -0.351636
0.510159 1.247165 -0.351152
0.512514 1.246339 -0.350666
0.513729 1.243116 -0.348771
0.515695 1.241487 -0.347814
0.518039 1.240652 -0.347323
0.521534 1.242201 -0.348234
0.524265 1.242153 -0.348205
0.525835 1.239716 -0.346772
0.525451 1.233307 -0.343004
0.527779 1.232458 -0.342505
0.530104 1.231605 -0.342003
0.531246 1.228371 -0.340102
0.533563 1.227513 -0.339598
0.536276 1.227443 -0.339556
0.539787 1.228948 -0.340442
0.541705 1.227287 -0.339465
0.548442 1.235096 -0.344056
-0.175248 1.695327 -0.612647
-0.171414 1.688649 -0.608729
-0.167817 1.684545 -0.606321
-0.164304 1.681296 -0.604415
-0.160872 1.678902 -0.603010
-0.157514 1.677363 -0.602107
-0.154100 1.674958 -0.600696
-0.150635 1.671687 -0.598777
-0.147242 1.669271 -0.597359
-0.143745 1.665128 -0.594929
-0.140209 1.660118 -0.591989
-0.136802 1.656824 -0.590057
-0.133565 1.656109 -0.589637
-0.130433 1.657112 -0.590226
-0.127102 1.654664 -0.588789
-0.123781 1.652211 -0.587350
-0.120561 1.651477 -0.586919
-0.117518 1.654183 -0.588507
-0.114130 1.649992 -0.586048
-0.110598 1.642348 -0.581563
-0.106868 1.629527 -0.574041
-0.103849 1.632214 -0.575617
-0.101098 1.641792 -0.581237
-0.098044 1.644471 -0.582809
-0.095105 1.650594 -0.586401
-0.091666 1.642918 -0.581898
-0.088482 1.642134 -0.581438
-0.085197 1.637897 -0.578952
-0.082125 1.640552 -0.580510
-0.079064 1.644065 -0.582571
-0.075759 1.638089 -0.579064
-0.071884 1.605374 -0.559870
-0.068769 1.603698 -0.558887
-0.065723 1.605467 -0.559924
-0.062546 1.599469 -0.556406
-0.059478 1.599504 -0.556426
-0.056409 1.599534 -0.556444
-0.053420 1.607322 -0.561013
-0.050315 1.604755 -0.559507
-0.047236 1.604771 -0.559516
-0.044147 1.602195 -0.558005
-0.041074 1.602202 -0.558009
-0.038000 1.602205 -0.558010
-0.034930 1.600477 -0.556997
-0.031867 1.598745 -0.555981
-0.028816 1.596146 -0.554456
-0.025811 1.589230 -0.550398
-0.022790 1.586622 -0.548868
-0.019769 1.584872 -0.547841
-0.016767 1.582255 -0.546306
-0.013734 1.582221 -0.546286
-0.010701 1.582182 -0.546263
-0.007703 1.580414 -0.545226
-0.004750 1.576916 -0.543174
-0.001812 1.573415 -0.541119
0.001113 1.569909 -0.539062
0.004023 1.566399 -0.537003
0.007024 1.566333 -0.536964
0.010053 1.567125 -0.537429
0.013056 1.567051 -0.537385
0.015901 1.562661 -0.534810
0.018496 1.552234 -0.528692
0.021434 1.551284 -0.528135
0.024441 1.552055 -0.528587
0.027413 1.551958 -0.528530
0.030545 1.555305 -0.530494
0.033649 1.557785 -0.531949
0.036633 1.557675 -0.531884
0.039571 1.556698 -0.531311
0.042269 1.551410 -0.528209
0.044410 1.536642 -0.519544
0.047553 1.539961 -0.521491
0.050186 1.534662 -0.518382
0.052636 1.526776 -0.513756
0.055222 1.521471 -0.510643
0.058132 1.521328 -0.510559
0.061457 1.527208 -0.514009
0.064378 1.527056 -0.513920
0.067174 1.525178 -0.512818
0.069963 1.523296 -0.511714
0.072611 1.519689 -0.509597
0.075517 1.519521 -0.509498
0.077656 1.509883 -0.503844
0.080757 1.512287 -0.505255
0.083722 1.512967 -0.505653
0.086240 1.508481 -0.503021
0.088586 1.502272 -0.499379
0.091379 1.501219 -0.498761
0.094569 1.504461 -0.500663
0.098018 1.510277 -0.504075
0.100570 1.506632 -0.501937
0.103621 1.508140 -0.502821
0.106766 1.510502 -0.504207
0.109564 1.509423 -0.503574
0.111906 1.504045 -0.500419
0.114689 1.502958 -0.499781
0.117373 1.501009 -0.498638
0.119283 1.492188 -0.493462
0.122134 1.491949 -0.493322
0.125083 1.492564 -0.493683
0.127631 1.489742 -0.492027
0.130580 1.490348 -0.492383
0.131859 1.477226 -0.484683
0.134360 1.474395 -0.483023
0.136527 1.468989 -0.479851
0.140208 1.475582 -0.483719
0.143026 1.475312 -0.483561
0.146521 1.480179 -0.486416
0.148888 1.476472 -0.484241
0.151240 1.472762 -0.482065
0.154051 1.472475 -0.481896
0.156862 1.472184 -0.481725
0.160038 1.474457 -0.483059
0.162234 1.469877 -0.480372
0.164413 1.465295 -0.477683
0.166828 1.462421 -0.475998
0.169490 1.461256 -0.475314
0.172278 1.460941 -0.475129
0.174933 1.459768 -0.474441
0.177316 1.456881 -0.472747
0.179959 1.455700 -0.472054
0.182186 1.451953 -0.469855
0.184816 1.450765 -0.469159
0.187442 1.449574 -0.468460
0.190206 1.449232 -0.468259
0.192826 1.448033 -0.467556
0.195148 1.445124 -0.465849
0.196869 1.438799 -0.462138
0.199911 1.440149 -0.462930
0.202958 1.441494 -0.463719
0.205859 1.441982 -0.464005
0.208144 1.439056 -0.462289
0.210731 1.437832 -0.461571
0.213313 1.436604 -0.460850
0.215891 1.435372 -0.460127
0.218627 1.434988 -0.459902
0.220872 1.432047 -0.458176
0.223435 1.430804 -0.457447
0.224661 1.422755 -0.452724
0.226528 1.418106 -0.449997
0.230761 1.425355 -0.454250
0.231585 1.415602 -0.448528
0.235149 1.419442 -0.450781
0.237326 1.416481 -0.449044
0.239492 1.413518 -0.447305
0.240931 1.407158 -0.443574
0.243249 1.405039 -0.442331
0.243918 1.395285 -0.436608
0.248780 1.405032 -0.442326
0.250897 1.402056 -0.440580
0.254877 1.407550 -0.443803
0.259636 1.416423 -0.449010
0.262906 1.418513 -0.450236
0.263874 1.410441 -0.445500
0.265006 1.403216 -0.441261
0.267284 1.401066 -0.439999
0.269950 1.400604 -0.439729
0.272416 1.399294 -0.438960
0.274274 1.395445 -0.436701
0.276929 1.394973 -0.436424
0.278764 1.391120 -0.434164
0.281823 1.392329 -0.434873
0.285095 1.394376 -0.436074
0.287328 1.392201 -0.434798
0.289553 1.390023 -0.433520
0.289641 1.379416 -0.427297
