# This PCD file was generated using the MATLAB® pcwrite function
# from Computer Vision System Toolbox®.
# .PCD v.7 - Point Cloud Data file format
VERSION .7
FIELDS x y z
SIZE 4 4 4
TYPE F F F
COUNT 1 1 1
WIDTH 1645
HEIGHT 1
VIEWPOINT 0 0 0 1 0 0 0
POINTS 1645
DATA ascii
-0.423715 2.473256 -0.332996
-0.418867 2.471045 -0.332374
-0.414618 2.472633 -0.332821
-0.411242 2.479928 -0.334874
-0.409429 2.497697 -0.339875
-0.405127 2.499269 -0.340318
-0.400962 2.501789 -0.341027
-0.396649 2.503348 -0.341466
-0.391645 2.500133 -0.340561
-0.387332 2.501677 -0.340995
-0.383148 2.504168 -0.341697
-0.379089 2.507607 -0.342664
-0.374627 2.508176 -0.342825
-0.370421 2.510647 -0.343520
-0.366335 2.514066 -0.344482
-0.362237 2.517479 -0.345443
-0.357757 2.518020 -0.345595
-0.353276 2.518553 -0.345745
-0.349034 2.520991 -0.346431
-0.345140 2.526289 -0.347922
-0.340877 2.528713 -0.348605
-0.336722 2.532087 -0.349554
-0.332442 2.534497 -0.350233
-0.328377 2.538815 -0.351448
-0.323748 2.538342 -0.351315
-0.319878 2.544560 -0.353065
-0.315987 2.550773 -0.354813
-0.311133 2.548364 -0.354136
-0.306391 2.546904 -0.353725
-0.301858 2.547351 -0.353850
-0.297820 2.552580 -0.355322
-0.293570 2.555887 -0.356253
-0.289403 2.560145 -0.357451
-0.285128 2.563438 -0.358378
-0.280473 2.562891 -0.358224
-0.276273 2.567129 -0.359417
-0.271525 2.565608 -0.358989
-0.266087 2.556407 -0.356399
-0.998834 2.215203 -0.260673
-0.995291 2.217700 -0.261376
-0.990575 2.217531 -0.261328
-0.985476 2.216466 -0.261028
-0.981154 2.217167 -0.261226
-0.977986 2.220525 -0.262171
-0.972513 2.218544 -0.261613
-0.968574 2.220110 -0.262055
-0.963114 2.218108 -0.261491
-0.962576 2.227680 -0.264186
-0.958997 2.230122 -0.264874
-0.957285 2.237020 -0.266816
-0.952193 2.235882 -0.266496
-0.946366 2.232946 -0.265669
-0.942031 2.233574 -0.265846
-0.937696 2.234195 -0.266021
-0.933729 2.235703 -0.266445
-0.930854 2.239893 -0.267625
-0.927239 2.242287 -0.268299
-0.922534 2.241983 -0.268214
-0.919632 2.246159 -0.269390
-0.920660 2.260218 -0.273348
-0.919143 2.267992 -0.275538
-0.912984 2.264070 -0.274433
-0.905781 2.257433 -0.272564
-0.903179 2.262491 -0.273989
-0.898460 2.262138 -0.273889
-0.893047 2.259972 -0.273279
-0.888686 2.260502 -0.273428
-0.884671 2.261928 -0.273830
-0.882028 2.266963 -0.275248
-0.879028 2.271091 -0.276410
-0.874993 2.272500 -0.276807
-0.870279 2.272092 -0.276692
-0.866243 2.273486 -0.277085
-0.862875 2.276688 -0.277986
-0.858831 2.278070 -0.278376
-0.855449 2.281262 -0.279274
-0.850404 2.279906 -0.278892
-0.847012 2.283086 -0.279788
-0.843283 2.285351 -0.280426
-0.840851 2.291251 -0.282087
-0.837428 2.294418 -0.282979
-0.833030 2.294846 -0.283099
-0.827990 2.293443 -0.282704
-0.826148 2.301153 -0.284875
-0.823012 2.305212 -0.286018
-0.818600 2.305614 -0.286132
-0.815131 2.308750 -0.287015
-0.810717 2.309138 -0.287124
-0.805060 2.305858 -0.286200
-0.800963 2.307143 -0.286562
-0.796249 2.306589 -0.286406
-0.791233 2.305110 -0.285990
-0.787441 2.307289 -0.286603
-0.784551 2.312215 -0.287990
-0.781946 2.318056 -0.289635
-0.777528 2.318384 -0.289727
-0.773408 2.319623 -0.290076
-0.768695 2.319016 -0.289905
-0.764868 2.321160 -0.290509
-0.761035 2.323298 -0.291111
-0.760104 2.334640 -0.294305
-0.757400 2.340457 -0.295943
-0.753815 2.343506 -0.296802
-0.748793 2.341938 -0.296360
-0.744914 2.344052 -0.296955
-0.736795 2.332308 -0.293648
-0.735738 2.343641 -0.296840
-0.729619 2.338339 -0.295347
-0.728791 2.350595 -0.298798
-0.722683 2.345275 -0.297300
-0.718241 2.345496 -0.297362
-0.711894 2.339226 -0.295596
-0.707466 2.339428 -0.295653
-0.704114 2.343331 -0.296752
-0.698079 2.337953 -0.295238
-0.697641 2.352051 -0.299208
-0.692669 2.350370 -0.298734
-0.690064 2.357040 -0.300613
-0.686656 2.360920 -0.301705
-0.682718 2.362936 -0.302273
-0.678261 2.363085 -0.302315
-0.674315 2.365088 -0.302879
-0.670365 2.367085 -0.303441
-0.666913 2.370938 -0.304526
-0.662448 2.371059 -0.304560
-0.658730 2.373969 -0.305380
-0.654016 2.373143 -0.305147
-0.650533 2.376974 -0.306226
-0.647038 2.380800 -0.307303
-0.642805 2.381819 -0.307590
-0.638810 2.383766 -0.308138
-0.634811 2.385707 -0.308685
-0.631043 2.388577 -0.309493
-0.626561 2.388634 -0.309509
-0.622314 2.389619 -0.309786
-0.618065 2.390597 -0.310062
-0.614275 2.393441 -0.310863
-0.610704 2.397217 -0.311926
-0.605762 2.395363 -0.311404
-0.602627 2.401003 -0.312992
-0.597242 2.397257 -0.311937
-0.593865 2.401947 -0.313258
-0.588935 2.400060 -0.312727
-0.585321 2.403801 -0.313780
-0.583428 2.415054 -0.316949
-0.578489 2.413146 -0.316411
-0.576754 2.425336 -0.319844
-0.569059 2.411184 -0.315859
-0.567077 2.422426 -0.319025
-0.563393 2.426136 -0.320069
-0.560315 2.432666 -0.321908
-0.555580 2.431655 -0.321623
-0.550038 2.426866 -0.320275
-0.545923 2.428666 -0.320782
-0.542002 2.431402 -0.321552
-0.539061 2.438850 -0.323649
-0.535115 2.441576 -0.324417
-0.530773 2.442407 -0.324651
-0.527006 2.446065 -0.325681
-0.523037 2.448773 -0.326444
-0.518681 2.449584 -0.326672
-0.513574 2.446606 -0.325833
-0.509965 2.451185 -0.327123
-0.505420 2.451027 -0.327078
-0.501243 2.452755 -0.327565
-0.497060 2.454477 -0.328050
-0.492694 2.455244 -0.328266
-0.487795 2.453162 -0.327680
-0.484133 2.457705 -0.328959
-0.481497 2.467930 -0.331838
-0.478139 2.474361 -0.333649
-0.473736 2.475097 -0.333856
-0.466974 2.462542 -0.330321
-0.461926 2.459463 -0.329454
-0.457386 2.459222 -0.329386
-0.454808 2.470369 -0.332525
-0.451544 2.477715 -0.334593
-0.449055 2.489808 -0.337999
-0.443992 2.486693 -0.337121
-0.439098 2.484519 -0.336509
-0.433904 2.480434 -0.335359
-0.428879 2.477291 -0.334474
-0.426135 2.488410 -0.337605
-0.421708 2.489059 -0.337788
-0.417722 2.492555 -0.338772
-0.413433 2.494142 -0.339219
-0.409429 2.497626 -0.340200
-0.405127 2.499199 -0.340643
-0.400821 2.500765 -0.341084
-0.396371 2.501371 -0.341255
-0.392057 2.502923 -0.341692
-0.387332 2.501606 -0.341321
-0.383148 2.504097 -0.342022
-0.379089 2.507536 -0.342991
-0.375280 2.512877 -0.344495
-0.370808 2.513440 -0.344653
-0.366716 2.516859 -0.345616
-0.362488 2.519318 -0.346308
-0.358128 2.520814 -0.346730
-0.353764 2.522304 -0.347149
-0.349395 2.523786 -0.347567
-0.345140 2.526217 -0.348251
-0.340761 2.527685 -0.348665
-0.336607 2.531059 -0.349614
-0.332555 2.535382 -0.350832
-0.328265 2.537786 -0.351509
-0.324297 2.543054 -0.352992
-0.320418 2.549273 -0.354743
-0.315881 2.549743 -0.354876
-0.310819 2.545420 -0.353658
-0.306391 2.546832 -0.354056
-0.301858 2.547279 -0.354182
-0.297920 2.553465 -0.355924
-0.293277 2.552940 -0.355776
-0.289020 2.556240 -0.356705
-0.284752 2.559532 -0.357632
-0.280196 2.559943 -0.357748
-0.276092 2.565139 -0.359211
-0.271525 2.565536 -0.359323
-0.998441 2.213512 -0.264281
-0.995291 2.216892 -0.265240
-0.989019 2.213179 -0.264187
-0.985863 2.216547 -0.265142
-0.981926 2.218135 -0.265592
-0.978755 2.221493 -0.266544
-0.973661 2.220402 -0.266235
-0.970098 2.222860 -0.266931
-0.965770 2.223531 -0.267122
-0.962199 2.225977 -0.267815
-0.958245 2.227525 -0.268254
-0.957285 2.236204 -0.270714
-0.953312 2.237744 -0.271151
-0.949337 2.239278 -0.271585
-0.944619 2.239017 -0.271511
-0.940273 2.239641 -0.271688
-0.935195 2.238467 -0.271356
-0.931218 2.239971 -0.271782
-0.924333 2.234296 -0.270173
-0.921810 2.239369 -0.271611
-0.915312 2.234567 -0.270250
-0.913851 2.242324 -0.272449
-0.909511 2.242893 -0.272610
-0.906592 2.247051 -0.273789
-0.902246 2.247606 -0.273946
-0.899308 2.251755 -0.275122
-0.896008 2.255001 -0.276042
-0.891653 2.255536 -0.276194
-0.887645 2.256966 -0.276600
-0.884326 2.260196 -0.277515
-0.881341 2.264324 -0.278685
-0.877317 2.265737 -0.279086
-0.873632 2.268047 -0.279741
-0.869263 2.268542 -0.279881
-0.866917 2.274463 -0.281559
-0.862540 2.274945 -0.281696
-0.858497 2.276326 -0.282088
-0.853456 2.274978 -0.281705
-0.849413 2.276344 -0.282093
-0.846025 2.279521 -0.282993
-0.842302 2.281783 -0.283634
-0.839223 2.285859 -0.284790
-0.835809 2.289022 -0.285686
-0.831096 2.288536 -0.285549
-0.827670 2.291687 -0.286442
-0.823916 2.293922 -0.287075
-0.820473 2.297063 -0.287966
-0.816075 2.297460 -0.288078
-0.811363 2.296937 -0.287930
-0.807906 2.300060 -0.288815
-0.804749 2.304092 -0.289958
-0.800654 2.305376 -0.290322
-0.796864 2.307569 -0.290944
-0.792150 2.307008 -0.290785
-0.788354 2.309187 -0.291403
-0.784551 2.311361 -0.292019
-0.780743 2.313529 -0.292633
-0.776631 2.314772 -0.292986
-0.773111 2.317846 -0.293857
-0.770173 2.322754 -0.295248
-0.765456 2.322140 -0.295075
-0.761035 2.322438 -0.295159
-0.756616 2.322728 -0.295241
-0.750463 2.317484 -0.293755
-0.750079 2.330657 -0.297489
-0.747364 2.336459 -0.299134
-0.742642 2.335802 -0.298947
-0.741313 2.346211 -0.301898
-0.734053 2.337231 -0.299352
-0.730177 2.339320 -0.299944
-0.726018 2.340479 -0.300273
-0.722683 2.344405 -0.301386
-0.718241 2.344626 -0.301449
-0.713255 2.342988 -0.300984
-0.708007 2.340413 -0.300254
-0.706266 2.349874 -0.302936
-0.702087 2.350993 -0.303254
-0.702421 2.367873 -0.308039
-0.696363 2.362489 -0.306512
-0.691113 2.359878 -0.305772
-0.686917 2.360971 -0.306082
-0.683495 2.364845 -0.307180
-0.678775 2.364066 -0.306959
-0.673805 2.362348 -0.306472
-0.669604 2.363412 -0.306774
-0.665653 2.365400 -0.307337
-0.662197 2.369245 -0.308427
-0.658730 2.373085 -0.309516
-0.655004 2.375988 -0.310339
-0.651514 2.379819 -0.311425
-0.647281 2.380845 -0.311716
-0.642563 2.379998 -0.311476
-0.638570 2.381943 -0.312027
-0.635288 2.386686 -0.313371
-0.630806 2.386750 -0.313390
-0.626796 2.388677 -0.313936
-0.622080 2.387791 -0.313685
-0.618297 2.390640 -0.314492
-0.611744 2.382248 -0.312113
-0.610019 2.393512 -0.315306
-0.605308 2.392594 -0.315046
-0.601727 2.396356 -0.316112
-0.597242 2.396361 -0.316114
-0.594973 2.405740 -0.318773
-0.590474 2.405733 -0.318771
-0.589030 2.418863 -0.322493
-0.583861 2.416028 -0.321689
-0.581066 2.423518 -0.323812
-0.573345 2.409386 -0.319806
-0.569693 2.413103 -0.320860
-0.566239 2.417755 -0.322179
-0.564017 2.428049 -0.325097
-0.558872 2.425163 -0.324279
-0.554762 2.426975 -0.324792
-0.549835 2.425014 -0.324236
-0.546727 2.431524 -0.326082
-0.541803 2.429546 -0.325521
-0.538468 2.435104 -0.327097
-0.534332 2.436884 -0.327601
-0.529996 2.437714 -0.327836
-0.525658 2.438537 -0.328070
-0.522082 2.443130 -0.329371
-0.517735 2.443939 -0.329601
-0.513386 2.444741 -0.329828
-0.509222 2.446481 -0.330321
-0.505236 2.449159 -0.331081
-0.500878 2.449940 -0.331302
-0.496519 2.450714 -0.331521
-0.491979 2.450534 -0.331470
-0.488327 2.455080 -0.332759
-0.483782 2.454885 -0.332704
-0.480282 2.460367 -0.334258
-0.476935 2.466793 -0.336079
-0.473226 2.471318 -0.337362
-0.466300 2.457821 -0.333536
-0.461259 2.454742 -0.332663
-0.457551 2.459244 -0.333940
-0.453991 2.464691 -0.335484
-0.450251 2.469184 -0.336757
-0.446017 2.470822 -0.337222
-0.442885 2.479103 -0.339569
-0.438316 2.478829 -0.339491
-0.433285 2.475696 -0.338603
-0.428879 2.476356 -0.338790
-0.425833 2.485567 -0.341401
-0.421708 2.488118 -0.342124
-0.416688 2.484952 -0.341227
-0.412849 2.489391 -0.342485
-0.409717 2.498585 -0.345092
-0.405270 2.499206 -0.345268
-0.400962 2.500771 -0.345711
-0.396649 2.502329 -0.346153
-0.392470 2.504834 -0.346863
-0.388146 2.506379 -0.347301
-0.383952 2.508870 -0.348007
-0.379221 2.507540 -0.347630
-0.375019 2.510016 -0.348332
-0.370550 2.510579 -0.348491
-0.366335 2.513042 -0.349190
-0.361861 2.513589 -0.349345
-0.358004 2.518903 -0.350851
-0.353764 2.521347 -0.351544
-0.349275 2.521873 -0.351693
-0.344903 2.523347 -0.352111
-0.340644 2.525770 -0.352798
-0.336377 2.528186 -0.353482
-0.332328 2.532506 -0.354707
-0.328042 2.534909 -0.355388
-0.323858 2.538261 -0.356339
-0.319338 2.538737 -0.356474
-0.315349 2.543989 -0.357962
-0.311028 2.546365 -0.358636
-0.307111 2.552562 -0.360392
-0.302363 2.551095 -0.359977
-0.298019 2.553450 -0.360644
-0.293667 2.555798 -0.361310
-0.289116 2.556223 -0.361430
-0.284564 2.556641 -0.361549
-0.280288 2.559925 -0.362480
-0.276273 2.566077 -0.364224
-0.272059 2.570306 -0.365422
-0.267045 2.565904 -0.364174
-0.998441 2.213328 -0.265157
-0.995291 2.216708 -0.266116
-0.989797 2.214768 -0.265565
-0.985476 2.215475 -0.265766
-0.981540 2.217063 -0.266217
-0.978755 2.221308 -0.267422
-0.975192 2.223773 -0.268122
-0.971241 2.225343 -0.268568
-0.964252 2.219787 -0.266990
-0.964466 2.231136 -0.270212
-0.955987 2.221992 -0.267616
-0.952789 2.225314 -0.268559
-0.949955 2.229524 -0.269755
-0.946737 2.232839 -0.270696
-0.944619 2.238830 -0.272397
-0.939169 2.236771 -0.271812
-0.936661 2.241861 -0.273257
-0.933408 2.245158 -0.274193
-0.926513 2.239488 -0.272583
-0.924703 2.246358 -0.274534
-0.919272 2.244253 -0.273936
-0.916718 2.249321 -0.275375
-0.909511 2.242706 -0.273497
-0.901975 2.235173 -0.271358
-0.898711 2.238419 -0.272280
-0.896142 2.243463 -0.273712
-0.894957 2.252109 -0.276167
-0.892002 2.256250 -0.277342
-0.889380 2.261289 -0.278773
-0.885362 2.262715 -0.279178
-0.881685 2.265038 -0.279837
-0.877317 2.265547 -0.279982
-0.874653 2.270571 -0.281408
-0.870957 2.272877 -0.282063
-0.866917 2.274273 -0.282459
-0.862540 2.274755 -0.282596
-0.858497 2.276136 -0.282988
-0.854120 2.276603 -0.283120
-0.851065 2.280693 -0.284282
-0.847341 2.282963 -0.284926
-0.842956 2.283410 -0.285053
-0.837921 2.282029 -0.284661
-0.834513 2.285189 -0.285558
-0.831096 2.288344 -0.286454
-0.827990 2.292406 -0.287607
-0.825192 2.297376 -0.289018
-0.821108 2.298694 -0.289392
-0.817022 2.300005 -0.289764
-0.811677 2.297657 -0.289097
-0.808218 2.300780 -0.289984
-0.804749 2.303898 -0.290869
-0.802199 2.309757 -0.292533
-0.797478 2.309206 -0.292376
-0.793985 2.312309 -0.293257
-0.789570 2.312659 -0.293356
-0.786063 2.315751 -0.294234
-0.781345 2.315169 -0.294069
-0.777528 2.317331 -0.294683
-0.774003 2.320406 -0.295556
-0.769877 2.321639 -0.295906
-0.766338 2.324703 -0.296776
-0.761912 2.325002 -0.296861
-0.757779 2.326214 -0.297205
-0.750752 2.318210 -0.294933
-0.748355 2.324932 -0.296841
-0.743936 2.325199 -0.296917
-0.738950 2.323614 -0.296467
-0.735383 2.326633 -0.297324
-0.730124 2.324107 -0.296607
-0.729061 2.335427 -0.299821
-0.724631 2.335660 -0.299887
-0.723786 2.347906 -0.303363
-0.719885 2.349979 -0.303952
-0.715978 2.352046 -0.304538
-0.710442 2.348550 -0.303546
-0.706266 2.349675 -0.303866
-0.701553 2.348940 -0.303657
-0.700031 2.359325 -0.306605
-0.695044 2.357650 -0.306129
-0.691375 2.360606 -0.306969
-0.687698 2.363557 -0.307806
-0.683495 2.364644 -0.308115
-0.678518 2.362936 -0.307630
-0.674315 2.364007 -0.307934
-0.671126 2.368794 -0.309293
-0.667921 2.373577 -0.310651
-0.663199 2.372769 -0.310422
-0.658979 2.373815 -0.310719
-0.654510 2.373922 -0.310749
-0.650533 2.375886 -0.311307
-0.646550 2.377844 -0.311862
-0.642079 2.377928 -0.311887
-0.637849 2.378939 -0.312173
-0.633857 2.380877 -0.312724
-0.630095 2.383743 -0.313537
-0.626561 2.387539 -0.314615
-0.622547 2.389459 -0.315160
-0.618065 2.389501 -0.315172
-0.612894 2.386727 -0.314384
-0.610247 2.394244 -0.316519
-0.606441 2.397075 -0.317322
-0.604427 2.407399 -0.320253
-0.599921 2.407409 -0.320256
-0.595859 2.409287 -0.320789
-0.590693 2.406466 -0.319988
-0.586630 2.408329 -0.320517
-0.581263 2.404551 -0.319445
-0.578489 2.412036 -0.321570
-0.575689 2.419520 -0.323694
-0.573074 2.427941 -0.326085
-0.570641 2.437301 -0.328742
-0.562561 2.421254 -0.324187
-0.558459 2.423073 -0.324703
-0.554148 2.423943 -0.324950
-0.551255 2.431400 -0.327067
-0.546325 2.429431 -0.326508
-0.541803 2.429338 -0.326482
-0.537480 2.430181 -0.326721
-0.533352 2.431959 -0.327226
-0.529413 2.434674 -0.327997
-0.525466 2.437384 -0.328766
-0.521892 2.441976 -0.330069
-0.517924 2.444674 -0.330835
-0.513949 2.447366 -0.331600
-0.509593 2.448161 -0.331825
-0.505420 2.449895 -0.332318
-0.501060 2.450676 -0.332539
-0.497060 2.453342 -0.333296
-0.493052 2.456002 -0.334052
-0.489035 2.458656 -0.334805
-0.484308 2.457516 -0.334481
-0.481671 2.467735 -0.337382
-0.476935 2.466581 -0.337055
-0.473396 2.472054 -0.338609
-0.470175 2.479419 -0.340699
-0.464428 2.472553 -0.338750
-0.460852 2.478009 -0.340299
-0.455624 2.473970 -0.339153
-0.451867 2.478465 -0.340429
-0.448735 2.486753 -0.342782
-0.445257 2.493138 -0.344594
-0.439098 2.483366 -0.341820
-0.434368 2.482135 -0.341471
-0.429797 2.481847 -0.341389
-0.425530 2.483452 -0.341844
-0.420960 2.483147 -0.341758
-0.416540 2.483787 -0.341940
-0.413287 2.492032 -0.344280
-0.409140 2.494562 -0.344999
-0.404842 2.496134 -0.345445
-0.400680 2.498650 -0.346159
-0.396649 2.502113 -0.347142
-0.392195 2.502712 -0.347312
-0.388146 2.506162 -0.348292
-0.383684 2.506746 -0.348458
-0.379618 2.510183 -0.349434
-0.375410 2.512661 -0.350137
-0.370937 2.513223 -0.350297
-0.366589 2.514733 -0.350725
-0.362613 2.519098 -0.351964
-0.358128 2.519640 -0.352118
-0.354007 2.523038 -0.353083
-0.349275 2.521655 -0.352690
-0.345022 2.524084 -0.353380
-0.340761 2.526506 -0.354068
-0.336837 2.531789 -0.355567
-0.333008 2.538022 -0.357337
-0.328377 2.537557 -0.357205
-0.323748 2.537085 -0.357071
-0.319122 2.536605 -0.356934
-0.315030 2.540899 -0.358154
-0.311342 2.549014 -0.360457
-0.306597 2.547555 -0.360043
-0.302262 2.549917 -0.360714
-0.298317 2.556100 -0.362469
-0.293960 2.558448 -0.363136
-0.289787 2.562704 -0.364344
-0.285411 2.565038 -0.365007
-0.280565 2.562576 -0.364308
-0.276092 2.563938 -0.364694
-0.271614 2.565292 -0.365079
-0.267394 2.569514 -0.366277
-0.262647 2.567978 -0.365841
-0.256483 2.550138 -0.360776
-0.998834 2.213793 -0.267399
-0.996073 2.218059 -0.268614
-0.990186 2.215234 -0.267809
-0.984701 2.213283 -0.267253
-0.980383 2.213981 -0.267452
-0.976834 2.216448 -0.268155
-0.973661 2.219797 -0.269109
-0.969336 2.220475 -0.269302
-0.966529 2.224705 -0.270507
-0.962199 2.225369 -0.270696
-0.957492 2.225135 -0.270630
-0.949793 2.217758 -0.268528
-0.947344 2.222855 -0.269980
-0.947480 2.234200 -0.273212
-0.944989 2.239298 -0.274664
-0.941378 2.241711 -0.275352
-0.937394 2.243224 -0.275783
-0.933773 2.245626 -0.276467
-0.929419 2.246230 -0.276639
-0.925427 2.247723 -0.277064
-0.920352 2.246518 -0.276721
-0.916001 2.247097 -0.276886
-0.911295 2.246771 -0.276793
-0.906947 2.247335 -0.276953
-0.905781 2.255987 -0.279418
-0.901419 2.256540 -0.279576
-0.898810 2.261589 -0.281014
-0.893047 2.258524 -0.280141
-0.887992 2.257250 -0.279778
-0.884326 2.259576 -0.280441
-0.882028 2.265509 -0.282131
-0.878686 2.268729 -0.283048
-0.875334 2.271946 -0.283965
-0.870957 2.272443 -0.284106
-0.866580 2.272932 -0.284246
-0.862205 2.273414 -0.284383
-0.859165 2.277514 -0.285551
-0.856113 2.281610 -0.286718
-0.853049 2.285703 -0.287884
-0.848656 2.286159 -0.288014
-0.845247 2.289334 -0.288918
-0.840526 2.288867 -0.288785
-0.838076 2.294760 -0.290464
-0.832063 2.290637 -0.289289
-0.828311 2.292877 -0.289927
-0.824235 2.294201 -0.290304
-0.820473 2.296429 -0.290939
-0.817338 2.300477 -0.292092
-0.813247 2.301781 -0.292464
-0.809155 2.303080 -0.292834
-0.805681 2.306199 -0.293722
-0.802199 2.309313 -0.294609
-0.798708 2.312423 -0.295495
-0.794290 2.312781 -0.295597
-0.790178 2.314047 -0.295958
-0.785761 2.314389 -0.296055
-0.781345 2.314723 -0.296151
-0.777528 2.316885 -0.296766
-0.773111 2.317205 -0.296857
-0.771060 2.324867 -0.299040
-0.766926 2.326094 -0.299390
-0.762789 2.327314 -0.299737
-0.758360 2.327607 -0.299821
-0.755955 2.334337 -0.301738
-0.750079 2.330011 -0.300506
-0.745079 2.328438 -0.300057
-0.738950 2.323166 -0.298556
-0.733972 2.321572 -0.298101
-0.731247 2.327352 -0.299748
-0.728224 2.332206 -0.301131
-0.725740 2.338906 -0.303039
-0.722408 2.342830 -0.304157
-0.719611 2.348600 -0.305801
-0.714616 2.346964 -0.305335
-0.709360 2.344393 -0.304603
-0.707610 2.353853 -0.307298
-0.703958 2.356827 -0.308145
-0.699500 2.357014 -0.308198
-0.691350 2.344206 -0.304549
-0.689016 2.351796 -0.306712
-0.685875 2.356600 -0.308080
-0.682459 2.360471 -0.309183
-0.678775 2.363408 -0.310019
-0.675337 2.367269 -0.311119
-0.670619 2.366475 -0.310893
-0.667417 2.371256 -0.312255
-0.663449 2.373240 -0.312820
-0.659227 2.374286 -0.313118
-0.654757 2.374393 -0.313149
-0.650287 2.374493 -0.313177
-0.646550 2.377383 -0.314000
-0.643772 2.384000 -0.315885
-0.639051 2.383146 -0.315642
-0.634811 2.384151 -0.315928
-0.630095 2.383281 -0.315680
-0.626326 2.386141 -0.316495
-0.622314 2.388059 -0.317042
-0.618297 2.389972 -0.317587
-0.612664 2.385327 -0.316263
-0.608420 2.386288 -0.316537
-0.603722 2.385369 -0.316275
-0.603302 2.402245 -0.321083
-0.598358 2.400378 -0.320551
-0.595416 2.406942 -0.322421
-0.590034 2.403183 -0.321350
-0.591429 2.428509 -0.328565
-0.582995 2.411594 -0.323746
-0.580851 2.421899 -0.326682
-0.575263 2.417168 -0.325334
-0.571384 2.419947 -0.326126
-0.566239 2.417077 -0.325308
-0.562977 2.422664 -0.326900
-0.560934 2.433893 -0.330098
-0.555989 2.431943 -0.329543
-0.551457 2.431867 -0.329521
-0.545722 2.426131 -0.327887
-0.541603 2.427922 -0.328397
-0.537678 2.430649 -0.329174
-0.533352 2.431484 -0.329412
-0.530773 2.440802 -0.332067
-0.524888 2.434076 -0.330151
-0.521892 2.441498 -0.332265
-0.517168 2.440418 -0.331957
-0.513761 2.445942 -0.333531
-0.509408 2.446737 -0.333757
-0.505236 2.448470 -0.334251
-0.501425 2.452087 -0.335282
-0.497241 2.453807 -0.335772
-0.493052 2.455521 -0.336260
-0.488858 2.457228 -0.336746
-0.485010 2.460821 -0.337770
-0.480977 2.463462 -0.338522
-0.476591 2.464202 -0.338733
-0.473907 2.474412 -0.341641
-0.467648 2.464712 -0.338878
-0.463427 2.466378 -0.339352
-0.459367 2.468985 -0.340095
-0.456441 2.478228 -0.342728
-0.452029 2.478927 -0.342927
-0.448895 2.487213 -0.345288
-0.442885 2.478403 -0.342778
-0.439724 2.486678 -0.345135
-0.432666 2.471196 -0.340725
-0.427655 2.468053 -0.339830
-0.422808 2.465851 -0.339202
-0.420661 2.480757 -0.343449
-0.417870 2.491859 -0.346611
-0.412995 2.489638 -0.345979
-0.408274 2.488361 -0.345615
-0.403986 2.489931 -0.346062
-0.400398 2.496254 -0.347863
-0.396510 2.500668 -0.349121
-0.392332 2.503171 -0.349834
-0.388011 2.504715 -0.350274
-0.383684 2.506252 -0.350711
-0.379751 2.510642 -0.351962
-0.375671 2.514072 -0.352939
-0.371065 2.513681 -0.352828
-0.366716 2.515190 -0.353258
-0.362237 2.515738 -0.353414
-0.358251 2.520097 -0.354655
-0.354495 2.526358 -0.356439
-0.350116 2.527840 -0.356861
-0.345614 2.528360 -0.357009
-0.341111 2.528873 -0.357155
-0.336952 2.532244 -0.358116
-0.332668 2.534653 -0.358802
-0.328377 2.537055 -0.359486
-0.323748 2.536583 -0.359352
-0.319554 2.539927 -0.360305
-0.315243 2.542308 -0.360983
-0.311133 2.546596 -0.362204
-0.306597 2.547050 -0.362334
-0.302464 2.551325 -0.363551
-0.298118 2.553679 -0.364222
-0.293765 2.556026 -0.364891
-0.289116 2.555494 -0.364739
-0.285034 2.560699 -0.366222
-0.280473 2.561110 -0.366339
-0.276182 2.564387 -0.367272
-0.271525 2.563825 -0.367112
-0.267220 2.567087 -0.368042
-0.262647 2.567468 -0.368150
-0.998834 2.212991 -0.271184
-0.994901 2.214599 -0.271646
-0.988241 2.210003 -0.270328
-0.984313 2.211594 -0.270784
-0.980383 2.213178 -0.271238
-0.977218 2.216531 -0.272200
-0.972896 2.217215 -0.272396
-0.968574 2.217892 -0.272590
-0.963873 2.217671 -0.272526
-0.957287 2.212991 -0.271185
-0.953730 2.215420 -0.271881
-0.953913 2.226758 -0.275132
-0.950701 2.230075 -0.276083
-0.946737 2.231603 -0.276521
-0.943140 2.234017 -0.277213
-0.941010 2.240001 -0.278929
-0.939227 2.246879 -0.280901
-0.935232 2.248388 -0.281334
-0.927602 2.240934 -0.279196
-0.923257 2.241527 -0.279366
-0.919632 2.243905 -0.280048
-0.918152 2.251663 -0.282273
-0.913078 2.250443 -0.281923
-0.909077 2.251907 -0.282343
-0.904367 2.251567 -0.282245
-0.899308 2.250318 -0.281887
-0.896008 2.253560 -0.282817
-0.892002 2.254996 -0.283228
-0.889380 2.260032 -0.284672
-0.886052 2.263261 -0.285598
-0.883059 2.267389 -0.286782
-0.879370 2.269706 -0.287446
-0.876355 2.273826 -0.288627
-0.871973 2.274325 -0.288770
-0.867591 2.274816 -0.288911
-0.862540 2.273488 -0.288530
-0.861168 2.282117 -0.291004
-0.856445 2.281681 -0.290879
-0.851065 2.279422 -0.290232
-0.847999 2.283506 -0.291403
-0.849173 2.299395 -0.295958
-0.842804 2.294390 -0.294523
-0.836780 2.290280 -0.293345
-0.830129 2.284337 -0.291641
-0.826708 2.287484 -0.292543
-0.822640 2.288804 -0.292922
-0.819204 2.291940 -0.293821
-0.815444 2.294159 -0.294457
-0.812305 2.298198 -0.295615
-0.808843 2.301320 -0.296510
-0.804749 2.302609 -0.296880
-0.800963 2.304807 -0.297510
-0.797786 2.308828 -0.298663
-0.793985 2.311014 -0.299290
-0.790178 2.313195 -0.299915
-0.786970 2.317202 -0.301064
-0.781946 2.315705 -0.300635
-0.778126 2.317867 -0.301255
-0.773408 2.317270 -0.301083
-0.769582 2.319418 -0.301699
-0.763986 2.316048 -0.300733
-0.759573 2.316344 -0.300818
-0.756907 2.322150 -0.302483
-0.757400 2.338076 -0.307049
-0.750941 2.331914 -0.305282
-0.745650 2.329422 -0.304568
-0.743210 2.336136 -0.306493
-0.739054 2.337315 -0.306831
-0.732931 2.332030 -0.305315
-0.727387 2.328576 -0.304325
-0.723799 2.331577 -0.305185
-0.720478 2.335496 -0.306309
-0.716323 2.336637 -0.306637
-0.711349 2.334997 -0.306166
-0.710713 2.348154 -0.309938
-0.710031 2.361315 -0.313712
-0.702889 2.352249 -0.311113
-0.697641 2.349654 -0.310369
-0.692669 2.347976 -0.309888
-0.690589 2.356492 -0.312329
-0.686917 2.359439 -0.313174
-0.682977 2.361453 -0.313752
-0.679032 2.363461 -0.314327
-0.674826 2.364532 -0.314635
-0.671887 2.370246 -0.316273
-0.667921 2.372237 -0.316844
-0.663700 2.373290 -0.317146
-0.659476 2.374336 -0.317446
-0.655004 2.374444 -0.317476
-0.651023 2.376407 -0.318039
-0.646794 2.377432 -0.318333
-0.643047 2.380315 -0.319160
-0.639051 2.382260 -0.319718
-0.635288 2.385132 -0.320541
-0.631280 2.387065 -0.321095
-0.627736 2.390859 -0.322183
-0.623714 2.392780 -0.322734
-0.619456 2.393759 -0.323014
-0.614275 2.390989 -0.322220
-0.609791 2.391016 -0.322228
-0.607121 2.398526 -0.324381
-0.606001 2.412590 -0.328414
-0.601707 2.413539 -0.328686
-0.597853 2.416356 -0.329494
-0.590254 2.403226 -0.325729
-0.585540 2.402272 -0.325455
-0.578666 2.391925 -0.322489
-0.574409 2.392829 -0.322748
-0.569937 2.392786 -0.322736
-0.566946 2.399312 -0.324607
-0.569383 2.430274 -0.333484
-0.563809 2.425520 -0.332121
-0.561552 2.435805 -0.335070
-0.556398 2.432915 -0.334241
-0.551660 2.431899 -0.333950
-0.546526 2.428991 -0.333116
-0.542401 2.430782 -0.333630
-0.538073 2.431625 -0.333871
-0.533940 2.433403 -0.334381
-0.529607 2.434231 -0.334619
-0.525851 2.437882 -0.335665
-0.521510 2.438697 -0.335899
-0.517546 2.441392 -0.336672
-0.513386 2.443137 -0.337172
-0.509222 2.444876 -0.337671
-0.505236 2.447552 -0.338438
-0.501243 2.450223 -0.339204
-0.496880 2.450997 -0.339426
-0.493230 2.455546 -0.340730
-0.489212 2.458198 -0.341491
-0.485536 2.462737 -0.342792
-0.480629 2.460644 -0.342192
-0.476247 2.461383 -0.342404
-0.472545 2.465904 -0.343700
-0.466637 2.458101 -0.341463
-0.463094 2.463556 -0.343027
-0.457386 2.456681 -0.341055
-0.453828 2.462122 -0.342616
-0.449443 2.462816 -0.342815
-0.445377 2.465401 -0.343556
-0.440829 2.465131 -0.343478
-0.437534 2.472450 -0.345577
-0.433130 2.473116 -0.345768
-0.428420 2.471876 -0.345412
-0.424623 2.476328 -0.346689
-0.422455 2.491230 -0.350961
-0.419940 2.504230 -0.354689
-0.414894 2.501063 -0.353781
-0.409862 2.497887 -0.352870
-0.405127 2.496604 -0.352502
-0.401102 2.500071 -0.353496
-0.396927 2.502581 -0.354216
-0.393019 2.506988 -0.355480
-0.388418 2.506628 -0.355376
-0.383952 2.507212 -0.355544
-0.379354 2.506835 -0.355436
-0.375019 2.508357 -0.355872
-0.370808 2.510826 -0.356580
-0.366970 2.516148 -0.358106
-0.362864 2.519557 -0.359083
-0.358869 2.523914 -0.360333
-0.354982 2.529219 -0.361854
-0.350596 2.530701 -0.362279
-0.346087 2.531222 -0.362428
-0.341344 2.529825 -0.362028
-0.336492 2.527466 -0.361351
-0.331989 2.527963 -0.361494
-0.327931 2.532274 -0.362730
-0.324187 2.539444 -0.364785
-0.320094 2.543743 -0.366018
-0.315456 2.543257 -0.365879
-0.311237 2.546587 -0.366833
-0.306905 2.548954 -0.367512
-0.302565 2.551314 -0.368189
-0.298118 2.552710 -0.368589
-0.293374 2.551230 -0.368165
-0.289212 2.555481 -0.369384
-0.284846 2.557813 -0.370052
-0.280473 2.560138 -0.370719
-0.276092 2.562455 -0.371383
-0.271525 2.562851 -0.371497
-0.267307 2.567070 -0.372706
-0.261792 2.556915 -0.369795
-0.998834 2.212991 -0.271184
-0.995682 2.216369 -0.272153
-0.990965 2.216201 -0.272105
-0.985476 2.214252 -0.271546
-0.982312 2.217613 -0.272510
-0.978371 2.219193 -0.272963
-0.975574 2.223432 -0.274178
-0.971241 2.224113 -0.274373
-0.967668 2.226565 -0.275076
-0.963710 2.228121 -0.275523
-0.964640 2.241249 -0.279287
-0.960281 2.241909 -0.279476
-0.954431 2.238994 -0.278640
-0.950079 2.239635 -0.278824
-0.944989 2.238483 -0.278494
-0.936592 2.229276 -0.275854
-0.932630 2.230780 -0.276285
-0.929029 2.233173 -0.276971
-0.928692 2.243621 -0.279967
-0.924703 2.245112 -0.280394
-0.919992 2.244802 -0.280305
-0.918510 2.252561 -0.282530
-0.913792 2.252238 -0.282438
-0.908722 2.251009 -0.282085
-0.900125 2.240776 -0.279151
-0.897197 2.244919 -0.280339
-0.893206 2.246357 -0.280751
-0.892699 2.256798 -0.283745
-0.888686 2.258229 -0.284155
-0.883981 2.257848 -0.284046
-0.879966 2.259264 -0.284452
-0.875607 2.259770 -0.284597
-0.871249 2.260268 -0.284740
-0.870279 2.269803 -0.287474
-0.870625 2.282961 -0.291246
-0.865894 2.282543 -0.291127
-0.857496 2.272149 -0.288146
-0.850134 2.264454 -0.285940
-0.847099 2.268534 -0.287110
-0.847341 2.281690 -0.290882
-0.848192 2.296670 -0.295177
-0.843130 2.295299 -0.294784
-0.835485 2.286642 -0.292302
-0.829807 2.283427 -0.291380
-0.827670 2.290215 -0.293326
-0.823597 2.291537 -0.293705
-0.820473 2.295586 -0.294866
-0.816391 2.296896 -0.295242
-0.813247 2.300936 -0.296400
-0.808843 2.301320 -0.296510
-0.804439 2.301696 -0.296618
-0.800963 2.304807 -0.297510
-0.797171 2.306998 -0.298138
-0.794290 2.311929 -0.299552
-0.788962 2.309532 -0.298865
-0.784854 2.310788 -0.299225
-0.781345 2.313871 -0.300109
-0.778425 2.318784 -0.301518
-0.774300 2.320023 -0.301873
-0.769582 2.319418 -0.301699
-0.764574 2.317886 -0.301260
-0.760158 2.318182 -0.301345
-0.758651 2.327668 -0.304065
-0.757400 2.338076 -0.307049
-0.752666 2.337438 -0.306866
-0.746507 2.332185 -0.305360
-0.738950 2.322310 -0.302529
-0.737360 2.331782 -0.305244
-0.733211 2.332952 -0.305580
-0.729898 2.336884 -0.306707
-0.726295 2.339889 -0.307569
-0.726267 2.354900 -0.311873
-0.720980 2.352354 -0.311143
-0.715978 2.350721 -0.310675
-0.709630 2.344452 -0.308877
-0.707610 2.352982 -0.311323
-0.702087 2.349470 -0.310316
-0.698969 2.354288 -0.311697
-0.695836 2.359102 -0.313078
-0.691900 2.361130 -0.313659
-0.687438 2.361296 -0.313707
-0.681942 2.357739 -0.312687
-0.678261 2.360674 -0.313528
-0.674571 2.363603 -0.314368
-0.671126 2.367457 -0.315473
-0.667165 2.369446 -0.316043
-0.663199 2.371429 -0.316612
-0.658979 2.372474 -0.316912
-0.654510 2.372581 -0.316942
-0.650778 2.375475 -0.317772
-0.647038 2.378365 -0.318601
-0.643772 2.383114 -0.319962
-0.639771 2.385060 -0.320520
-0.635526 2.386066 -0.320809
-0.631043 2.386131 -0.320827
-0.627266 2.388991 -0.321647
-0.622781 2.389041 -0.321662
-0.619687 2.394694 -0.323283
-0.611744 2.380698 -0.319270
-0.613216 2.405054 -0.326253
-0.605082 2.390100 -0.321965
-0.605327 2.409780 -0.327608
-0.597465 2.395736 -0.323581
-0.595416 2.406045 -0.326537
-0.592012 2.410728 -0.327880
-0.587939 2.412592 -0.328414
-0.586242 2.424773 -0.331907
-0.580421 2.419117 -0.330285
-0.572493 2.404057 -0.325967
-0.571384 2.419043 -0.330264
-0.569593 2.431213 -0.333753
-0.563809 2.425520 -0.332121
-0.560521 2.431101 -0.333721
-0.555784 2.430093 -0.333432
-0.551457 2.430958 -0.333680
-0.546526 2.428991 -0.333116
-0.542600 2.431724 -0.333900
-0.538073 2.431625 -0.333871
-0.534332 2.435288 -0.334922
-0.530190 2.437060 -0.335430
-0.526236 2.439769 -0.336206
-0.522273 2.442472 -0.336981
-0.518113 2.444224 -0.337484
-0.513761 2.445026 -0.337714
-0.509408 2.445821 -0.337942
-0.505604 2.449442 -0.338980
-0.501607 2.452113 -0.339746
-0.497241 2.452888 -0.339968
-0.492336 2.450817 -0.339374
-0.487618 2.449684 -0.339049
-0.483081 2.449488 -0.338993
-0.478719 2.450231 -0.339206
-0.473840 2.448126 -0.338603
-0.472545 2.465904 -0.343700
-0.468827 2.470419 -0.344995
-0.464428 2.471138 -0.345201
-0.459697 2.469954 -0.344861
-0.455135 2.469709 -0.344791
-0.451221 2.473251 -0.345807
-0.447136 2.475839 -0.346548
-0.443043 2.478420 -0.347289
-0.440349 2.489539 -0.350477
-0.436379 2.493060 -0.351486
-0.431786 2.492774 -0.351404
-0.425682 2.482979 -0.348596
-0.420511 2.478874 -0.347419
-0.419053 2.498526 -0.353053
-0.415040 2.502014 -0.354054
-0.410295 2.500741 -0.353688
-0.404984 2.495653 -0.352230
-0.400680 2.497216 -0.352678
-0.396649 2.500677 -0.353670
-0.392470 2.503179 -0.354388
-0.387875 2.502818 -0.354284
-0.383550 2.504354 -0.354724
-0.379354 2.506835 -0.355436
-0.375149 2.509310 -0.356146
-0.370937 2.511779 -0.356853
-0.366462 2.512334 -0.357012
-0.362112 2.513835 -0.357443
-0.358004 2.517236 -0.358418
-0.353642 2.518723 -0.358844
-0.349154 2.519249 -0.358995
-0.345969 2.530267 -0.362154
-0.340994 2.526961 -0.361206
-0.336837 2.530331 -0.362172
-0.332328 2.530828 -0.362315
-0.328042 2.533229 -0.363003
-0.323858 2.536578 -0.363964
-0.319446 2.538009 -0.364374
-0.315243 2.541345 -0.365331
-0.310819 2.542763 -0.365737
-0.306391 2.544173 -0.366141
-0.302161 2.547488 -0.367092
-0.298714 2.558450 -0.370235
-0.294350 2.560796 -0.370908
-0.289499 2.558352 -0.370207
-0.285411 2.563555 -0.371699
-0.281212 2.567795 -0.372914
-0.276636 2.568199 -0.373030
-0.271792 2.565723 -0.372320
-0.267220 2.566112 -0.372432
-0.262817 2.568408 -0.373090
-0.998834 2.212358 -0.274145
-0.994901 2.213966 -0.274608
-0.989408 2.212027 -0.274050
-0.986251 2.215391 -0.275019
-0.982312 2.216978 -0.275476
-0.978371 2.218559 -0.275932
-0.973661 2.218357 -0.275873
-0.970098 2.220811 -0.276581
-0.965011 2.219704 -0.276262
-0.962576 2.224814 -0.277734
-0.960878 2.231703 -0.279719
-0.960281 2.241266 -0.282475
-0.956669 2.243701 -0.283177
-0.950079 2.238993 -0.281820
-0.946468 2.241412 -0.282517
-0.942850 2.243826 -0.283213
-0.938860 2.245340 -0.283649
-0.935597 2.248637 -0.284599
-0.931235 2.249243 -0.284774
-0.929043 2.255217 -0.286496
-0.925032 2.256708 -0.286925
-0.920660 2.257296 -0.287094
-0.913435 2.250693 -0.285192
-0.908722 2.250361 -0.285096
-0.904720 2.251818 -0.285516
-0.900364 2.252369 -0.285675
-0.895308 2.251112 -0.285313
-0.893396 2.257950 -0.287283
-0.890768 2.262986 -0.288734
-0.886743 2.264413 -0.289145
-0.879966 2.258614 -0.287474
-0.874923 2.257314 -0.287100
-0.870909 2.258714 -0.287503
-0.870957 2.270957 -0.291031
-0.866917 2.272350 -0.291433
-0.864217 2.277358 -0.292876
-0.856828 2.269683 -0.290664
-0.851795 2.268333 -0.290275
-0.847430 2.268788 -0.290406
-0.845039 2.274679 -0.292104
-0.843283 2.282385 -0.294325
-0.834340 2.270104 -0.290785
-0.836133 2.287800 -0.295885
-0.833996 2.294593 -0.297842
-0.829594 2.295014 -0.297964
-0.825511 2.296338 -0.298345
-0.821425 2.297656 -0.298725
-0.817338 2.298966 -0.299103
-0.813247 2.300270 -0.299478
-0.809155 2.301567 -0.299852
-0.805060 2.302856 -0.300224
-0.801890 2.306881 -0.301383
-0.798400 2.309987 -0.302279
-0.794596 2.312174 -0.302909
-0.790482 2.313439 -0.303273
-0.786970 2.316530 -0.304164
-0.782548 2.316866 -0.304261
-0.778425 2.318111 -0.304620
-0.774300 2.319350 -0.304976
-0.770173 2.320581 -0.305331
-0.765456 2.319968 -0.305155
-0.760743 2.319347 -0.304976
-0.757488 2.323314 -0.306119
-0.758267 2.340155 -0.310972
-0.755252 2.345041 -0.312380
-0.750507 2.344399 -0.312195
-0.743494 2.336377 -0.309883
-0.737360 2.331104 -0.308364
-0.732089 2.328584 -0.307638
-0.727945 2.329745 -0.307972
-0.724631 2.333668 -0.309103
-0.721581 2.338511 -0.310498
-0.719337 2.346123 -0.312692
-0.714072 2.343564 -0.311954
-0.709901 2.344694 -0.312280
-0.705459 2.344892 -0.312337
-0.701286 2.346008 -0.312659
-0.696579 2.345264 -0.312444
-0.693988 2.351926 -0.314364
-0.690851 2.356732 -0.315749
-0.687438 2.360606 -0.316865
-0.683236 2.361692 -0.317178
-0.679289 2.363699 -0.317757
-0.675337 2.365700 -0.318333
-0.671380 2.367695 -0.318908
-0.667165 2.368753 -0.319213
-0.663449 2.371665 -0.320052
-0.659725 2.374573 -0.320890
-0.655745 2.376543 -0.321458
-0.651759 2.378507 -0.322024
-0.647038 2.377669 -0.321782
-0.643047 2.379619 -0.322344
-0.639771 2.384361 -0.323711
-0.635526 2.385367 -0.324001
-0.631516 2.387299 -0.324557
-0.627501 2.389225 -0.325112
-0.623481 2.391144 -0.325665
-0.618992 2.391187 -0.325678
-0.614275 2.390288 -0.325419
-0.612074 2.399670 -0.328123
-0.606441 2.395014 -0.326781
-0.602402 2.396900 -0.327324
-0.597688 2.395970 -0.327056
-0.597188 2.412835 -0.331916
-0.592892 2.413769 -0.332185
-0.587939 2.411882 -0.331642
-0.583644 2.412801 -0.331906
-0.579348 2.413713 -0.332169
-0.574197 2.410861 -0.331347
-0.570116 2.412696 -0.331876
-0.565610 2.412646 -0.331862
-0.563393 2.422926 -0.334824
-0.560315 2.429445 -0.336703
-0.555989 2.430317 -0.336954
-0.551660 2.431182 -0.337203
-0.547129 2.431099 -0.337179
-0.542600 2.431007 -0.337153
-0.538271 2.431850 -0.337396
-0.534724 2.436455 -0.338723
-0.530384 2.437284 -0.338962
-0.526236 2.439049 -0.339470
-0.521510 2.437978 -0.339161
-0.517735 2.441616 -0.340210
-0.513761 2.444304 -0.340985
-0.509965 2.447931 -0.342030
-0.505788 2.449663 -0.342529
-0.501425 2.450444 -0.342754
-0.497060 2.451218 -0.342977
-0.493052 2.453875 -0.343743
-0.489035 2.456526 -0.344506
-0.484308 2.455387 -0.344178
-0.480629 2.459917 -0.345484
-0.478482 2.472961 -0.349243
-0.475268 2.480324 -0.351364
-0.468153 2.465899 -0.347208
-0.463594 2.465669 -0.347141
-0.459036 2.465432 -0.347073
-0.455461 2.470874 -0.348641
-0.450898 2.470623 -0.348569
-0.448575 2.483642 -0.352321
-0.441936 2.471044 -0.348690
-0.436751 2.466972 -0.347517
-0.432512 2.468586 -0.347982
-0.429797 2.479690 -0.351182
-0.426438 2.486992 -0.353286
-0.422156 2.488590 -0.353746
-0.418018 2.491131 -0.354479
-0.414164 2.495567 -0.355757
-0.410150 2.499047 -0.356760
-0.405127 2.495863 -0.355842
-0.400680 2.496475 -0.356019
-0.396649 2.499934 -0.357015
-0.392332 2.501484 -0.357462
-0.388011 2.503026 -0.357906
-0.384220 2.508371 -0.359447
-0.379751 2.508947 -0.359613
-0.375671 2.512375 -0.360600
-0.371194 2.512937 -0.360763
-0.367224 2.517305 -0.362021
-0.362613 2.516900 -0.361904
-0.358004 2.516487 -0.361785
-0.353276 2.515112 -0.361389
-0.348554 2.513730 -0.360991
-0.346442 2.533329 -0.366639
-0.341577 2.530980 -0.365962
-0.337411 2.534349 -0.366933
-0.332894 2.534847 -0.367076
-0.328934 2.540112 -0.368594
-0.324516 2.541552 -0.369008
-0.319878 2.541073 -0.368870
-0.315137 2.539631 -0.368455
-0.311133 2.544870 -0.369965
-0.306803 2.547236 -0.370646
-0.302869 2.553419 -0.372428
-0.298615 2.556728 -0.373382
-0.293862 2.555248 -0.372955
-0.289308 2.555674 -0.373078
-0.284846 2.557048 -0.373474
-0.281119 2.566069 -0.376074
-0.276908 2.570301 -0.377293
-0.272414 2.571655 -0.377683
-0.267045 2.563429 -0.375313
-0.262219 2.560937 -0.374595
-0.998049 2.210231 -0.275313
-0.993728 2.210953 -0.275522
-0.989797 2.212552 -0.275984
-0.984701 2.211488 -0.275677
-0.980383 2.212185 -0.275878
-0.978755 2.219084 -0.277872
-0.974809 2.220658 -0.278327
-0.971622 2.224002 -0.279293
-0.967668 2.225564 -0.279745
-0.966355 2.233345 -0.281993
-0.966145 2.243800 -0.285015
-0.959907 2.240008 -0.283919
-0.953312 2.235311 -0.282561
-0.948223 2.234166 -0.282231
-0.943510 2.233904 -0.282155
-0.941010 2.238992 -0.283625
-0.937761 2.242290 -0.284578
-0.930124 2.234851 -0.282429
-0.928692 2.242609 -0.284671
-0.926512 2.248578 -0.286395
-0.924312 2.254545 -0.288120
-0.918510 2.251544 -0.287253
-0.912722 2.248529 -0.286381
-0.908367 2.249094 -0.286545
-0.904367 2.250551 -0.286966
-0.901068 2.253798 -0.287904
-0.897059 2.255242 -0.288321
-0.892002 2.253978 -0.287956
-0.888686 2.257209 -0.288890
-0.884671 2.258631 -0.289301
-0.880654 2.260048 -0.289710
-0.876291 2.260555 -0.289857
-0.872951 2.263764 -0.290784
-0.871634 2.272391 -0.293277
-0.866580 2.271072 -0.292896
-0.862875 2.273363 -0.293558
-0.857162 2.270215 -0.292648
-0.851463 2.267054 -0.291735
-0.847760 2.269322 -0.292390
-0.844052 2.271583 -0.293044
-0.841320 2.276562 -0.294483
-0.837921 2.279723 -0.295396
-0.837428 2.291058 -0.298672
-0.832385 2.289667 -0.298270
-0.828632 2.291906 -0.298917
-0.825830 2.296870 -0.300351
-0.821743 2.298187 -0.300732
-0.817653 2.299498 -0.301111
-0.813247 2.299890 -0.301224
-0.808843 2.300274 -0.301335
-0.805371 2.303389 -0.302235
-0.802199 2.307413 -0.303398
-0.798093 2.308691 -0.303768
-0.794290 2.310877 -0.304399
-0.789266 2.309396 -0.303971
-0.785458 2.311568 -0.304599
-0.781345 2.312818 -0.304960
-0.778126 2.316811 -0.306114
-0.774895 2.320800 -0.307267
-0.772243 2.326621 -0.308949
-0.766926 2.324176 -0.308242
-0.763082 2.326313 -0.308860
-0.759814 2.330283 -0.310007
-0.756533 2.334249 -0.311154
-0.754102 2.340971 -0.313096
-0.750792 2.344930 -0.314240
-0.744630 2.339674 -0.312721
-0.738772 2.335326 -0.311465
-0.730966 2.324510 -0.308339
-0.729619 2.334894 -0.311340
-0.726018 2.337896 -0.312208
-0.722132 2.339970 -0.312807
-0.718789 2.343885 -0.313938
-0.714616 2.345023 -0.314267
-0.709089 2.341530 -0.313258
-0.705190 2.343577 -0.313849
-0.699950 2.340989 -0.313102
-0.695251 2.340243 -0.312886
-0.692669 2.346901 -0.314810
-0.690064 2.353558 -0.316734
-0.687177 2.359286 -0.318389
-0.682718 2.359443 -0.318434
-0.679289 2.363305 -0.319551
-0.675848 2.367163 -0.320666
-0.671634 2.368229 -0.320974
-0.666913 2.367429 -0.320742
-0.662949 2.369410 -0.321315
-0.658730 2.370455 -0.321617
-0.655498 2.375215 -0.322993
-0.650778 2.374384 -0.322752
-0.646550 2.375408 -0.323048
-0.642321 2.376425 -0.323342
-0.639531 2.383030 -0.325251
-0.635049 2.383102 -0.325272
-0.631753 2.387833 -0.326639
-0.627972 2.390693 -0.327465
-0.624181 2.393547 -0.328290
-0.619919 2.394526 -0.328573
-0.615425 2.394563 -0.328584
-0.611161 2.395528 -0.328863
-0.607575 2.399292 -0.329951
-0.602402 2.396499 -0.329144
-0.597018 2.392760 -0.328063
-0.593422 2.396504 -0.329145
-0.590474 2.403055 -0.331038
-0.589684 2.418979 -0.335640
-0.587757 2.430217 -0.338888
-0.581066 2.420814 -0.336170
-0.576328 2.419844 -0.335890
-0.571806 2.419804 -0.335878
-0.566868 2.417877 -0.335322
-0.562977 2.420640 -0.336120
-0.558047 2.418696 -0.335558
-0.553739 2.419565 -0.335809
-0.549632 2.421366 -0.336330
-0.546526 2.427867 -0.338209
-0.542999 2.432482 -0.339542
-0.538666 2.433325 -0.339786
-0.534724 2.436045 -0.340572
-0.530384 2.436874 -0.340811
-0.526428 2.439581 -0.341594
-0.522082 2.440397 -0.341829
-0.518113 2.443092 -0.342608
-0.514136 2.445780 -0.343385
-0.510150 2.448463 -0.344160
-0.505788 2.449251 -0.344388
-0.501425 2.450032 -0.344614
-0.497060 2.450805 -0.344837
-0.493230 2.454407 -0.345878
-0.489212 2.457057 -0.346644
-0.484484 2.455919 -0.346315
-0.480803 2.460448 -0.347624
-0.480030 2.481061 -0.353581
-0.476460 2.486531 -0.355162
-0.469333 2.472112 -0.350995
-0.464094 2.468095 -0.349834
-0.458541 2.462173 -0.348123
-0.456114 2.474248 -0.351612
-0.449282 2.460725 -0.347704
-0.447616 2.477532 -0.352561
-0.441145 2.465883 -0.349195
-0.437690 2.472249 -0.351035
-0.433285 2.472916 -0.351227
-0.428726 2.472625 -0.351143
-0.422051 2.459032 -0.347215
-0.420511 2.477720 -0.352616
-0.418018 2.490710 -0.356369
-0.416939 2.513202 -0.362870
-0.409717 2.495772 -0.357832
-0.405270 2.496391 -0.358011
-0.400680 2.496052 -0.357913
-0.396232 2.496656 -0.358088
-0.391645 2.496302 -0.357986
-0.388146 2.503554 -0.360081
-0.384488 2.509849 -0.361901
-0.380015 2.510427 -0.362067
-0.375019 2.507186 -0.361131
-0.370421 2.506795 -0.361018
-0.368241 2.524501 -0.366135
-0.363114 2.520285 -0.364917
-0.359487 2.527500 -0.367002
-0.354495 2.524221 -0.366054
-0.350356 2.527609 -0.367033
-0.345732 2.527175 -0.366908
-0.341344 2.528641 -0.367331
-0.336837 2.529146 -0.367477
-0.332328 2.529643 -0.367621
-0.328042 2.532043 -0.368314
-0.323968 2.536345 -0.369558
-0.319446 2.536820 -0.369695
-0.314924 2.537288 -0.369830
-0.311028 2.543481 -0.371620
-0.306905 2.547758 -0.372856
-0.302565 2.550117 -0.373538
-0.297820 2.548644 -0.373112
-0.293570 2.551945 -0.374066
-0.289595 2.558107 -0.375847
-0.285034 2.558525 -0.375968
-0.280750 2.561805 -0.376915
-0.276364 2.564122 -0.377585
-0.272059 2.567388 -0.378529
-0.267743 2.570648 -0.379471
-0.261536 2.552843 -0.374325
-0.997657 2.209058 -0.276399
-0.994510 2.212432 -0.277376
-0.990186 2.213147 -0.277583
-0.986251 2.214740 -0.278045
-0.981540 2.214554 -0.277991
-0.978371 2.217906 -0.278962
-0.974044 2.218592 -0.279161
-0.971622 2.223710 -0.280643
-0.970324 2.231493 -0.282897
-0.966355 2.233052 -0.283349
-0.962383 2.234606 -0.283799
-0.955786 2.229918 -0.282441
-0.954431 2.237691 -0.284693
-0.945252 2.226739 -0.281520
-0.940922 2.227364 -0.281701
-0.939537 2.235126 -0.283950
-0.936294 2.238421 -0.284904
-0.931948 2.239029 -0.285080
-0.927966 2.240525 -0.285513
-0.924342 2.242909 -0.286204
-0.921432 2.247080 -0.287412
-0.918152 2.250351 -0.288360
-0.914149 2.251823 -0.288786
-0.908367 2.248799 -0.287910
-0.904367 2.250255 -0.288332
-0.899660 2.249905 -0.288230
-0.895658 2.251346 -0.288648
-0.889213 2.246479 -0.287238
-0.885564 2.248804 -0.287911
-0.880182 2.246615 -0.287277
-0.881341 2.261554 -0.291605
-0.878344 2.265672 -0.292797
-0.875334 2.269787 -0.293989
-0.869940 2.267573 -0.293348
-0.864220 2.264442 -0.292441
-0.862205 2.271253 -0.294414
-0.859499 2.276253 -0.295862
-0.855781 2.278533 -0.296522
-0.852718 2.282620 -0.297706
-0.851616 2.292147 -0.300466
-0.846555 2.290784 -0.300071
-0.840200 2.285779 -0.298621
-0.835485 2.285303 -0.298483
-0.831418 2.286636 -0.298870
-0.829273 2.293422 -0.300835
-0.825830 2.296566 -0.301746
-0.821743 2.297883 -0.302127
-0.817022 2.297371 -0.301979
-0.812619 2.297761 -0.302092
-0.808843 2.299969 -0.302731
-0.805371 2.303084 -0.303634
-0.802199 2.307107 -0.304799
-0.797786 2.307471 -0.304904
-0.793679 2.308741 -0.305272
-0.789266 2.309090 -0.305373
-0.785458 2.311261 -0.306002
-0.781345 2.312511 -0.306364
-0.778126 2.316503 -0.307520
-0.774300 2.318657 -0.308144
-0.770469 2.320806 -0.308767
-0.766338 2.322030 -0.309121
-0.762205 2.323248 -0.309474
-0.760395 2.331811 -0.311954
-0.754799 2.328421 -0.310972
-0.748930 2.324099 -0.309721
-0.741936 2.316082 -0.307399
-0.740370 2.325548 -0.310140
-0.736230 2.326722 -0.310480
-0.731808 2.326967 -0.310551
-0.729619 2.334583 -0.312757
-0.725740 2.336662 -0.313359
-0.722683 2.341505 -0.314762
-0.719885 2.347268 -0.316431
-0.714616 2.344710 -0.315691
-0.708819 2.340293 -0.314411
-0.705728 2.345115 -0.315808
-0.706363 2.362891 -0.320957
-0.701625 2.362156 -0.320744
-0.695572 2.356780 -0.319187
-0.690589 2.355098 -0.318699
-0.686656 2.357116 -0.319284
-0.682977 2.360055 -0.320135
-0.679289 2.362989 -0.320985
-0.675082 2.364061 -0.321296
-0.670872 2.365125 -0.321604
-0.666913 2.367112 -0.322179
-0.663199 2.370023 -0.323022
-0.659725 2.373859 -0.324133
-0.655745 2.375828 -0.324704
-0.651514 2.376860 -0.325003
-0.646307 2.374159 -0.324220
-0.642079 2.375175 -0.324515
-0.639291 2.381779 -0.326427
-0.635288 2.383716 -0.326989
-0.631043 2.384714 -0.327278
-0.627736 2.389438 -0.328646
-0.623014 2.388556 -0.328390
-0.619224 2.391402 -0.329215
-0.615195 2.393307 -0.329767
-0.611161 2.395206 -0.330317
-0.605535 2.390551 -0.328968
-0.600828 2.389627 -0.328701
-0.598804 2.399930 -0.331685
-0.596745 2.410232 -0.334669
-0.593332 2.414913 -0.336025
-0.589248 2.416778 -0.336565
-0.581480 2.402695 -0.332486
-0.579133 2.412045 -0.335194
-0.573985 2.409195 -0.334369
-0.569905 2.411029 -0.334900
-0.564562 2.407221 -0.333797
-0.563601 2.423133 -0.338406
-0.557841 2.417431 -0.336754
-0.556193 2.430521 -0.340546
-0.551660 2.430446 -0.340524
-0.547330 2.431304 -0.340772
-0.543198 2.433095 -0.341291
-0.539259 2.435822 -0.342081
-0.534724 2.435716 -0.342050
-0.530190 2.435603 -0.342018
-0.526043 2.437367 -0.342529
-0.522273 2.441010 -0.343584
-0.517924 2.441819 -0.343818
-0.514136 2.445450 -0.344870
-0.509593 2.445301 -0.344827
-0.505236 2.446088 -0.345055
-0.500878 2.446867 -0.345280
-0.496699 2.448584 -0.345778
-0.492694 2.451240 -0.346547
-0.488504 2.452944 -0.347040
-0.484308 2.454641 -0.347532
-0.480282 2.457277 -0.348296
-0.478139 2.470316 -0.352072
-0.475268 2.479569 -0.354752
-0.468996 2.469883 -0.351947
-0.466596 2.481967 -0.355447
-0.460687 2.474156 -0.353184
-0.457911 2.484337 -0.356133
-0.451059 2.470819 -0.352218
-0.448735 2.483833 -0.355988
-0.442410 2.473137 -0.352889
-0.439724 2.484247 -0.356107
-0.434987 2.483019 -0.355752
-0.431021 2.486528 -0.356768
-0.426589 2.487184 -0.356958
