# This PCD file was generated using the MATLAB® pcwrite function
# from Computer Vision System Toolbox®.
# .PCD v.7 - Point Cloud Data file format
VERSION .7
FIELDS x y z
SIZE 4 4 4
TYPE F F F
COUNT 1 1 1
WIDTH 1653
HEIGHT 1
VIEWPOINT 0 0 0 1 0 0 0
POINTS 1653
DATA ascii
0.009511 1.693373 -0.482243
0.012817 1.697755 -0.484464
0.016230 1.704805 -0.488037
0.019419 1.704719 -0.487993
0.022707 1.707301 -0.489302
0.025901 1.707204 -0.489253
0.029131 1.707994 -0.489653
0.032365 1.708778 -0.490051
0.035602 1.709557 -0.490446
0.038842 1.710331 -0.490838
0.042085 1.711100 -0.491228
0.045286 1.710973 -0.491163
0.048535 1.711732 -0.491548
0.051835 1.713377 -0.492381
0.054990 1.712343 -0.491858
0.058298 1.713978 -0.492686
0.061667 1.716497 -0.493963
0.064991 1.718121 -0.494786
0.068206 1.717958 -0.494703
0.071480 1.718680 -0.495070
0.074696 1.718508 -0.494982
0.077974 1.719220 -0.495343
0.081256 1.719927 -0.495701
0.084673 1.722409 -0.496959
0.087896 1.722215 -0.496861
0.091049 1.721127 -0.496310
0.094127 1.719144 -0.495305
0.097417 1.719826 -0.495650
0.101085 1.724949 -0.498247
-0.746378 1.576479 -0.427959
-0.742664 1.575935 -0.427682
-0.739339 1.576206 -0.427820
-0.735632 1.575648 -0.427535
-0.731929 1.575083 -0.427247
-0.728231 1.574511 -0.426955
-0.725292 1.575582 -0.427502
-0.722352 1.576648 -0.428046
-0.719409 1.577710 -0.428587
-0.715719 1.577114 -0.428283
-0.712775 1.578165 -0.428820
-0.709090 1.577557 -0.428509
-0.706514 1.579426 -0.429463
-0.703566 1.580463 -0.429992
-0.700616 1.581496 -0.430518
-0.695848 1.578374 -0.428926
-0.690732 1.574411 -0.426904
-0.687434 1.574593 -0.426997
-0.685213 1.577263 -0.428359
-0.682982 1.579932 -0.429721
-0.680389 1.581765 -0.430656
-0.677083 1.581928 -0.430739
-0.674130 1.582919 -0.431245
-0.670825 1.583072 -0.431322
-0.667870 1.584053 -0.431823
-0.664566 1.584195 -0.431895
-0.660573 1.582659 -0.431112
-0.657618 1.583624 -0.431604
-0.653978 1.582911 -0.431240
-0.651024 1.583867 -0.431728
-0.649083 1.587332 -0.433496
-0.645783 1.587441 -0.433551
-0.642484 1.587544 -0.433604
-0.639186 1.587642 -0.433654
-0.635890 1.587734 -0.433701
-0.633256 1.589502 -0.434603
-0.629631 1.588743 -0.434215
-0.626992 1.590502 -0.435113
-0.623372 1.589731 -0.434719
-0.619432 1.588110 -0.433893
-0.616145 1.588169 -0.433923
-0.613821 1.590753 -0.435241
-0.611170 1.592490 -0.436127
-0.608514 1.594224 -0.437011
-0.605221 1.594263 -0.437031
-0.602872 1.596834 -0.438343
-0.600515 1.599403 -0.439653
-0.597839 1.601122 -0.440530
-0.595158 1.602837 -0.441405
-0.585402 1.585052 -0.432333
-0.580915 1.581660 -0.430602
-0.581915 1.593534 -0.436659
-0.578940 1.594377 -0.437090
-0.576263 1.596065 -0.437951
-0.572386 1.594350 -0.437076
-0.569409 1.595178 -0.437498
-0.568500 1.601959 -0.440957
-0.568743 1.612147 -0.446154
-0.564269 1.608710 -0.444401
-0.559520 1.604412 -0.442209
-0.555078 1.600957 -0.440446
-0.550364 1.596639 -0.438244
-0.549668 1.604263 -0.442133
-0.545819 1.602494 -0.441230
-0.543109 1.604136 -0.442068
-0.540393 1.605773 -0.442903
-0.537394 1.606552 -0.443300
-0.535780 1.611605 -0.445878
-0.529186 1.601245 -0.440593
-0.527565 1.606290 -0.443167
-0.522659 1.601049 -0.440493
-0.521022 1.606088 -0.443064
-0.517753 1.605979 -0.443008
-0.514753 1.606722 -0.443387
-0.511221 1.605744 -0.442888
-0.507958 1.605618 -0.442824
-0.505221 1.607206 -0.443634
-0.502480 1.608790 -0.444442
-0.499733 1.610370 -0.445248
-0.496725 1.611086 -0.445613
-0.493204 1.610074 -0.445097
-0.490197 1.610779 -0.445457
-0.486936 1.610618 -0.445374
-0.483927 1.611314 -0.445729
-0.480668 1.611142 -0.445642
-0.477411 1.610964 -0.445551
-0.474647 1.612509 -0.446339
-0.471878 1.614049 -0.447125
-0.468621 1.613857 -0.447027
-0.465606 1.614524 -0.447367
-0.462590 1.615187 -0.447705
-0.459572 1.615845 -0.448041
-0.456318 1.615632 -0.447932
-0.453533 1.617146 -0.448705
-0.450743 1.618656 -0.449475
-0.447719 1.619296 -0.449801
-0.444465 1.619063 -0.449683
-0.441666 1.620560 -0.450446
-0.439538 1.624657 -0.452536
-0.436278 1.624411 -0.452411
-0.433686 1.626765 -0.453612
-0.429766 1.623902 -0.452151
-0.428040 1.629725 -0.455121
-0.423912 1.625980 -0.453211
-0.421303 1.628318 -0.454404
-0.418046 1.628041 -0.454263
-0.414581 1.626888 -0.453674
-0.411540 1.627471 -0.453972
-0.408291 1.627179 -0.453822
-0.405456 1.628623 -0.454560
-0.402616 1.630064 -0.455295
-0.399975 1.632373 -0.456473
-0.395114 1.625081 -0.452752
-0.392676 1.628252 -0.454370
-0.389237 1.627055 -0.453759
-0.386588 1.629346 -0.454928
-0.383543 1.629885 -0.455203
-0.382807 1.640909 -0.460827
-0.379930 1.642318 -0.461545
-0.375914 1.638473 -0.459584
-0.371914 1.634621 -0.457619
-0.369415 1.637764 -0.459222
-0.366169 1.637401 -0.459037
-0.362926 1.637033 -0.458849
-0.359685 1.636660 -0.458659
-0.356268 1.635404 -0.458019
-0.353211 1.635897 -0.458270
-0.350504 1.638139 -0.459414
-0.347267 1.637745 -0.459213
-0.344550 1.639978 -0.460352
-0.341313 1.639575 -0.460146
-0.338080 1.639166 -0.459938
-0.335015 1.639630 -0.460174
-0.331950 1.640089 -0.460409
-0.329047 1.641423 -0.461089
-0.326463 1.644510 -0.462664
-0.323548 1.645836 -0.463340
-0.320154 1.644518 -0.462668
-0.316923 1.644075 -0.462442
-0.313849 1.644506 -0.462662
-0.310927 1.645813 -0.463328
-0.307849 1.646235 -0.463544
-0.304771 1.646652 -0.463756
-0.301544 1.646183 -0.463517
-0.298466 1.646590 -0.463725
-0.295531 1.647874 -0.464380
-0.292307 1.647391 -0.464133
-0.289650 1.650429 -0.465683
-0.286146 1.648172 -0.464532
-0.283201 1.649438 -0.465177
-0.279438 1.645404 -0.463120
-0.275558 1.640480 -0.460608
-0.272623 1.641730 -0.461246
-0.270859 1.650924 -0.465936
-0.269059 1.660117 -0.470626
-0.264048 1.647221 -0.464047
-0.261344 1.650221 -0.465577
-0.258258 1.650566 -0.465753
-0.256390 1.659747 -0.470437
-0.252324 1.653010 -0.467000
-0.249706 1.656879 -0.468973
-0.246374 1.655436 -0.468237
-0.243738 1.659297 -0.470207
-0.240068 1.655189 -0.468112
-0.235857 1.646649 -0.463755
-0.233766 1.654923 -0.467976
-0.230563 1.654339 -0.467678
-0.228744 1.665265 -0.473251
-0.224270 1.654042 -0.467526
-0.221382 1.656101 -0.468577
-0.217779 1.651953 -0.466461
-0.215087 1.655776 -0.468411
-0.212088 1.656935 -0.469002
-0.209276 1.659863 -0.470496
-0.206360 1.661901 -0.471535
-0.203343 1.663047 -0.472120
-0.200323 1.664189 -0.472703
-0.197210 1.664439 -0.472830
-0.194183 1.665572 -0.473408
-0.191153 1.666699 -0.473983
-0.188034 1.666935 -0.474103
-0.184752 1.665390 -0.473315
-0.181636 1.665616 -0.473431
-0.178677 1.667613 -0.474449
-0.175557 1.667829 -0.474560
-0.172512 1.668929 -0.475121
-0.169389 1.669136 -0.475226
-0.166195 1.668449 -0.474876
-0.163492 1.673978 -0.477696
-0.159679 1.665283 -0.473261
-0.157028 1.671692 -0.476530
-0.153900 1.671874 -0.476623
-0.150772 1.672052 -0.476714
-0.147216 1.666001 -0.473627
-0.143862 1.662612 -0.471898
-0.141270 1.670778 -0.476064
-0.138255 1.672715 -0.477052
-0.135342 1.676426 -0.478945
-0.132152 1.675685 -0.478567
-0.129118 1.677608 -0.479548
-0.125978 1.677748 -0.479619
-0.122839 1.677882 -0.479688
-0.119653 1.677122 -0.479300
-0.116428 1.675466 -0.478455
-0.113251 1.674696 -0.478062
-0.110197 1.676591 -0.479029
-0.107136 1.678481 -0.479993
-0.104032 1.679476 -0.480501
-0.100959 1.681356 -0.481460
-0.097845 1.682342 -0.481963
-0.094728 1.683323 -0.482463
-0.091607 1.684299 -0.482961
-0.088427 1.683490 -0.482548
-0.085302 1.684456 -0.483041
-0.082149 1.684527 -0.483078
-0.079064 1.687265 -0.484474
-0.075927 1.688217 -0.484960
-0.072786 1.689164 -0.485443
-0.069624 1.689216 -0.485470
-0.066446 1.688372 -0.485039
-0.063286 1.688414 -0.485060
-0.060113 1.687560 -0.484625
-0.056996 1.691155 -0.486459
-0.053804 1.688510 -0.485109
-0.050664 1.691204 -0.486484
-0.047498 1.691221 -0.486492
-0.044339 1.693015 -0.487408
-0.041173 1.694804 -0.488320
-0.038000 1.692134 -0.486958
-0.034832 1.692132 -0.486957
-0.031710 1.680544 -0.481046
-0.028533 1.685876 -0.483766
-0.025385 1.684969 -0.483303
-0.022196 1.688510 -0.485109
-0.019025 1.689373 -0.485550
-0.015899 1.686669 -0.484170
-0.012784 1.683960 -0.482788
-0.009664 1.682137 -0.481858
-0.006289 1.693669 -0.487741
-0.002888 1.704305 -0.493167
0.000241 1.701576 -0.491775
0.003495 1.704186 -0.493106
0.006589 1.700557 -0.491255
0.009747 1.699594 -0.490764
0.013013 1.702189 -0.492088
0.016200 1.702107 -0.492046
0.019419 1.702911 -0.492456
0.022574 1.701929 -0.491955
0.025796 1.702722 -0.492360
0.029021 1.703511 -0.492762
0.032326 1.706075 -0.494070
0.035722 1.710413 -0.496283
0.038926 1.710296 -0.496223
0.042129 1.710174 -0.496161
0.045332 1.710047 -0.496096
0.048770 1.714364 -0.498298
0.052128 1.716896 -0.499590
0.055395 1.717643 -0.499971
0.058507 1.715716 -0.498988
0.061721 1.715563 -0.498910
0.064935 1.715406 -0.498830
0.068090 1.714354 -0.498293
0.071302 1.714186 -0.498208
0.074573 1.714903 -0.498573
0.077974 1.717393 -0.499843
0.081256 1.718099 -0.500204
0.084607 1.719689 -0.501015
0.087964 1.721273 -0.501823
0.091328 1.722852 -0.502628
0.094342 1.719983 -0.501165
0.097784 1.722440 -0.502418
0.102585 1.740880 -0.511825
-0.741893 1.573409 -0.429053
-0.738186 1.572857 -0.428771
-0.737928 1.579699 -0.432273
-0.734978 1.580784 -0.432829
-0.730507 1.578571 -0.431696
-0.726804 1.577996 -0.431401
-0.723857 1.579064 -0.431948
-0.720159 1.578476 -0.431647
-0.716092 1.577056 -0.430920
-0.713147 1.578107 -0.431458
-0.709460 1.577500 -0.431147
-0.706882 1.579368 -0.432104
-0.703200 1.578749 -0.431787
-0.698427 1.575636 -0.430193
-0.695848 1.577489 -0.431142
-0.692179 1.576849 -0.430814
-0.688514 1.576202 -0.430483
-0.685213 1.576379 -0.430574
-0.682982 1.579046 -0.431939
-0.680389 1.580878 -0.432877
-0.677436 1.581874 -0.433386
-0.674130 1.582031 -0.433467
-0.670825 1.582184 -0.433545
-0.667173 1.581496 -0.433193
-0.664219 1.582471 -0.433692
-0.660918 1.582606 -0.433761
-0.658306 1.584408 -0.434683
-0.655346 1.585369 -0.435176
-0.651364 1.583815 -0.434380
-0.647390 1.582253 -0.433581
-0.644771 1.584035 -0.434493
-0.642484 1.586653 -0.435833
-0.640188 1.589268 -0.437172
-0.637551 1.591041 -0.438079
-0.632595 1.586929 -0.435974
-0.629631 1.587851 -0.436446
-0.626011 1.587085 -0.436054
-0.623372 1.588838 -0.436951
-0.620404 1.589745 -0.437416
-0.617112 1.589805 -0.437447
-0.614142 1.590703 -0.437906
-0.611489 1.592439 -0.438795
-0.608196 1.592484 -0.438818
-0.604906 1.592522 -0.438837
-0.601930 1.593401 -0.439287
-0.598641 1.593429 -0.439302
-0.595664 1.594298 -0.439746
-0.592686 1.595162 -0.440189
-0.590935 1.599409 -0.442363
-0.588557 1.601961 -0.443669
-0.584651 1.600270 -0.442804
-0.580452 1.597723 -0.441500
-0.576865 1.596866 -0.441061
-0.572984 1.595152 -0.440184
-0.570301 1.596831 -0.441043
-0.567909 1.599357 -0.442336
-0.566979 1.606133 -0.445805
-0.562807 1.603548 -0.444481
-0.559229 1.602657 -0.444025
-0.556812 1.605169 -0.445311
-0.553237 1.604267 -0.444850
-0.550239 1.605065 -0.445258
-0.544967 1.599031 -0.442169
-0.542827 1.602378 -0.443883
-0.538709 1.599743 -0.442534
-0.538789 1.609921 -0.447744
-0.533007 1.602144 -0.443763
-0.531115 1.606334 -0.445908
-0.529757 1.612234 -0.448928
-0.527288 1.614709 -0.450195
-0.523998 1.614610 -0.450144
-0.519367 1.610218 -0.447896
-0.515555 1.608390 -0.446960
-0.512018 1.607414 -0.446460
-0.509013 1.608148 -0.446836
-0.506270 1.609736 -0.447649
-0.503001 1.609602 -0.447581
-0.499474 1.608602 -0.447069
-0.496211 1.608457 -0.446994
-0.493204 1.609166 -0.447357
-0.490958 1.612454 -0.449041
-0.487692 1.612294 -0.448959
-0.484428 1.612129 -0.448874
-0.480917 1.611096 -0.448345
-0.478152 1.612644 -0.449138
-0.475383 1.614188 -0.449928
-0.472122 1.614002 -0.449833
-0.469589 1.616402 -0.451061
-0.466086 1.615342 -0.450519
-0.462828 1.615140 -0.450415
-0.459572 1.614933 -0.450309
-0.456318 1.614720 -0.450201
-0.453533 1.616233 -0.450975
-0.450743 1.617743 -0.451748
-0.448179 1.620114 -0.452962
-0.445606 1.622482 -0.454174
-0.442346 1.622246 -0.454053
-0.437963 1.617668 -0.451709
-0.434715 1.617419 -0.451582
-0.431470 1.617165 -0.451452
-0.430206 1.624721 -0.455320
-0.426077 1.620985 -0.453407
-0.421098 1.613764 -0.449711
-0.418511 1.616095 -0.450904
-0.416129 1.619293 -0.452542
-0.414792 1.626839 -0.456404
-0.411121 1.624811 -0.455366
-0.408083 1.625388 -0.455661
-0.404631 1.624219 -0.455063
-0.404661 1.637856 -0.462044
-0.401192 1.636680 -0.461442
-0.397326 1.633754 -0.459944
-0.393274 1.629948 -0.457996
-0.390225 1.630498 -0.458277
-0.387960 1.634534 -0.460343
-0.383737 1.629836 -0.457939
-0.381459 1.633865 -0.460001
-0.378785 1.636144 -0.461167
-0.375535 1.635797 -0.460990
-0.372101 1.634570 -0.460362
-0.368672 1.633338 -0.459731
-0.365433 1.632974 -0.459545
-0.362744 1.635231 -0.460700
-0.359685 1.635733 -0.460957
-0.356804 1.637106 -0.461660
-0.353919 1.638475 -0.462361
-0.350504 1.637211 -0.461713
-0.347788 1.639447 -0.462858
-0.344550 1.639049 -0.462655
-0.341484 1.639523 -0.462897
-0.338080 1.638237 -0.462239
-0.335015 1.638701 -0.462476
-0.332280 1.640916 -0.463610
-0.329374 1.642249 -0.464293
-0.326463 1.643578 -0.464973
-0.323228 1.643145 -0.464751
-0.319996 1.642707 -0.464527
-0.316453 1.640505 -0.463400
-0.313849 1.643574 -0.464971
-0.310927 1.644879 -0.465639
-0.308152 1.647061 -0.466756
-0.304921 1.646598 -0.466519
-0.302135 1.648771 -0.467631
-0.298904 1.648298 -0.467389
-0.295965 1.649582 -0.468046
-0.292878 1.649980 -0.468250
-0.289791 1.650374 -0.468452
-0.287259 1.654289 -0.470456
-0.283476 1.650265 -0.468396
-0.280931 1.654172 -0.470396
-0.276897 1.648372 -0.467427
-0.274210 1.651388 -0.468971
-0.270467 1.647340 -0.466898
-0.267514 1.648581 -0.467534
-0.264556 1.649818 -0.468167
-0.261720 1.651934 -0.469250
-0.258752 1.653163 -0.469879
-0.254806 1.647319 -0.466888
-0.251363 1.645002 -0.465702
-0.249351 1.653286 -0.469942
-0.246724 1.657148 -0.471919
-0.243967 1.660123 -0.473442
-0.240521 1.657787 -0.472246
-0.237975 1.662522 -0.474670
-0.233656 1.653098 -0.469846
-0.230887 1.656054 -0.471360
-0.227788 1.656352 -0.471512
-0.225211 1.661070 -0.473927
-0.222718 1.666672 -0.476794
-0.218992 1.661643 -0.474220
-0.215584 1.659264 -0.473003
-0.212381 1.658652 -0.472689
-0.209468 1.660692 -0.473734
-0.206172 1.659184 -0.472961
-0.203066 1.659443 -0.473094
-0.199960 1.659697 -0.473224
-0.197121 1.662606 -0.474713
-0.193922 1.661964 -0.474385
-0.190896 1.663090 -0.474961
-0.188034 1.665987 -0.476444
-0.184834 1.665330 -0.476108
-0.182198 1.670880 -0.478949
-0.178834 1.668439 -0.477699
-0.175864 1.670431 -0.478719
-0.172137 1.663541 -0.475192
-0.169316 1.667298 -0.477115
-0.166338 1.669275 -0.478127
-0.163492 1.673024 -0.480046
-0.159951 1.667888 -0.477417
-0.156697 1.666299 -0.476604
-0.154223 1.675364 -0.481244
-0.150960 1.673765 -0.480426
-0.147887 1.674827 -0.480969
-0.144336 1.668775 -0.477871
-0.141327 1.670715 -0.478864
-0.138255 1.671762 -0.479400
-0.135342 1.675471 -0.481299
-0.132257 1.676508 -0.481830
-0.129067 1.675763 -0.481449
-0.125930 1.675902 -0.481520
-0.122792 1.676037 -0.481588
-0.119699 1.677055 -0.482110
-0.116602 1.678069 -0.482629
-0.113502 1.679078 -0.483145
-0.110398 1.680082 -0.483659
-0.107213 1.679303 -0.483260
-0.104105 1.680297 -0.483770
-0.100959 1.680398 -0.483821
-0.097812 1.680493 -0.483870
-0.094696 1.681473 -0.484371
-0.091459 1.678890 -0.483049
-0.088482 1.684309 -0.485823
-0.085302 1.683495 -0.485407
-0.082222 1.686236 -0.486809
-0.079109 1.688082 -0.487754
-0.075906 1.686363 -0.486875
-0.072786 1.688200 -0.487815
-0.069606 1.687361 -0.487386
-0.066509 1.690968 -0.489232
-0.063299 1.688340 -0.487886
-0.060211 1.693717 -0.490639
-0.057069 1.696420 -0.492022
-0.053891 1.696447 -0.492036
-0.050671 1.691128 -0.489314
-0.047498 1.690255 -0.488867
-0.044339 1.692048 -0.489785
-0.041171 1.692945 -0.490244
-0.038000 1.698289 -0.492979
-0.034817 1.699177 -0.493434
-0.031637 1.698279 -0.492974
-0.028434 1.701827 -0.494791
-0.025287 1.696469 -0.492048
-0.022161 1.691106 -0.489302
-0.018994 1.691079 -0.489289
-0.015790 1.693717 -0.490639
-0.012547 1.698131 -0.492898
-0.009287 1.702539 -0.495155
-0.005975 1.708722 -0.498320
-0.002888 1.703330 -0.495560
0.000346 1.705052 -0.496442
0.003609 1.707660 -0.497777
0.006638 1.701364 -0.494553
0.009616 1.694173 -0.490873
0.012873 1.696766 -0.492200
0.016171 1.700244 -0.493980
0.019544 1.705495 -0.496668
0.022707 1.704514 -0.496166
0.025971 1.706196 -0.497027
0.029095 1.704315 -0.496064
0.032442 1.707767 -0.497831
0.035682 1.708544 -0.498229
0.039009 1.711095 -0.499535
0.042478 1.716309 -0.502204
0.045604 1.714403 -0.501228
0.048817 1.714271 -0.501160
0.052030 1.714133 -0.501090
0.055395 1.716658 -0.502382
0.058560 1.715621 -0.501852
0.061721 1.714580 -0.501319
0.065046 1.716200 -0.502148
0.068263 1.716037 -0.502065
0.071598 1.717647 -0.502889
0.074757 1.716586 -0.502346
0.078037 1.717297 -0.502709
0.081385 1.718890 -0.503525
0.084673 1.719591 -0.503884
0.088100 1.722062 -0.505149
0.091119 1.719199 -0.503683
0.094485 1.720772 -0.504488
0.097710 1.720564 -0.504382
0.101385 1.725676 -0.506999
-0.742664 1.573765 -0.433102
-0.738955 1.573214 -0.432819
-0.736015 1.574300 -0.433378
-0.733072 1.575381 -0.433934
-0.729749 1.575635 -0.434064
-0.726426 1.575883 -0.434192
-0.722728 1.575301 -0.433893
-0.720533 1.578010 -0.435287
-0.717211 1.578242 -0.435406
-0.713889 1.578468 -0.435522
-0.710569 1.578689 -0.435636
-0.707619 1.579731 -0.436172
-0.704666 1.580767 -0.436705
-0.700616 1.579316 -0.435958
-0.695121 1.574543 -0.433503
-0.692902 1.577218 -0.434879
-0.688874 1.575744 -0.434121
-0.685213 1.575091 -0.433785
-0.682626 1.576924 -0.434728
-0.679678 1.577922 -0.435241
-0.677436 1.580580 -0.436608
-0.673426 1.579072 -0.435833
-0.670124 1.579223 -0.435911
-0.666824 1.579369 -0.435986
-0.664219 1.581176 -0.436915
-0.661263 1.582146 -0.437414
-0.658306 1.583111 -0.437911
-0.655346 1.584071 -0.438405
-0.652045 1.584191 -0.438466
-0.648406 1.583469 -0.438095
-0.645109 1.583576 -0.438150
-0.641813 1.583679 -0.438203
-0.639186 1.585452 -0.439115
-0.636554 1.587221 -0.440025
-0.633587 1.588148 -0.440502
-0.630618 1.589070 -0.440976
-0.626665 1.587466 -0.440152
-0.623697 1.588378 -0.440620
-0.620727 1.589284 -0.441087
-0.618078 1.591028 -0.441984
-0.613500 1.587715 -0.440279
-0.610851 1.589448 -0.441171
-0.607562 1.589492 -0.441194
-0.604906 1.591217 -0.442081
-0.601930 1.592095 -0.442533
-0.598329 1.591278 -0.442113
-0.595664 1.592991 -0.442994
-0.592377 1.593008 -0.443003
-0.590320 1.596405 -0.444750
-0.587640 1.598106 -0.445626
-0.585564 1.601498 -0.447371
-0.580452 1.596413 -0.444754
-0.576564 1.594708 -0.443877
-0.573881 1.596390 -0.444743
-0.570004 1.594673 -0.443859
-0.568205 1.598894 -0.446031
-0.561686 1.589515 -0.441206
-0.561053 1.597129 -0.445123
-0.557776 1.597087 -0.445101
-0.554789 1.597892 -0.445515
-0.550939 1.596136 -0.444612
-0.546811 1.593521 -0.443267
-0.547808 1.606245 -0.449813
-0.545085 1.607887 -0.450658
-0.542077 1.608672 -0.451061
-0.537952 1.606036 -0.449705
-0.533284 1.601684 -0.447466
-0.529461 1.599886 -0.446541
-0.529209 1.609198 -0.451332
-0.525926 1.609102 -0.451283
-0.523187 1.610713 -0.452112
-0.519635 1.609751 -0.451616
-0.515822 1.607926 -0.450677
-0.512283 1.606950 -0.450176
-0.509541 1.608542 -0.450994
-0.506270 1.608413 -0.450928
-0.503261 1.609138 -0.451301
-0.499992 1.608998 -0.451229
-0.496725 1.608854 -0.451155
-0.493460 1.608704 -0.451078
-0.489943 1.607688 -0.450555
-0.486683 1.607526 -0.450472
-0.483927 1.609081 -0.451272
-0.481414 1.611494 -0.452513
-0.478152 1.611318 -0.452422
-0.474892 1.611137 -0.452329
-0.471391 1.610087 -0.451789
-0.469105 1.613346 -0.453466
-0.466086 1.614013 -0.453809
-0.463305 1.615538 -0.454594
-0.460519 1.617060 -0.455377
-0.457494 1.617714 -0.455713
-0.454000 1.616633 -0.455157
-0.450743 1.616411 -0.455043
-0.446798 1.613588 -0.453590
-0.444236 1.615951 -0.454806
-0.442346 1.620910 -0.457357
-0.440212 1.625001 -0.459462
-0.436725 1.623889 -0.458890
-0.431913 1.617569 -0.455638
-0.428887 1.618178 -0.455952
-0.426077 1.619650 -0.456709
-0.421964 1.615909 -0.454785
-0.420229 1.621713 -0.457771
-0.418259 1.626648 -0.460310
-0.414792 1.625498 -0.459718
-0.411960 1.626950 -0.460465
-0.407459 1.621439 -0.457630
-0.405662 1.627231 -0.460609
-0.402207 1.626058 -0.460006
-0.399367 1.627492 -0.460744
-0.396522 1.628921 -0.461479
-0.392676 1.625990 -0.459971
-0.389237 1.624795 -0.459356
-0.385804 1.623594 -0.458738
-0.382960 1.625003 -0.459463
-0.379726 1.624664 -0.459289
-0.377258 1.627810 -0.460907
-0.375914 1.636193 -0.465220
-0.374349 1.643703 -0.469084
-0.371086 1.643349 -0.468902
-0.367273 1.640367 -0.467368
-0.363655 1.638253 -0.466280
-0.360768 1.639630 -0.466989
-0.357341 1.638379 -0.466345
-0.353919 1.637122 -0.465698
-0.350679 1.636734 -0.465499
-0.347615 1.637217 -0.465747
-0.344722 1.638572 -0.466444
-0.341654 1.639045 -0.466688
-0.338585 1.639514 -0.466929
-0.335515 1.639978 -0.467168
-0.332280 1.639560 -0.466953
-0.329210 1.640015 -0.467186
-0.325816 1.638709 -0.466515
-0.323228 1.641787 -0.468098
-0.319996 1.641349 -0.467873
-0.317236 1.643541 -0.469001
-0.314158 1.643972 -0.469222
-0.311080 1.644398 -0.469442
-0.308001 1.644820 -0.469658
-0.304771 1.644357 -0.469420
-0.301840 1.645648 -0.470085
-0.298612 1.645176 -0.469841
-0.295820 1.647338 -0.470954
-0.292735 1.647735 -0.471158
-0.289931 1.649889 -0.472266
-0.286424 1.647636 -0.471107
-0.282651 1.643615 -0.469039
-0.279574 1.643992 -0.469233
-0.277433 1.650533 -0.472598
-0.275268 1.657072 -0.475962
-0.271381 1.652148 -0.473429
-0.268158 1.651626 -0.473160
-0.265064 1.651981 -0.473343
-0.262597 1.656742 -0.475792
-0.259617 1.657971 -0.476424
-0.256268 1.656547 -0.475692
-0.253526 1.659532 -0.477227
-0.250772 1.662513 -0.478761
-0.247657 1.662841 -0.478930
-0.244197 1.660514 -0.477733
-0.241200 1.661715 -0.478350
-0.238087 1.662028 -0.478511
-0.234973 1.662336 -0.478670
-0.231751 1.661755 -0.478371
-0.228425 1.660285 -0.477615
-0.225315 1.660578 -0.477766
-0.222307 1.661751 -0.478369
-0.218992 1.660265 -0.477605
-0.215882 1.660544 -0.477748
-0.212381 1.657277 -0.476068
-0.208893 1.654005 -0.474384
-0.205795 1.654268 -0.474519
-0.202420 1.651870 -0.473285
-0.199598 1.654779 -0.474782
-0.196676 1.656799 -0.475821
-0.194793 1.669445 -0.482327
-0.191238 1.665256 -0.480172
-0.187616 1.660174 -0.477558
-0.184506 1.660404 -0.477676
-0.181556 1.662402 -0.478704
-0.178913 1.667941 -0.481554
-0.175404 1.663724 -0.479384
-0.172362 1.664822 -0.479949
-0.169829 1.672123 -0.483705
-0.166123 1.665229 -0.480159
-0.163143 1.667200 -0.481172
-0.159815 1.664730 -0.479902
-0.156564 1.663142 -0.479085
-0.153190 1.659774 -0.477352
-0.150018 1.659063 -0.476986
-0.147277 1.664560 -0.479814
-0.144099 1.663840 -0.479444
-0.141155 1.666665 -0.480897
-0.138200 1.669486 -0.482349
-0.135342 1.674079 -0.484711
-0.132205 1.674228 -0.484788
-0.129067 1.674371 -0.484862
-0.125978 1.675398 -0.485390
-0.122886 1.676421 -0.485916
-0.119744 1.676550 -0.485983
-0.116559 1.675786 -0.485590
-0.113418 1.675906 -0.485651
-0.110277 1.676020 -0.485710
-0.107175 1.677019 -0.486224
-0.104142 1.679789 -0.487649
-0.100994 1.679889 -0.487701
-0.097878 1.680874 -0.488207
-0.094759 1.681853 -0.488711
-0.091637 1.682827 -0.489212
-0.088482 1.682908 -0.489254
-0.085276 1.681206 -0.488378
-0.082125 1.681277 -0.488415
-0.079019 1.683121 -0.489363
-0.075885 1.684071 -0.489852
-0.072786 1.686795 -0.491254
-0.069641 1.687735 -0.491737
-0.066462 1.686893 -0.491304
-0.063327 1.688713 -0.492240
-0.060174 1.689639 -0.492717
-0.056996 1.688782 -0.492276
-0.053813 1.687030 -0.491375
-0.050699 1.693277 -0.494588
-0.047540 1.695962 -0.495970
-0.044350 1.693306 -0.494604
-0.041163 1.687089 -0.491405
-0.038000 1.687981 -0.491864
-0.034839 1.686200 -0.490948
-0.031651 1.693306 -0.494604
-0.028455 1.696851 -0.496427
-0.025266 1.697723 -0.496876
-0.022030 1.703036 -0.499609
-0.018847 1.702119 -0.499138
-0.015655 1.702087 -0.499121
-0.012561 1.695826 -0.495900
-0.009334 1.698451 -0.497251
-0.006149 1.698404 -0.497226
-0.002754 1.708132 -0.502231
0.000408 1.706297 -0.501287
0.003631 1.707124 -0.501712
0.006809 1.706168 -0.501220
0.009956 1.704318 -0.500269
0.012985 1.698908 -0.497485
0.016200 1.699715 -0.497901
0.019544 1.704072 -0.500142
0.022740 1.703981 -0.500095
0.025936 1.703884 -0.500045
0.029205 1.705559 -0.500907
0.032365 1.704564 -0.500395
0.035682 1.707118 -0.501709
0.038967 1.708778 -0.502563
0.042260 1.710433 -0.503415
0.045513 1.711194 -0.503806
0.048817 1.712838 -0.504652
0.052079 1.713589 -0.505038
0.055243 1.712559 -0.504508
0.058664 1.715964 -0.506260
0.061884 1.715811 -0.506182
0.065102 1.715654 -0.506101
0.068436 1.717267 -0.506930
0.071717 1.717987 -0.507301
0.075001 1.718701 -0.507668
0.078225 1.718523 -0.507577
0.081514 1.719228 -0.507940
0.084806 1.719927 -0.508299
0.088032 1.719734 -0.508200
0.091259 1.719536 -0.508098
0.094556 1.720220 -0.508450
0.097784 1.720011 -0.508343
0.101085 1.720685 -0.508689
-0.750254 1.581824 -0.439289
-0.743436 1.574727 -0.435629
-0.738570 1.571717 -0.434076
-0.735632 1.572801 -0.434635
-0.733835 1.576346 -0.436464
-0.730887 1.577423 -0.437019
-0.726426 1.575204 -0.435875
-0.723104 1.575446 -0.436000
-0.719784 1.575683 -0.436122
-0.716465 1.575913 -0.436241
-0.713147 1.576138 -0.436357
-0.710569 1.578009 -0.437322
-0.707619 1.579050 -0.437859
-0.703933 1.578433 -0.437540
-0.700251 1.577808 -0.437218
-0.696211 1.576349 -0.436466
-0.692179 1.574882 -0.435709
-0.689234 1.575895 -0.436231
-0.686646 1.577732 -0.437179
-0.683339 1.577906 -0.437268
-0.680033 1.578074 -0.437355
-0.677083 1.579067 -0.437867
-0.673778 1.579224 -0.437949
-0.670475 1.579376 -0.438027
-0.667870 1.581188 -0.438961
-0.664566 1.581329 -0.439034
-0.661263 1.581464 -0.439104
-0.657618 1.580759 -0.438740
-0.655004 1.582553 -0.439666
-0.652385 1.584344 -0.440589
-0.648744 1.583622 -0.440217
-0.646120 1.585404 -0.441136
-0.642819 1.585508 -0.441190
-0.640188 1.587281 -0.442105
-0.635558 1.584022 -0.440423
-0.632926 1.585785 -0.441333
-0.630947 1.589223 -0.443106
-0.627974 1.590141 -0.443580
-0.624999 1.591054 -0.444050
-0.621375 1.590280 -0.443651
-0.618723 1.592024 -0.444551
-0.614783 1.590397 -0.443712
-0.611808 1.591290 -0.444172
-0.608831 1.592177 -0.444630
-0.605537 1.592217 -0.444651
-0.602558 1.593095 -0.445103
-0.599266 1.593124 -0.445118
-0.596596 1.594837 -0.446002
-0.590522 1.587249 -0.442088
-0.590012 1.594869 -0.446019
-0.586417 1.594031 -0.445586
-0.585259 1.599959 -0.448644
-0.581056 1.597417 -0.447333
-0.576564 1.594020 -0.445580
-0.574778 1.598245 -0.447760
-0.570896 1.596530 -0.446875
-0.567022 1.594807 -0.445986
-0.560804 1.586281 -0.441589
-0.557545 1.586240 -0.441567
-0.558066 1.597248 -0.447245
-0.555945 1.600605 -0.448977
-0.551801 1.598001 -0.447634
-0.549668 1.601350 -0.449362
-0.548376 1.607255 -0.452407
-0.545085 1.607191 -0.452375
-0.541797 1.607122 -0.452339
-0.537115 1.602781 -0.450100
-0.534671 1.605260 -0.451379
-0.531942 1.606883 -0.452216
-0.528661 1.606792 -0.452169
-0.525654 1.607551 -0.452560
-0.522375 1.607449 -0.452508
-0.519635 1.609054 -0.453336
-0.515555 1.606373 -0.451953
-0.512283 1.606255 -0.451892
-0.509277 1.606988 -0.452270
-0.506532 1.608575 -0.453088
-0.503261 1.608441 -0.453019
-0.499992 1.608302 -0.452947
-0.496725 1.608157 -0.452873
-0.493971 1.609726 -0.453682
-0.490958 1.610431 -0.454046
-0.487692 1.610271 -0.453963
-0.484678 1.610966 -0.454322
-0.481663 1.611657 -0.454678
-0.478893 1.613204 -0.455476
-0.475874 1.613885 -0.455827
-0.472366 1.612838 -0.455287
-0.468863 1.611785 -0.454744
-0.465366 1.610725 -0.454198
-0.462590 1.612249 -0.454984
-0.459809 1.613769 -0.455767
-0.457494 1.617012 -0.457440
-0.454467 1.617661 -0.457775
-0.451670 1.619169 -0.458553
-0.448639 1.619808 -0.458883
-0.445150 1.618712 -0.458317
-0.442573 1.621072 -0.459535
-0.439088 1.619966 -0.458964
-0.436278 1.621452 -0.459731
-0.432578 1.619467 -0.458707
-0.428447 1.615742 -0.456785
-0.428476 1.628488 -0.463360
-0.423046 1.619547 -0.458748
-0.421088 1.624482 -0.461294
-0.417833 1.624205 -0.461151
-0.415849 1.629135 -0.463694
-0.411750 1.625374 -0.461754
-0.408291 1.624213 -0.461155
-0.404837 1.623046 -0.460553
-0.402003 1.624482 -0.461294
-0.399367 1.626785 -0.462482
-0.396522 1.628214 -0.463219
-0.394470 1.633122 -0.465750
-0.391016 1.631930 -0.465136
-0.386980 1.628118 -0.463169
-0.384903 1.633016 -0.465696
-0.381459 1.631807 -0.465072
-0.380311 1.641062 -0.469846
-0.375157 1.631991 -0.465167
-0.372663 1.635130 -0.466786
-0.369415 1.634774 -0.466602
-0.366721 1.637033 -0.467767
-0.363655 1.637540 -0.468029
-0.360768 1.638917 -0.468740
-0.357162 1.636792 -0.467643
-0.353919 1.636410 -0.467446
-0.350504 1.635148 -0.466795
-0.347788 1.637381 -0.467947
-0.344893 1.638734 -0.468645
-0.341994 1.640084 -0.469341
-0.338922 1.640553 -0.469583
-0.335849 1.641017 -0.469823
-0.332775 1.641477 -0.470060
-0.329700 1.641932 -0.470295
-0.326463 1.641505 -0.470074
-0.323388 1.641950 -0.470304
-0.320312 1.642390 -0.470531
-0.317392 1.643703 -0.471208
-0.314003 1.642378 -0.470525
-0.311080 1.643682 -0.471198
-0.308152 1.644982 -0.471868
-0.305519 1.648035 -0.473443
-0.301840 1.644931 -0.471842
-0.298758 1.645338 -0.472052
-0.295676 1.645741 -0.472259
-0.293163 1.649656 -0.474279
-0.290354 1.651809 -0.475390
-0.287259 1.652198 -0.475590
-0.285263 1.659625 -0.479421
-0.282695 1.663528 -0.481435
-0.278639 1.657740 -0.478449
-0.274342 1.650183 -0.474551
-0.270989 1.648785 -0.473830
-0.268544 1.653550 -0.476288
-0.265700 1.655669 -0.477381
-0.262347 1.654256 -0.476652
-0.259617 1.657247 -0.478195
-0.256268 1.655825 -0.477461
-0.253526 1.658808 -0.479000
-0.250180 1.657375 -0.478260
-0.247074 1.657701 -0.478429
-0.243738 1.656257 -0.477684
-0.240634 1.656574 -0.477848
-0.237306 1.655120 -0.477097
-0.234424 1.657193 -0.478167
-0.230887 1.653961 -0.476500
-0.228000 1.656026 -0.477565
-0.225211 1.658969 -0.479083
-0.222410 1.661909 -0.480600
-0.219295 1.662193 -0.480746
-0.215882 1.659819 -0.479521
-0.213064 1.662746 -0.481031
-0.210043 1.663900 -0.481626
-0.207019 1.665049 -0.482219
-0.203990 1.666194 -0.482809
-0.201229 1.669989 -0.484767
-0.198010 1.669354 -0.484440
-0.194793 1.668715 -0.484110
-0.191153 1.663643 -0.481494
-0.187700 1.660335 -0.479788
-0.184178 1.656137 -0.477622
-0.181075 1.656361 -0.477738
-0.177736 1.653922 -0.476480
-0.175250 1.661226 -0.480247
-0.172362 1.664095 -0.481727
-0.169316 1.665187 -0.482290
-0.166052 1.663615 -0.481480
-0.163073 1.665585 -0.482495
-0.159883 1.664890 -0.482137
-0.156697 1.664189 -0.481776
-0.153513 1.663484 -0.481412
-0.150332 1.662774 -0.481046
-0.147521 1.667381 -0.483422
-0.144455 1.668436 -0.483966
-0.141615 1.673035 -0.486338
-0.138535 1.674080 -0.486878
-0.135450 1.675122 -0.487415
-0.132309 1.675270 -0.487492
-0.129017 1.672751 -0.486192
-0.126027 1.675553 -0.487637
-0.122886 1.675687 -0.487707
-0.119835 1.677592 -0.488689
-0.116777 1.679492 -0.489669
-0.113586 1.678724 -0.489273
-0.110438 1.678839 -0.489332
-0.107290 1.678949 -0.489389
-0.104142 1.679054 -0.489443
-0.100994 1.679154 -0.489495
-0.097845 1.679249 -0.489544
-0.094728 1.680228 -0.490049
-0.091577 1.680313 -0.490093
-0.088482 1.682171 -0.491051
-0.085328 1.682247 -0.491090
-0.082173 1.682318 -0.491127
-0.079019 1.682384 -0.491161
-0.075927 1.685111 -0.492567
-0.072767 1.685167 -0.492596
-0.069606 1.685218 -0.492623
-0.066477 1.687042 -0.493564
-0.063341 1.688861 -0.494502
-0.060198 1.690675 -0.495438
-0.056954 1.684487 -0.492245
-0.053804 1.685402 -0.492718
-0.050720 1.695200 -0.497772
-0.047561 1.698772 -0.499614
-0.044381 1.700562 -0.500538
-0.041184 1.697015 -0.498708
-0.038000 1.692573 -0.496417
-0.034822 1.694348 -0.497333
-0.031644 1.694341 -0.497329
-0.028465 1.694329 -0.497322
-0.025259 1.697866 -0.499147
-0.021987 1.706731 -0.503720
-0.018753 1.709370 -0.505081
-0.015692 1.698673 -0.499563
-0.012589 1.693305 -0.496794
-0.009554 1.685265 -0.492647
-0.006306 1.689661 -0.494915
-0.003099 1.691387 -0.495805
0.000262 1.699327 -0.499901
0.003450 1.699265 -0.499869
0.006564 1.696533 -0.498459
0.009694 1.694685 -0.497506
0.012985 1.698162 -0.499300
0.016230 1.699857 -0.500174
0.019544 1.703323 -0.501962
0.022674 1.701455 -0.500998
0.025936 1.703135 -0.501865
0.029131 1.703033 -0.501812
0.032326 1.702927 -0.501758
0.035642 1.705479 -0.503074
0.038884 1.706250 -0.503472
0.042129 1.707017 -0.503867
0.045559 1.711329 -0.506091
0.048817 1.712085 -0.506481
0.052128 1.713723 -0.507326
0.055395 1.714468 -0.507711
0.058612 1.714321 -0.507635
0.061938 1.715943 -0.508472
0.065214 1.716673 -0.508848
0.068493 1.717398 -0.509222
0.071776 1.718117 -0.509593
0.075001 1.717944 -0.509504
0.078288 1.718654 -0.509870
0.081707 1.721131 -0.511148
0.085071 1.722717 -0.511966
0.088236 1.721637 -0.511409
0.091468 1.721438 -0.511306
0.094485 1.718576 -0.509830
0.098003 1.721913 -0.511551
-0.743436 1.573856 -0.437784
-0.739339 1.572487 -0.437075
-0.736015 1.572752 -0.437212
-0.733453 1.574652 -0.438196
-0.729369 1.573263 -0.437477
-0.727182 1.575977 -0.438881
-0.723481 1.575397 -0.438581
-0.719784 1.574811 -0.438278
-0.718330 1.579161 -0.440529
-0.714261 1.577740 -0.439794
-0.711679 1.579611 -0.440762
-0.707619 1.578176 -0.440019
-0.705032 1.580037 -0.440983
-0.700616 1.577762 -0.439805
-0.696575 1.576304 -0.439051
-0.691817 1.573183 -0.437435
-0.688874 1.574194 -0.437958
-0.687004 1.577688 -0.439767
-0.684766 1.580351 -0.441145
-0.681809 1.581351 -0.441663
-0.678143 1.580685 -0.441318
-0.674130 1.579181 -0.440540
-0.671175 1.580165 -0.441049
-0.667870 1.580312 -0.441125
-0.664913 1.581286 -0.441629
-0.661954 1.582255 -0.442131
-0.658993 1.583220 -0.442630
-0.656372 1.585015 -0.443559
-0.652385 1.583466 -0.442757
-0.649083 1.583580 -0.442816
-0.645446 1.582853 -0.442440
-0.642148 1.582955 -0.442493
-0.638185 1.581378 -0.441677
-0.635890 1.583981 -0.443024
-0.632595 1.584068 -0.443069
-0.630289 1.586664 -0.444413
-0.627647 1.588419 -0.445321
-0.624348 1.588491 -0.445358
-0.621051 1.588558 -0.445393
-0.617756 1.588618 -0.445424
-0.614783 1.589515 -0.445888
-0.611808 1.590406 -0.446349
-0.608196 1.589609 -0.445937
-0.604906 1.589648 -0.445957
-0.601930 1.590524 -0.446411
-0.599266 1.592240 -0.447298
-0.595354 1.590575 -0.446437
-0.592377 1.591437 -0.446883
-0.590935 1.596519 -0.449513
-0.587946 1.597374 -0.449956
-0.585259 1.599070 -0.450833
-0.581359 1.597377 -0.449957
-0.578368 1.598216 -0.450392
-0.574479 1.596509 -0.449508
-0.571491 1.597339 -0.449937
-0.569092 1.599860 -0.451242
-0.565508 1.598983 -0.450788
-0.564269 1.604894 -0.453848
-0.561264 1.605708 -0.454269
-0.557390 1.603966 -0.453367
-0.552663 1.599665 -0.451141
-0.549097 1.598758 -0.450672
-0.547240 1.602954 -0.452844
-0.544803 1.605445 -0.454133
-0.539832 1.600261 -0.451450
-0.535162 1.595920 -0.449203
-0.531343 1.594128 -0.448276
-0.528634 1.595744 -0.449112
-0.527565 1.602481 -0.452599
-0.526199 1.608365 -0.455644
-0.522375 1.606555 -0.454707
-0.519367 1.607303 -0.455094
-0.516089 1.607191 -0.455037
-0.513080 1.607930 -0.455419
-0.509805 1.607807 -0.455355
-0.506532 1.607679 -0.455289
-0.503261 1.607546 -0.455220
-0.500251 1.608265 -0.455592
-0.497239 1.608979 -0.455962
-0.494482 1.610547 -0.456773
-0.490958 1.609534 -0.456249
-0.487692 1.609374 -0.456167
-0.484678 1.610069 -0.456526
-0.481663 1.610759 -0.456883
-0.478646 1.611444 -0.457238
-0.475138 1.610403 -0.456699
-0.472609 1.612801 -0.457940
-0.469347 1.612611 -0.457841
-0.466807 1.615001 -0.459079
-0.463305 1.613939 -0.458529
-0.460282 1.614595 -0.458869
-0.457729 1.616974 -0.460100
-0.454467 1.616759 -0.459988
-0.451438 1.617402 -0.460321
-0.448639 1.618905 -0.461099
-0.445606 1.619539 -0.461427
-0.441439 1.615843 -0.459515
-0.437063 1.611274 -0.457150
-0.435385 1.617085 -0.460157
-0.434129 1.624626 -0.464060
-0.430425 1.622639 -0.463032
-0.427168 1.622378 -0.462897
-0.423695 1.621245 -0.462310
-0.420658 1.621840 -0.462618
-0.416981 1.619828 -0.461577
-0.413313 1.617809 -0.460532
-0.410492 1.619257 -0.461281
-0.409122 1.626781 -0.465176
-0.405868 1.626485 -0.465022
-0.403230 1.628792 -0.466216
-0.399367 1.625877 -0.464708
-0.396522 1.627305 -0.465447
-0.394470 1.632209 -0.467985
-0.391807 1.634501 -0.469171
-0.388548 1.634176 -0.469003
-0.383737 1.626876 -0.465225
-0.380689 1.627410 -0.465501
-0.378022 1.629682 -0.466677
-0.375914 1.634567 -0.469205
-0.372101 1.631599 -0.467669
-0.369229 1.632987 -0.468388
-0.365985 1.632625 -0.468200
-0.363290 1.634878 -0.469366
-0.360407 1.636253 -0.470078
-0.357698 1.638498 -0.471240
-0.354628 1.638991 -0.471495
-0.351556 1.639480 -0.471748
-0.348309 1.639089 -0.471545
-0.345237 1.639567 -0.471793
-0.341484 1.636541 -0.470227
-0.339259 1.641386 -0.472734
-0.335515 1.638348 -0.471162
-0.332940 1.641434 -0.472759
-0.329537 1.640136 -0.472088
-0.326463 1.640586 -0.472320
-0.323548 1.641907 -0.473004
-0.320628 1.643224 -0.473686
-0.317392 1.642783 -0.473458
-0.314622 1.644969 -0.474589
-0.311539 1.645395 -0.474809
-0.308454 1.645817 -0.475028
-0.305519 1.647112 -0.475698
-0.302135 1.645767 -0.475002
-0.299050 1.646174 -0.475213
-0.295676 1.644819 -0.474511
-0.292878 1.646974 -0.475626
-0.290072 1.649125 -0.476740
-0.287120 1.650393 -0.477396
-0.284026 1.650777 -0.477595
-0.280931 1.651155 -0.477791
-0.277701 1.650650 -0.477529
-0.274607 1.651019 -0.477720
-0.271511 1.651383 -0.477909
-0.268544 1.652623 -0.478550
-0.265700 1.654740 -0.479646
-0.262597 1.655091 -0.479827
-0.259617 1.656318 -0.480462
-0.256390 1.655777 -0.480183
-0.253045 1.654350 -0.479444
-0.249825 1.653799 -0.479159
-0.246724 1.654125 -0.479328
-0.243623 1.654446 -0.479494
-0.240747 1.656527 -0.480571
-0.237418 1.655074 -0.479819
-0.234315 1.655381 -0.479978
-0.231211 1.655683 -0.480134
-0.228319 1.657746 -0.481202
-0.225315 1.658922 -0.481810
-0.222410 1.660976 -0.482874
-0.219194 1.660376 -0.482563
-0.216279 1.662422 -0.483622
-0.213259 1.663580 -0.484221
-0.210235 1.664733 -0.484818
-0.206736 1.661461 -0.483124
-0.203620 1.661720 -0.483259
-0.200051 1.657552 -0.481101
-0.197299 1.661339 -0.483062
-0.194270 1.662468 -0.483646
-0.191409 1.665363 -0.485144
-0.187951 1.662058 -0.483434
-0.184588 1.659633 -0.482178
-0.181636 1.661628 -0.483211
-0.178363 1.660078 -0.482409
-0.175481 1.662949 -0.483895
-0.172287 1.662274 -0.483546
-0.169316 1.664252 -0.484569
-0.166338 1.666224 -0.485590
-0.162655 1.659333 -0.482023
-0.159951 1.664840 -0.484874
-0.156630 1.662369 -0.483594
-0.153706 1.665209 -0.485064
-0.150458 1.663613 -0.484238
-0.148009 1.673536 -0.489374
-0.145582 1.684343 -0.494967
-0.141615 1.672094 -0.488628
-0.138646 1.674912 -0.490086
-0.135288 1.671519 -0.488330
-0.132309 1.674328 -0.489784
-0.129169 1.674471 -0.489858
-0.126076 1.675497 -0.490389
-0.122933 1.675631 -0.490459
-0.119790 1.675761 -0.490525
-0.116689 1.676772 -0.491049
-0.113627 1.678666 -0.492029
-0.110478 1.678781 -0.492089
-0.107328 1.678891 -0.492146
-0.104142 1.678109 -0.491741
-0.101029 1.679096 -0.492252
-0.097911 1.680079 -0.492761
-0.094759 1.680170 -0.492807
-0.091637 1.681143 -0.493311
-0.088566 1.683887 -0.494731
-0.085406 1.683963 -0.494770
-0.082271 1.684922 -0.495267
-0.079132 1.685876 -0.495760
-0.075948 1.685049 -0.495333
-0.072767 1.684217 -0.494902
-0.069606 1.684269 -0.494929
-0.066462 1.685203 -0.495413
-0.063411 1.692349 -0.499111
-0.060247 1.693274 -0.499590
-0.057017 1.688866 -0.497308
-0.053795 1.683564 -0.494564
-0.050622 1.681810 -0.493657
-0.047545 1.695149 -0.500560
-0.044377 1.698714 -0.502405
-0.041185 1.696945 -0.501490
-0.038000 1.693395 -0.499652
-0.034824 1.692504 -0.499191
-0.031637 1.695161 -0.500566
-0.028471 1.692485 -0.499181
-0.025252 1.697796 -0.501930
-0.022065 1.697774 -0.501918
-0.018910 1.695082 -0.500526
-0.015802 1.689722 -0.497751
-0.012589 1.692349 -0.499111
-0.009350 1.695859 -0.500928
-0.006219 1.693148 -0.499525
-0.002984 1.695761 -0.500877
0.000052 1.689489 -0.497630
0.003495 1.700082 -0.503113
0.006809 1.704454 -0.505376
0.009982 1.703494 -0.504879
0.013124 1.701642 -0.503921
0.016319 1.701560 -0.503878
0.019544 1.702361 -0.504293
0.022807 1.704045 -0.505164
0.026006 1.703948 -0.505114
0.029131 1.702071 -0.504143
0.032403 1.703740 -0.505006
0.035602 1.703628 -0.504948
0.038926 1.706173 -0.506266
0.042434 1.712262 -0.509417
0.045559 1.710361 -0.508433
0.048770 1.710229 -0.508365
0.052030 1.710979 -0.508753
0.055445 1.714385 -0.510516
0.058612 1.713351 -0.509980
0.061938 1.714972 -0.510820
0.065214 1.715701 -0.511197
0.068436 1.715539 -0.511113
0.071598 1.714485 -0.510568
0.074879 1.715199 -0.510937
0.078225 1.716794 -0.511763
0.081449 1.716611 -0.511668
0.084540 1.714651 -0.510654
0.088032 1.718003 -0.512389
0.091398 1.719577 -0.513203
0.094628 1.719374 -0.513098
0.097857 1.719166 -0.512990
0.101835 1.727809 -0.517464
-0.743436 1.573239 -0.439304
-0.738955 1.571051 -0.438170
-0.735632 1.571315 -0.438306
-0.733453 1.574035 -0.439717
-0.730128 1.574289 -0.439849
-0.726804 1.574537 -0.439978
-0.723104 1.573957 -0.439677
-0.720533 1.575839 -0.440653
-0.716838 1.575247 -0.440346
-0.714632 1.577945 -0.441746
-0.710200 1.575692 -0.440577
-0.707250 1.576731 -0.441116
-0.703566 1.576114 -0.440796
-0.700251 1.576316 -0.440901
-0.697301 1.577340 -0.441432
-0.693264 1.575876 -0.440673
-0.689594 1.575233 -0.440339
-0.686646 1.576240 -0.440861
-0.684053 1.578072 -0.441812
-0.681099 1.579070 -0.442330
-0.677083 1.577573 -0.441553
-0.673778 1.577730 -0.441635
-0.671525 1.580376 -0.443007
-0.668915 1.582187 -0.443947
-0.664566 1.579832 -0.442725
-0.661263 1.579967 -0.442795
-0.657962 1.580097 -0.442862
-0.656030 1.583558 -0.444658
-0.653066 1.584513 -0.445153
-0.650099 1.585464 -0.445646
-0.646794 1.585574 -0.445704
-0.643155 1.584842 -0.445324
-0.640521 1.586614 -0.446243
-0.637551 1.587545 -0.446726
-0.634909 1.589310 -0.447642
-0.632262 1.591071 -0.448555
-0.628301 1.589473 -0.447726
-0.625325 1.590385 -0.448199
-0.620727 1.587093 -0.446492
-0.618401 1.589674 -0.447831
-0.615745 1.591412 -0.448732
-0.612446 1.591464 -0.448759
-0.608514 1.589826 -0.447909
-0.605537 1.590707 -0.448367
-0.603186 1.593270 -0.449696
-0.600515 1.594987 -0.450587
-0.597528 1.595856 -0.451038
-0.593613 1.594187 -0.450172
-0.591549 1.597580 -0.451932
-0.589474 1.600971 -0.453691
-0.587388 1.604360 -0.455449
-0.582568 1.600132 -0.453256
-0.579270 1.600127 -0.453253
-0.575675 1.599269 -0.452808
-0.572977 1.600947 -0.453679
-0.569092 1.599230 -0.452788
-0.567273 1.603444 -0.454974
-0.564269 1.604262 -0.455398
-0.560973 1.604225 -0.455380
-0.557968 1.605033 -0.455799
-0.552663 1.599035 -0.452687
-0.549382 1.598979 -0.452658
-0.546103 1.598918 -0.452626
-0.541979 1.596296 -0.451266
-0.540955 1.603039 -0.454764
-0.538231 1.604668 -0.455609
-0.534948 1.604588 -0.455568
-0.529737 1.598529 -0.452425
-0.526195 1.597581 -0.451933
-0.525926 1.606877 -0.456755
-0.522916 1.607630 -0.457146
-0.518829 1.604959 -0.455761
-0.515822 1.605702 -0.456146
-0.512814 1.606440 -0.456529
-0.509805 1.607173 -0.456909
-0.507056 1.608758 -0.457731
-0.504043 1.609483 -0.458107
-0.500768 1.609345 -0.458036
-0.496982 1.607486 -0.457071
-0.493971 1.608195 -0.457439
-0.491212 1.609758 -0.458250
-0.488448 1.611316 -0.459058
-0.485179 1.611153 -0.458973
-0.482160 1.611843 -0.459332
-0.478893 1.611669 -0.459241
-0.475383 1.610628 -0.458701
-0.472122 1.610443 -0.458605
-0.469105 1.611113 -0.458953
-0.466567 1.613502 -0.460192
-0.463544 1.614163 -0.460535
-0.460519 1.614820 -0.460876
-0.457494 1.615473 -0.461215
-0.454467 1.616120 -0.461551
-0.451207 1.615899 -0.461436
-0.448639 1.618265 -0.462663
-0.445606 1.618899 -0.462992
-0.442573 1.619528 -0.463318
-0.438188 1.614963 -0.460950
-0.435162 1.615581 -0.461271
-0.433686 1.622253 -0.464732
-0.431745 1.627193 -0.467295
-0.428476 1.626934 -0.467161
-0.424994 1.625804 -0.466574
-0.421732 1.625534 -0.466434
-0.419324 1.628728 -0.468091
-0.416271 1.629316 -0.468397
-0.412588 1.627296 -0.467349
-0.407875 1.620928 -0.464045
-0.405043 1.622367 -0.464792
-0.401594 1.621196 -0.464184
-0.398961 1.623495 -0.465377
-0.397125 1.629269 -0.468372
-0.395467 1.635912 -0.471818
-0.392400 1.636464 -0.472104
-0.387960 1.630917 -0.469227
-0.383931 1.627103 -0.467248
-0.381267 1.629379 -0.468429
-0.379166 1.634265 -0.470964
-0.374779 1.628690 -0.468072
-0.371726 1.629209 -0.468341
-0.369601 1.634085 -0.470870
-0.367089 1.637214 -0.472494
-0.364019 1.637721 -0.472757
-0.360949 1.638224 -0.473018
-0.357877 1.638722 -0.473276
-0.354805 1.639215 -0.473532
-0.351556 1.638830 -0.473332
-0.348483 1.639313 -0.473583
-0.345065 1.638043 -0.472924
-0.342335 1.640266 -0.474077
-0.339259 1.640735 -0.474320
-0.336016 1.640324 -0.474107
-0.332775 1.639908 -0.473891
-0.329863 1.641238 -0.474581
-0.326948 1.642563 -0.475269
-0.323708 1.642132 -0.475045
-0.319996 1.639067 -0.473455
-0.318174 1.646515 -0.477319
-0.314777 1.645193 -0.476633
-0.311998 1.647374 -0.477764
-0.307849 1.641654 -0.474797
-0.304472 1.640314 -0.474102
-0.302283 1.645992 -0.477048
-0.299635 1.649033 -0.478626
-0.296398 1.648558 -0.478379
-0.293306 1.648956 -0.478585
-0.290636 1.651985 -0.480157
-0.287537 1.652374 -0.480359
-0.284163 1.651000 -0.479646
-0.281067 1.651379 -0.479842
-0.277835 1.650874 -0.479580
-0.274739 1.651243 -0.479772
-0.271511 1.650727 -0.479504
-0.268158 1.649326 -0.478777
-0.265319 1.651441 -0.479875
-0.262347 1.652671 -0.480513
-0.259247 1.653017 -0.480692
-0.255902 1.651595 -0.479954
-0.252925 1.652811 -0.480585
-0.249825 1.653142 -0.480757
-0.246957 1.655231 -0.481841
-0.243738 1.654670 -0.481550
-0.240973 1.657633 -0.483087
-0.237864 1.657945 -0.483249
-0.234863 1.659134 -0.483866
-0.231643 1.658554 -0.483565
-0.228532 1.658852 -0.483719
-0.225420 1.659145 -0.483871
-0.222718 1.662964 -0.485853
-0.219295 1.660599 -0.484626
-0.216577 1.664410 -0.486603
-0.213259 1.662918 -0.485829
-0.211002 1.671139 -0.490094
-0.207583 1.668754 -0.488856
-0.203528 1.660175 -0.484406
-0.200323 1.659545 -0.484079
-0.197476 1.662447 -0.485584
-0.194880 1.667997 -0.488464
-0.191580 1.666469 -0.487671
-0.188202 1.664051 -0.486416
-0.185162 1.665166 -0.486995
-0.182518 1.670700 -0.489866
-0.179148 1.668267 -0.488604
-0.175481 1.662288 -0.485502
-0.172287 1.661613 -0.485152
-0.168730 1.656507 -0.482503
-0.165623 1.656707 -0.482607
-0.163143 1.664872 -0.486842
-0.160360 1.669491 -0.489239
-0.157624 1.674993 -0.492093
-0.154481 1.675176 -0.492188
-0.151086 1.671810 -0.490442
-0.147887 1.671097 -0.490072
-0.144870 1.673037 -0.491078
-0.141903 1.675859 -0.492542
-0.138646 1.674245 -0.491705
-0.135396 1.672625 -0.490865
-0.132362 1.674547 -0.491861
-0.129219 1.674690 -0.491936
-0.126125 1.675716 -0.492468
-0.122980 1.675850 -0.492538
-0.119790 1.675092 -0.492145
-0.116646 1.675217 -0.492209
-0.113418 1.673562 -0.491351
-0.110358 1.675451 -0.492330
-0.107328 1.678221 -0.493768
-0.104215 1.679214 -0.494283
-0.101098 1.680201 -0.494795
-0.097845 1.677634 -0.493463
-0.094665 1.676838 -0.493050
-0.091607 1.679585 -0.494475
-0.088538 1.682327 -0.495898
-0.085380 1.682403 -0.495937
-0.082320 1.686024 -0.497816
-0.079178 1.686977 -0.498310
-0.076052 1.688814 -0.499263
-0.072882 1.688870 -0.499292
-0.069746 1.690697 -0.500240
-0.066556 1.689856 -0.499804
-0.063397 1.690785 -0.500286
-0.060223 1.690822 -0.500305
-0.057006 1.687304 -0.498480
-0.053839 1.687331 -0.498494
-0.050692 1.690016 -0.499886
-0.047535 1.692696 -0.501277
-0.044357 1.692708 -0.501283
-0.041178 1.692715 -0.501287
-0.038000 1.695381 -0.502670
-0.034820 1.693603 -0.501748
-0.031626 1.697146 -0.503586
-0.028471 1.691808 -0.500816
-0.025315 1.689128 -0.499426
-0.022118 1.691769 -0.500796
-0.018826 1.701505 -0.505847
-0.015618 1.702361 -0.506291
-0.012505 1.696998 -0.503509
-0.009397 1.692518 -0.501185
-0.006149 1.696022 -0.503002
-0.002926 1.697745 -0.503896
0.000304 1.699463 -0.504788
0.003359 1.694077 -0.501993
0.006418 1.689573 -0.499657
0.009642 1.691277 -0.500541
0.012901 1.693862 -0.501882
0.016378 1.702654 -0.506443
0.019544 1.701680 -0.505938
0.022740 1.701588 -0.505890
0.025971 1.702379 -0.506300
0.029205 1.703164 -0.506708
0.032442 1.703945 -0.507113
0.035722 1.705607 -0.507975
0.039009 1.707264 -0.508835
0.042390 1.710689 -0.510612
0.045831 1.714996 -0.512846
0.049100 1.715750 -0.513237
0.052323 1.715613 -0.513166
0.055445 1.713697 -0.512172
0.058769 1.715323 -0.513016
0.061829 1.712511 -0.511557
0.065437 1.718558 -0.514694
0.068436 1.714851 -0.512771
0.071717 1.715569 -0.513143
0.074940 1.715397 -0.513054
0.078288 1.716991 -0.513881
0.081643 1.718580 -0.514705
0.084872 1.718392 -0.514608
0.087964 1.716428 -0.513589
0.091119 1.715345 -0.513027
