# This PCD file was generated using the MATLAB® pcwrite function
# from Computer Vision System Toolbox®.
# .PCD v.7 - Point Cloud Data file format
VERSION .7
FIELDS x y z
SIZE 4 4 4
TYPE F F F
COUNT 1 1 1
WIDTH 1645
HEIGHT 1
VIEWPOINT 0 0 0 1 0 0 0
POINTS 1645
DATA ascii
-0.295842 2.157560 -0.254948
-0.293275 2.168493 -0.258081
-0.289651 2.170829 -0.258750
-0.286130 2.174114 -0.259691
-0.282378 2.175482 -0.260084
-0.278731 2.177800 -0.260748
-0.275181 2.181069 -0.261684
-0.271517 2.183375 -0.262345
-0.267844 2.185677 -0.263005
-0.263861 2.185102 -0.262840
-0.260377 2.189304 -0.264044
-0.256391 2.188717 -0.263876
-0.252790 2.191951 -0.264803
-0.248614 2.189437 -0.264082
-0.245187 2.194573 -0.265554
-0.241651 2.198747 -0.266750
-0.238279 2.204830 -0.268494
-0.987207 1.786207 -0.145215
-0.989610 1.798026 -0.148580
-0.987355 1.801327 -0.149519
-0.985091 1.804626 -0.150458
-0.982818 1.807922 -0.151397
-0.979622 1.809506 -0.151847
-0.975967 1.810228 -0.152053
-0.971858 1.810085 -0.152012
-0.967301 1.809077 -0.151725
-0.964102 1.810634 -0.152169
-0.960901 1.812186 -0.152611
-0.957697 1.813733 -0.153051
-0.953598 1.813553 -0.152999
-0.949502 1.813364 -0.152946
-0.946739 1.815753 -0.153626
-0.942204 1.814687 -0.153322
-0.938995 1.816203 -0.153754
-0.935784 1.817712 -0.154184
-0.932570 1.819217 -0.154612
-0.930224 1.822447 -0.155531
-0.928302 1.826542 -0.156697
-0.924640 1.827167 -0.156875
-0.920978 1.827784 -0.157051
-0.917317 1.828395 -0.157224
-0.914084 1.829868 -0.157644
-0.911699 1.833077 -0.158557
-0.909306 1.836282 -0.159470
-0.905213 1.835999 -0.159389
-0.901545 1.836580 -0.159554
-0.897877 1.837153 -0.159718
-0.896299 1.842089 -0.161123
-0.891792 1.840904 -0.160785
-0.888536 1.842335 -0.161192
-0.885277 1.843760 -0.161598
-0.882428 1.846056 -0.162252
-0.879572 1.848348 -0.162904
-0.875894 1.848880 -0.163055
-0.873030 1.851162 -0.163705
-0.870566 1.854320 -0.164604
-0.867689 1.856594 -0.165252
-0.864807 1.858865 -0.165898
-0.860317 1.857606 -0.165539
-0.856632 1.858102 -0.165681
-0.852948 1.858591 -0.165820
-0.850450 1.861722 -0.166711
-0.845975 1.860432 -0.166344
-0.844253 1.865324 -0.167736
-0.840171 1.864904 -0.167617
-0.842319 1.878651 -0.171530
-0.835895 1.872906 -0.169895
-0.836440 1.883115 -0.172801
-0.823884 1.863142 -0.167115
-0.822118 1.868013 -0.168502
-0.818432 1.868437 -0.168623
-0.818921 1.878643 -0.171528
-0.814085 1.876389 -0.170886
-0.814527 1.886600 -0.173793
-0.810813 1.887009 -0.173909
-0.806355 1.885627 -0.173516
-0.806731 1.895844 -0.176424
-0.802636 1.895344 -0.176282
-0.800754 1.900202 -0.177665
-0.795192 1.896110 -0.176500
-0.791471 1.896483 -0.176606
-0.788477 1.898641 -0.177220
-0.784393 1.898105 -0.177068
-0.780673 1.898457 -0.177168
-0.777313 1.899701 -0.177522
-0.775021 1.903635 -0.178642
-0.772361 1.906668 -0.179505
-0.769339 1.908797 -0.180111
-0.766312 1.910922 -0.180716
-0.762929 1.912142 -0.181063
-0.759544 1.913356 -0.181409
-0.755463 1.912760 -0.181239
-0.753113 1.916670 -0.182352
-0.749376 1.916964 -0.182436
-0.747350 1.921771 -0.183804
-0.743607 1.922054 -0.183885
-0.740204 1.923236 -0.184221
-0.736798 1.924412 -0.184556
-0.733391 1.925582 -0.184889
-0.730315 1.927653 -0.185479
-0.727234 1.929720 -0.186067
-0.724478 1.932689 -0.186912
-0.724016 1.942013 -0.189566
-0.721885 1.946797 -0.190928
-0.717461 1.945214 -0.190478
-0.715635 1.950902 -0.192097
-0.710891 1.948394 -0.191383
-0.704875 1.942233 -0.189629
-0.699522 1.937880 -0.188390
-0.695773 1.938075 -0.188445
-0.691393 1.936439 -0.187980
-0.689534 1.942098 -0.189591
-0.684846 1.939535 -0.188861
-0.684828 1.950674 -0.192032
-0.679828 1.947183 -0.191038
-0.675458 1.945512 -0.190562
-0.671095 1.943832 -0.190084
-0.670389 1.953138 -0.192733
-0.669348 1.961531 -0.195122
-0.666776 1.965340 -0.196206
-0.662696 1.964557 -0.195983
-0.658324 1.962847 -0.195497
-0.654847 1.963886 -0.195793
-0.651074 1.963999 -0.195825
-0.648472 1.967785 -0.196902
-0.645858 1.971567 -0.197979
-0.643233 1.975347 -0.199055
-0.639733 1.976360 -0.199343
-0.636231 1.977367 -0.199630
-0.633012 1.979291 -0.200178
-0.629223 1.979364 -0.200198
-0.626277 1.982200 -0.201006
-0.622765 1.983184 -0.201286
-0.619252 1.984163 -0.201564
-0.615736 1.985135 -0.201841
-0.612492 1.987027 -0.202380
-0.609244 1.988914 -0.202917
-0.607073 1.994500 -0.204507
-0.603538 1.995452 -0.204778
-0.600270 1.997325 -0.205311
-0.596996 1.999193 -0.205843
-0.592925 1.998273 -0.205581
-0.589908 2.001058 -0.206374
-0.585841 2.000124 -0.206108
-0.583332 2.004757 -0.207427
-0.576693 1.994516 -0.204512
-0.574692 2.000997 -0.206356
-0.571907 2.004686 -0.207406
-0.570875 2.014886 -0.210310
-0.567804 2.017640 -0.211094
-0.565720 2.024116 -0.212937
-0.562132 2.024999 -0.213189
-0.559524 2.029605 -0.214500
-0.557874 2.037940 -0.216872
-0.553052 2.034144 -0.215792
-0.549446 2.035005 -0.216037
-0.545122 2.033059 -0.215483
-0.540097 2.028300 -0.214128
-0.536031 2.027271 -0.213835
-0.532904 2.029974 -0.214605
-0.529769 2.032673 -0.215373
-0.526626 2.035368 -0.216140
-0.523702 2.038994 -0.217172
-0.520314 2.040743 -0.217670
-0.516246 2.039675 -0.217366
-0.510844 2.032975 -0.215459
-0.509234 2.042207 -0.218087
-0.508691 2.056130 -0.222050
-0.504172 2.053163 -0.221206
-0.500531 2.053942 -0.221428
-0.496460 2.052837 -0.221113
-0.494098 2.059242 -0.222936
-0.490869 2.061884 -0.223688
-0.486374 2.058880 -0.222833
-0.482931 2.060570 -0.223314
-0.480720 2.067902 -0.225401
-0.477667 2.071466 -0.226416
-0.475007 2.076910 -0.227966
-0.469915 2.071046 -0.226296
-0.465245 2.067055 -0.225160
-0.460591 2.063056 -0.224022
-0.460068 2.078852 -0.228518
-0.457158 2.083331 -0.229793
-0.454425 2.088751 -0.231336
-0.449957 2.085670 -0.230459
-0.445501 2.082581 -0.229580
-0.441619 2.082317 -0.229505
-0.437740 2.082047 -0.229428
-0.434047 2.082715 -0.229618
-0.430900 2.086213 -0.230614
-0.427380 2.087816 -0.231070
-0.423855 2.089412 -0.231524
-0.420149 2.090057 -0.231708
-0.416968 2.093536 -0.232698
-0.413775 2.097011 -0.233687
-0.410227 2.098586 -0.234136
-0.406674 2.100155 -0.234582
-0.402780 2.099823 -0.234488
-0.399388 2.102329 -0.235201
-0.395988 2.104830 -0.235913
-0.392581 2.107325 -0.236623
-0.389004 2.108866 -0.237062
-0.385102 2.108503 -0.236959
-0.380729 2.105284 -0.236042
-0.378089 2.112506 -0.238098
-0.375733 2.121626 -0.240694
-0.372274 2.124090 -0.241395
-0.367446 2.117993 -0.239660
-0.365632 2.130905 -0.243335
-0.361259 2.127647 -0.242408
-0.358360 2.133896 -0.244187
-0.355006 2.137285 -0.245152
-0.351071 2.136863 -0.245031
-0.345165 2.123102 -0.241114
-0.341676 2.125519 -0.241802
-0.339966 2.140316 -0.246014
-0.337117 2.147490 -0.248056
-0.334779 2.158473 -0.251183
-0.330551 2.156108 -0.250509
-0.327768 2.164224 -0.252820
-0.323153 2.158985 -0.251328
-0.318813 2.155644 -0.250377
-0.314986 2.156112 -0.250511
-0.311036 2.155620 -0.250371
-0.307453 2.157984 -0.251044
-0.303623 2.158433 -0.251171
-0.300028 2.160786 -0.251841
-0.296076 2.160267 -0.251693
-0.292816 2.165475 -0.253176
-0.289651 2.171633 -0.254929
-0.286018 2.173963 -0.255592
-0.282378 2.176289 -0.256254
-0.278731 2.178608 -0.256914
-0.274969 2.179965 -0.257300
-0.271203 2.181316 -0.257685
-0.267125 2.179791 -0.257251
-0.263659 2.184000 -0.258449
-0.260079 2.187247 -0.259373
-0.256683 2.192402 -0.260841
-0.253078 2.195638 -0.261762
-0.249179 2.195996 -0.261864
-0.245003 2.193474 -0.261146
-0.241289 2.195734 -0.261789
-0.238012 2.202778 -0.263794
-0.988602 1.788778 -0.145858
-0.989610 1.798043 -0.148495
-0.986432 1.799637 -0.148949
-0.983250 1.801227 -0.149401
-0.980525 1.803666 -0.150095
-0.977793 1.806101 -0.150788
-0.974600 1.807675 -0.151236
-0.970043 1.806674 -0.150951
-0.966848 1.808236 -0.151396
-0.963652 1.809793 -0.151839
-0.961351 1.813062 -0.152770
-0.957697 1.813749 -0.152965
-0.954490 1.815291 -0.153404
-0.949947 1.814242 -0.153105
-0.945853 1.814046 -0.153049
-0.942204 1.814704 -0.153237
-0.938995 1.816219 -0.153668
-0.935346 1.816864 -0.153852
-0.931260 1.816638 -0.153787
-0.927612 1.817268 -0.153967
-0.925267 1.820493 -0.154884
-0.924208 1.826316 -0.156542
-0.921839 1.829537 -0.157458
-0.917317 1.828412 -0.157138
-0.914511 1.830755 -0.157805
-0.910422 1.830483 -0.157728
-0.908033 1.833687 -0.158639
-0.903945 1.833401 -0.158558
-0.901123 1.835724 -0.159219
-0.897877 1.837170 -0.159631
-0.895045 1.839485 -0.160290
-0.890959 1.839172 -0.160201
-0.887706 1.840601 -0.160607
-0.884864 1.842901 -0.161262
-0.882428 1.846073 -0.162164
-0.878752 1.846610 -0.162317
-0.875486 1.848019 -0.162718
-0.871810 1.848543 -0.162868
-0.869351 1.851699 -0.163766
-0.866075 1.853092 -0.164162
-0.863601 1.856240 -0.165058
-0.859516 1.855861 -0.164950
-0.855834 1.856355 -0.165091
-0.850565 1.853312 -0.164225
-0.846495 1.852906 -0.164109
-0.844005 1.856029 -0.164998
-0.841114 1.858263 -0.165634
-0.837045 1.857838 -0.165513
-0.836871 1.866265 -0.167911
-0.833182 1.866717 -0.168040
-0.830265 1.868936 -0.168671
-0.823115 1.861384 -0.166522
-0.820970 1.865365 -0.167655
-0.819194 1.870233 -0.169041
-0.818541 1.877771 -0.171186
-0.816730 1.882640 -0.172572
-0.811517 1.879489 -0.171675
-0.805194 1.873651 -0.170013
-0.804490 1.881182 -0.172157
-0.804132 1.889610 -0.174555
-0.800418 1.890000 -0.174666
-0.795232 1.886806 -0.173757
-0.792260 1.888969 -0.174373
-0.789281 1.891128 -0.174987
-0.787387 1.895971 -0.176366
-0.784032 1.897226 -0.176723
-0.781033 1.899373 -0.177334
-0.777313 1.899719 -0.177432
-0.774664 1.902754 -0.178296
-0.771296 1.903988 -0.178647
-0.768986 1.907916 -0.179765
-0.763849 1.904638 -0.178832
-0.762929 1.912160 -0.180973
-0.759893 1.914276 -0.181575
-0.757198 1.917289 -0.182433
-0.753113 1.916688 -0.182262
-0.749719 1.917886 -0.182603
-0.745298 1.916366 -0.182170
-0.741905 1.917551 -0.182507
-0.738849 1.919634 -0.183100
-0.736461 1.923524 -0.184208
-0.733727 1.926506 -0.185056
-0.730649 1.928578 -0.185646
-0.726902 1.928830 -0.185718
-0.723817 1.930892 -0.186304
-0.721056 1.933857 -0.187148
-0.722213 1.947725 -0.191095
-0.718763 1.948870 -0.191421
-0.713692 1.945460 -0.190451
-0.706057 1.934755 -0.187404
-0.702951 1.936785 -0.187981
-0.700797 1.941545 -0.189336
-0.697676 1.943566 -0.189912
-0.694234 1.944671 -0.190226
-0.689848 1.943030 -0.189759
-0.685158 1.940467 -0.189029
-0.682654 1.944293 -0.190118
-0.684773 1.961837 -0.195111
-0.682527 1.966581 -0.196462
-0.678432 1.965829 -0.196247
-0.674341 1.965068 -0.196031
-0.669651 1.962466 -0.195291
-0.665573 1.961689 -0.195069
-0.660603 1.958151 -0.194062
-0.659513 1.966539 -0.196450
-0.655143 1.964823 -0.195961
-0.651956 1.966776 -0.196517
-0.648180 1.966883 -0.196548
-0.645277 1.969746 -0.197362
-0.642076 1.971683 -0.197914
-0.638871 1.973615 -0.198464
-0.636231 1.977386 -0.199537
-0.633012 1.979309 -0.200084
-0.629788 1.981228 -0.200630
-0.626277 1.982219 -0.200912
-0.622765 1.983203 -0.201192
-0.618974 1.983258 -0.201208
-0.614633 1.981456 -0.200695
-0.611397 1.983346 -0.201233
-0.608427 1.986157 -0.202033
-0.605720 1.989889 -0.203095
-0.603001 1.993618 -0.204157
-0.599201 1.993637 -0.204162
-0.596199 1.996431 -0.204957
-0.591870 1.994582 -0.204431
-0.588859 1.997365 -0.205223
-0.585841 2.000144 -0.206014
-0.582814 2.002918 -0.206803
-0.580807 2.009407 -0.208650
-0.578779 2.015894 -0.210496
-0.576474 2.021451 -0.212078
-0.568102 2.004668 -0.207301
-0.566051 2.011142 -0.209144
-0.561492 2.008298 -0.208335
-0.559909 2.016630 -0.210706
-0.555108 2.012841 -0.209627
-0.551540 2.013706 -0.209874
-0.547971 2.014565 -0.210118
-0.547283 2.026622 -0.213549
-0.543691 2.027474 -0.213792
-0.540334 2.029255 -0.214299
-0.536266 2.028225 -0.214006
-0.531737 2.025317 -0.213178
-0.529074 2.029886 -0.214478
-0.526856 2.036323 -0.216310
-0.526214 2.049314 -0.220008
-0.521674 2.046383 -0.219174
-0.517596 2.045318 -0.218870
-0.513076 2.042370 -0.218031
-0.509898 2.045040 -0.218791
-0.506492 2.046767 -0.219283
-0.502645 2.046612 -0.219239
-0.499233 2.048328 -0.219727
-0.496030 2.050978 -0.220481
-0.493885 2.058322 -0.222571
-0.490658 2.060964 -0.223323
-0.487213 2.062661 -0.223806
-0.482931 2.060590 -0.223217
-0.479277 2.061334 -0.223429
-0.475213 2.060189 -0.223103
-0.472776 2.066571 -0.224919
-0.468709 2.065413 -0.224590
-0.464647 2.064248 -0.224258
-0.461184 2.065904 -0.224729
-0.457717 2.067554 -0.225199
-0.455021 2.072973 -0.226741
-0.450960 2.071783 -0.226402
-0.446904 2.070585 -0.226061
-0.443988 2.075046 -0.227331
-0.441057 2.079503 -0.228600
-0.437740 2.082067 -0.229329
-0.434047 2.082735 -0.229519
-0.430535 2.084342 -0.229977
-0.426658 2.084052 -0.229894
-0.423676 2.088487 -0.231156
-0.419795 2.088184 -0.231070
-0.416441 2.090716 -0.231791
-0.412559 2.090401 -0.231701
-0.409539 2.094817 -0.232958
-0.405993 2.096385 -0.233404
-0.402611 2.098896 -0.234119
-0.399555 2.103298 -0.235372
-0.395823 2.103902 -0.235544
-0.392417 2.106397 -0.236254
-0.388680 2.106989 -0.236422
-0.384942 2.107574 -0.236589
-0.381203 2.108154 -0.236754
-0.378245 2.113476 -0.238268
-0.374805 2.115945 -0.238971
-0.372733 2.126962 -0.242107
-0.366841 2.114211 -0.238478
-0.363688 2.118563 -0.239716
-0.359042 2.113400 -0.238247
-0.355877 2.117742 -0.239482
-0.351975 2.117320 -0.239362
-0.348218 2.117844 -0.239512
-0.345587 2.125979 -0.241827
-0.342093 2.128397 -0.242515
-0.338729 2.131763 -0.243473
-0.336439 2.142746 -0.246599
-0.333038 2.146103 -0.247554
-0.329493 2.148502 -0.248237
-0.324636 2.141360 -0.246204
-0.321350 2.145653 -0.247426
-0.317542 2.146126 -0.247561
-0.314234 2.150408 -0.248780
-0.310418 2.150869 -0.248911
-0.306844 2.153232 -0.249583
-0.303142 2.154635 -0.249983
-0.299554 2.156987 -0.250652
-0.295842 2.158378 -0.251048
-0.292241 2.160719 -0.251714
-0.288858 2.164965 -0.252922
-0.285907 2.173029 -0.255217
-0.282269 2.175354 -0.255879
-0.278407 2.175761 -0.255995
-0.274544 2.176161 -0.256109
-0.270889 2.178468 -0.256765
-0.267022 2.178856 -0.256876
-0.263760 2.184978 -0.258618
-0.259781 2.184397 -0.258453
-0.256586 2.191467 -0.260465
-0.252407 2.188958 -0.259751
-0.248803 2.192187 -0.260670
-0.245003 2.193496 -0.261042
-0.241108 2.193840 -0.261140
-0.237390 2.196094 -0.261782
-0.987097 1.779610 -0.138083
-0.986743 1.786315 -0.139971
-0.989610 1.798995 -0.143543
-0.985046 1.798030 -0.143271
-0.982790 1.801327 -0.144199
-0.979149 1.802057 -0.144405
-0.975508 1.802779 -0.144608
-0.973234 1.806065 -0.145534
-0.970043 1.807634 -0.145975
-0.966396 1.808338 -0.146174
-0.964102 1.811614 -0.147096
-0.960901 1.813167 -0.147534
-0.957697 1.814714 -0.147969
-0.953598 1.814534 -0.147919
-0.947724 1.810897 -0.146894
-0.944081 1.811559 -0.147081
-0.942204 1.815670 -0.148239
-0.938995 1.817186 -0.148666
-0.935784 1.818697 -0.149091
-0.932570 1.820203 -0.149515
-0.929789 1.822569 -0.150182
-0.926567 1.824065 -0.150603
-0.922912 1.824687 -0.150778
-0.920548 1.827908 -0.151685
-0.916888 1.828519 -0.151857
-0.914084 1.830863 -0.152517
-0.909996 1.830590 -0.152441
-0.906336 1.831180 -0.152607
-0.903100 1.832637 -0.153017
-0.900281 1.834960 -0.153671
-0.897877 1.838154 -0.154571
-0.894210 1.838721 -0.154730
-0.890959 1.840157 -0.155135
-0.888951 1.844215 -0.156278
-0.885690 1.845642 -0.156679
-0.882016 1.846186 -0.156833
-0.878752 1.847601 -0.157231
-0.875894 1.849889 -0.157876
-0.872624 1.851294 -0.158271
-0.868540 1.850933 -0.158170
-0.865268 1.852326 -0.158562
-0.862797 1.855476 -0.159449
-0.859917 1.857741 -0.160087
-0.857031 1.860001 -0.160724
-0.850962 1.855191 -0.159369
-0.847682 1.856554 -0.159753
-0.843217 1.855257 -0.159388
-0.841506 1.860149 -0.160765
-0.837436 1.859724 -0.160645
-0.835704 1.864611 -0.162022
-0.833957 1.869497 -0.163398
-0.827950 1.864616 -0.162023
-0.824652 1.865940 -0.162396
-0.821736 1.868148 -0.163018
-0.820719 1.874802 -0.164892
-0.817782 1.877005 -0.165512
-0.816352 1.882768 -0.167135
-0.815656 1.890315 -0.169261
-0.812687 1.892512 -0.169879
-0.811577 1.899169 -0.171754
-0.805989 1.895103 -0.170609
-0.799309 1.888342 -0.168705
-0.793760 1.884248 -0.167552
-0.790427 1.885515 -0.167909
-0.788916 1.891257 -0.169526
-0.788114 1.898793 -0.171649
-0.784755 1.900051 -0.172003
-0.781033 1.900404 -0.172102
-0.778030 1.902549 -0.172706
-0.774307 1.902890 -0.172802
-0.771651 1.905923 -0.173657
-0.767219 1.904452 -0.173242
-0.764905 1.908377 -0.174348
-0.762579 1.912300 -0.175453
-0.759544 1.914417 -0.176049
-0.756504 1.916529 -0.176644
-0.752422 1.915927 -0.176474
-0.749719 1.918932 -0.177320
-0.746324 1.920125 -0.177656
-0.743266 1.922217 -0.178245
-0.739865 1.923399 -0.178578
-0.736798 1.925481 -0.179165
-0.733727 1.927559 -0.179750
-0.729982 1.927818 -0.179823
-0.726570 1.928977 -0.180149
-0.722826 1.929223 -0.180218
-0.719083 1.929461 -0.180286
-0.714687 1.927874 -0.179839
-0.713880 1.936289 -0.182208
-0.713368 1.945617 -0.184836
-0.707990 1.941282 -0.183615
-0.703913 1.940581 -0.183417
-0.701116 1.943521 -0.184245
-0.699580 1.950110 -0.186101
-0.695181 1.948478 -0.185641
-0.692046 1.950493 -0.186209
-0.688594 1.951589 -0.186517
-0.683586 1.948105 -0.185536
-0.687554 1.971157 -0.192028
-0.681297 1.964001 -0.190013
-0.682711 1.979743 -0.194446
-0.673733 1.964317 -0.190102
-0.671465 1.969052 -0.191436
-0.665874 1.963688 -0.189925
-0.660902 1.960147 -0.188928
-0.658324 1.963948 -0.189998
-0.656030 1.968665 -0.191326
-0.652544 1.969700 -0.191618
-0.648180 1.967968 -0.191130
-0.645568 1.971753 -0.192196
-0.641498 1.970928 -0.191964
-0.638296 1.972861 -0.192508
-0.635374 1.975711 -0.193311
-0.631308 1.974866 -0.193073
-0.628941 1.979553 -0.194393
-0.625716 1.981467 -0.194932
-0.623602 1.987073 -0.196511
-0.619252 1.985280 -0.196006
-0.614909 1.983477 -0.195498
-0.611123 1.983518 -0.195510
-0.608427 1.987256 -0.196562
-0.605720 1.990992 -0.197614
-0.602732 1.993796 -0.198404
-0.599201 1.994742 -0.198671
-0.596730 1.999394 -0.199981
-0.592925 1.999401 -0.199983
-0.589122 1.999402 -0.199983
-0.585320 1.999396 -0.199981
-0.581779 2.000312 -0.200239
-0.578493 2.002153 -0.200758
-0.575202 2.003989 -0.201275
-0.574444 2.015130 -0.204412
-0.569362 2.010439 -0.203091
-0.565551 2.010397 -0.203079
-0.562238 2.012212 -0.203591
-0.560156 2.018686 -0.205414
-0.554372 2.011162 -0.203295
-0.550810 2.012027 -0.203538
-0.549181 2.020357 -0.205884
-0.546563 2.024950 -0.207178
-0.543691 2.028606 -0.208208
-0.537965 2.021036 -0.206076
-0.536031 2.028422 -0.208156
-0.531270 2.024576 -0.207073
-0.529537 2.032892 -0.209415
-0.527316 2.039335 -0.211229
-0.525529 2.047651 -0.213571
-0.520994 2.044717 -0.212745
-0.517596 2.046463 -0.213237
-0.513746 2.046328 -0.213199
-0.510341 2.048063 -0.213687
-0.506712 2.048853 -0.213910
-0.502863 2.048698 -0.213866
-0.499233 2.049476 -0.214085
-0.495816 2.051188 -0.214567
-0.492820 2.054775 -0.215578
-0.489812 2.058359 -0.216587
-0.486165 2.059115 -0.216800
-0.483555 2.064572 -0.218337
-0.480308 2.067202 -0.219077
-0.475008 2.060404 -0.217163
-0.471154 2.060192 -0.217103
-0.467502 2.060917 -0.217307
-0.464448 2.064465 -0.218307
-0.461382 2.068009 -0.219305
-0.459284 2.076269 -0.221631
-0.455992 2.078861 -0.222361
-0.453655 2.086173 -0.224420
-0.448430 2.079309 -0.222487
-0.444933 2.080940 -0.222947
-0.441245 2.081621 -0.223138
-0.437740 2.083241 -0.223595
-0.434415 2.085802 -0.224316
-0.430900 2.087411 -0.224769
-0.427560 2.089962 -0.225487
-0.424034 2.091560 -0.225937
-0.419795 2.089363 -0.225319
-0.415915 2.089054 -0.225232
-0.412385 2.090634 -0.225676
-0.409367 2.095052 -0.226921
-0.405993 2.097570 -0.227630
-0.402274 2.098185 -0.227803
-0.398721 2.099743 -0.228242
-0.395493 2.103194 -0.229214
-0.391927 2.104742 -0.229650
-0.388680 2.108182 -0.230619
-0.384622 2.106868 -0.230249
-0.381994 2.114100 -0.232285
-0.379027 2.119429 -0.233786
-0.374495 2.115244 -0.232607
-0.370897 2.116757 -0.233034
-0.367446 2.119216 -0.233726
-0.363838 2.120718 -0.234149
-0.360668 2.125070 -0.235375
-0.357045 2.126561 -0.235795
-0.354862 2.137571 -0.238895
-0.349216 2.125715 -0.235556
-0.347560 2.140529 -0.239729
-0.343763 2.141046 -0.239874
-0.340653 2.146324 -0.241360
-0.336710 2.145875 -0.241234
-0.331296 2.134927 -0.238151
-0.327245 2.133509 -0.237751
-0.323983 2.137809 -0.238962
-0.320835 2.143059 -0.240441
-0.317161 2.144485 -0.240843
-0.313858 2.148771 -0.242050
-0.309923 2.148276 -0.241910
-0.307088 2.156373 -0.244191
-0.303142 2.155866 -0.244048
-0.299554 2.158220 -0.244711
-0.295726 2.158656 -0.244834
-0.292356 2.162911 -0.246032
-0.288745 2.165247 -0.246690
-0.285684 2.172361 -0.248693
-0.281939 2.173731 -0.249079
-0.278191 2.175094 -0.249463
-0.274650 2.178366 -0.250384
-0.271098 2.181632 -0.251304
-0.267330 2.182978 -0.251683
-0.263356 2.182402 -0.251521
-0.259682 2.184693 -0.252166
-0.256391 2.190810 -0.253889
-0.252599 2.192132 -0.254261
-0.248614 2.191531 -0.254092
-0.244725 2.191881 -0.254191
-0.240111 2.184557 -0.252128
-0.987207 1.787703 -0.137385
-0.989610 1.799536 -0.140697
-0.986893 1.801987 -0.141384
-0.983250 1.802724 -0.141590
-0.978232 1.800888 -0.141076
-0.975051 1.802465 -0.141517
-0.973689 1.807466 -0.142917
-0.971858 1.811610 -0.144077
-0.968658 1.813177 -0.144516
-0.963652 1.811301 -0.143991
-0.959553 1.811133 -0.143944
-0.956354 1.812680 -0.144377
-0.952706 1.813358 -0.144567
-0.948168 1.812305 -0.144272
-0.944967 1.813832 -0.144699
-0.941321 1.814490 -0.144883
-0.938555 1.816870 -0.145550
-0.934907 1.817516 -0.145730
-0.932133 1.819887 -0.146394
-0.928483 1.820520 -0.146571
-0.924833 1.821146 -0.146747
-0.921615 1.822634 -0.147163
-0.917965 1.823247 -0.147335
-0.914743 1.824723 -0.147748
-0.912374 1.827935 -0.148647
-0.910422 1.832016 -0.149789
-0.907185 1.833480 -0.150199
-0.903945 1.834938 -0.150607
-0.900702 1.836391 -0.151014
-0.896618 1.836090 -0.150930
-0.893374 1.837530 -0.151333
-0.889711 1.838089 -0.151489
-0.886462 1.839518 -0.151889
-0.884451 1.843572 -0.153024
-0.882016 1.846748 -0.153913
-0.878342 1.847285 -0.154063
-0.875077 1.848695 -0.154458
-0.872217 1.850979 -0.155097
-0.868135 1.850617 -0.154996
-0.866075 1.854653 -0.156126
-0.862797 1.856042 -0.156515
-0.860317 1.859190 -0.157396
-0.857031 1.860569 -0.157782
-0.852153 1.858408 -0.157177
-0.851637 1.865965 -0.159292
-0.846763 1.863789 -0.158683
-0.842683 1.863374 -0.158567
-0.837436 1.860292 -0.157704
-0.840374 1.875826 -0.162053
-0.836282 1.875396 -0.161932
-0.831037 1.872293 -0.161064
-0.826958 1.871845 -0.160938
-0.825180 1.876727 -0.162305
-0.821100 1.876267 -0.162176
-0.817782 1.877580 -0.162544
-0.814841 1.879780 -0.163159
-0.813398 1.885544 -0.164773
-0.809315 1.885058 -0.164637
-0.805982 1.886352 -0.164999
-0.804132 1.891216 -0.166361
-0.800788 1.892501 -0.166720
-0.795968 1.890199 -0.166076
-0.788595 1.881614 -0.163673
-0.788552 1.890942 -0.166284
-0.785208 1.892201 -0.166636
-0.784032 1.898841 -0.168495
-0.780313 1.899194 -0.168594
-0.777313 1.901337 -0.169194
-0.774307 1.903477 -0.169793
-0.771296 1.905612 -0.170390
-0.767572 1.905940 -0.170482
-0.764553 1.908065 -0.171077
-0.761528 1.910186 -0.171671
-0.758150 1.911399 -0.172010
-0.755116 1.913509 -0.172601
-0.751386 1.913808 -0.172685
-0.748345 1.915909 -0.173273
-0.744614 1.916195 -0.173353
-0.741905 1.919191 -0.174191
-0.738849 1.921277 -0.174775
-0.736461 1.925172 -0.175866
-0.733056 1.926343 -0.176194
-0.730649 1.930231 -0.177282
-0.726902 1.930484 -0.177353
-0.722826 1.929822 -0.177167
-0.718754 1.929151 -0.176980
-0.714687 1.928472 -0.176790
-0.718763 1.950549 -0.182969
-0.713368 1.946223 -0.181759
-0.704768 1.932770 -0.177993
-0.700386 1.931151 -0.177540
-0.697927 1.935000 -0.178617
-0.696407 1.941586 -0.180460
-0.692025 1.939948 -0.180002
-0.689534 1.943787 -0.181077
-0.686407 1.945794 -0.181638
-0.685139 1.953288 -0.183736
-0.682609 1.957121 -0.184809
-0.680375 1.961866 -0.186137
-0.677515 1.964777 -0.186952
-0.671301 1.957592 -0.184941
-0.666627 1.954982 -0.184210
-0.663769 1.957873 -0.185020
-0.660603 1.959841 -0.185570
-0.657432 1.961803 -0.186120
-0.654551 1.964682 -0.186925
-0.651956 1.968476 -0.187988
-0.648180 1.968584 -0.188018
-0.644986 1.970528 -0.188562
-0.641498 1.971545 -0.188847
-0.638583 1.974401 -0.189646
-0.634803 1.974485 -0.189670
-0.632160 1.978255 -0.190725
-0.629223 1.981099 -0.191521
-0.625997 1.983013 -0.192057
-0.621649 1.981225 -0.191556
-0.618142 1.982203 -0.191830
-0.615185 1.985026 -0.192620
-0.611945 1.986919 -0.193150
-0.608427 1.987881 -0.193420
-0.605720 1.991618 -0.194466
-0.602463 1.993497 -0.194991
-0.598933 1.994442 -0.195256
-0.596199 1.998168 -0.196299
-0.592661 1.999103 -0.196561
-0.589384 2.000961 -0.197081
-0.585580 2.000955 -0.197079
-0.583073 2.005593 -0.198378
-0.580036 2.008368 -0.199154
-0.576224 2.008345 -0.199148
-0.573937 2.013904 -0.200704
-0.569614 2.012006 -0.200173
-0.569056 2.024084 -0.203554
-0.562487 2.013781 -0.200669
-0.559909 2.018392 -0.201960
-0.555108 2.014598 -0.200898
-0.551053 2.013596 -0.200618
-0.547004 2.012587 -0.200335
-0.544161 2.016244 -0.201359
-0.541306 2.019897 -0.202382
-0.539386 2.027289 -0.204451
-0.535796 2.028129 -0.204686
-0.532204 2.028962 -0.204919
-0.528379 2.028853 -0.204889
-0.524785 2.029674 -0.205118
-0.523931 2.041740 -0.208496
-0.519861 2.040678 -0.208199
-0.516021 2.040546 -0.208162
-0.512853 2.043224 -0.208911
-0.509677 2.045897 -0.209660
-0.506272 2.047626 -0.210144
-0.502645 2.048410 -0.210363
-0.498800 2.048248 -0.210318
-0.495601 2.050900 -0.211060
-0.491968 2.051666 -0.211275
-0.488333 2.052427 -0.211487
-0.484697 2.053180 -0.211698
-0.481684 2.056754 -0.212699
-0.478658 2.060323 -0.213698
-0.475008 2.061061 -0.213904
-0.471965 2.064621 -0.214901
-0.468508 2.066291 -0.215368
-0.466043 2.072673 -0.217155
-0.463359 2.078110 -0.218677
-0.459088 2.075988 -0.218083
-0.455021 2.074804 -0.217751
-0.450960 2.073611 -0.217418
-0.447095 2.073357 -0.217346
-0.443799 2.075933 -0.218067
-0.440870 2.080396 -0.219317
-0.437740 2.083909 -0.220300
-0.434231 2.085524 -0.220752
-0.430171 2.084293 -0.220407
-0.426297 2.084002 -0.220326
-0.422961 2.086546 -0.221038
-0.419618 2.089085 -0.221749
-0.416266 2.091620 -0.222458
-0.412733 2.093201 -0.222901
-0.409195 2.094776 -0.223342
-0.406163 2.099193 -0.224578
-0.402274 2.098859 -0.224485
-0.398721 2.100418 -0.224921
-0.394833 2.100071 -0.224824
-0.391764 2.104468 -0.226055
-0.388842 2.109811 -0.227551
-0.384942 2.109447 -0.227449
-0.381045 2.109076 -0.227345
-0.377932 2.113454 -0.228570
-0.375269 2.120682 -0.230594
-0.374569 2.140279 -0.236079
-0.369866 2.135130 -0.234638
-0.364884 2.128067 -0.232661
-0.358746 2.113375 -0.228548
-0.355731 2.118674 -0.230032
-0.351253 2.114440 -0.228846
-0.348361 2.120683 -0.230594
-0.345869 2.129781 -0.233141
-0.344320 2.145553 -0.237556
-0.340653 2.147019 -0.237966
-0.337117 2.149433 -0.238642
-0.331698 2.138480 -0.235576
-0.326848 2.131335 -0.233576
-0.323069 2.131817 -0.233711
-0.321350 2.147573 -0.238121
-0.319702 2.164283 -0.242799
-0.315613 2.162843 -0.242395
-0.312025 2.165217 -0.243060
-0.307453 2.159940 -0.241583
-0.303502 2.159434 -0.241441
-0.299554 2.158921 -0.241297
-0.295376 2.156487 -0.240616
-0.291666 2.157874 -0.241004
-0.288632 2.164994 -0.242998
-0.285350 2.170197 -0.244454
-0.281939 2.174438 -0.245641
-0.278083 2.174845 -0.245755
-0.274438 2.177160 -0.246403
-0.270785 2.179470 -0.247050
-0.267227 2.182732 -0.247963
-0.263558 2.185030 -0.248606
-0.259582 2.184447 -0.248443
-0.256098 2.188650 -0.249619
-0.252311 2.189972 -0.249989
-0.248614 2.192246 -0.250626
-0.244818 2.193556 -0.250993
-0.240564 2.190064 -0.250015
-0.236234 2.185606 -0.248767
-0.992693 1.790524 -0.137279
-0.990461 1.793832 -0.138204
-0.989147 1.798844 -0.139604
-0.986893 1.802149 -0.140528
-0.983250 1.802886 -0.140734
-0.979149 1.802761 -0.140699
-0.974594 1.801771 -0.140422
-0.971412 1.803342 -0.140861
-0.969589 1.807483 -0.142018
-0.965944 1.808187 -0.142215
-0.962750 1.809745 -0.142650
-0.958655 1.809576 -0.142603
-0.955906 1.811982 -0.143275
-0.951367 1.810936 -0.142983
-0.948168 1.812469 -0.143411
-0.943637 1.811406 -0.143114
-0.941321 1.814654 -0.144022
-0.937236 1.814440 -0.143962
-0.934031 1.815948 -0.144383
-0.931260 1.818318 -0.145045
-0.928048 1.819817 -0.145464
-0.925267 1.822178 -0.146124
-0.922480 1.824536 -0.146783
-0.918395 1.824281 -0.146712
-0.915172 1.825758 -0.147124
-0.911947 1.827230 -0.147536
-0.909570 1.830439 -0.148432
-0.906336 1.831902 -0.148841
-0.903522 1.834232 -0.149492
-0.900281 1.835684 -0.149898
-0.897038 1.837130 -0.150302
-0.893374 1.837697 -0.150460
-0.890543 1.840008 -0.151106
-0.888536 1.844067 -0.152240
-0.885690 1.846371 -0.152884
-0.882016 1.846915 -0.153036
-0.877932 1.846575 -0.152941
-0.873444 1.845346 -0.152597
-0.872624 1.852027 -0.154464
-0.868135 1.850785 -0.154117
-0.864057 1.850416 -0.154014
-0.860385 1.850920 -0.154155
-0.858716 1.855829 -0.155526
-0.855037 1.856323 -0.155664
-0.851359 1.856810 -0.155800
-0.844517 1.850213 -0.153957
-0.843611 1.856878 -0.155819
-0.839937 1.857343 -0.155949
-0.836264 1.857802 -0.156078
-0.836482 1.867126 -0.158683
-0.835507 1.873792 -0.160546
-0.831037 1.872465 -0.160175
-0.825805 1.869349 -0.159304
-0.820588 1.866222 -0.158430
-0.818432 1.870206 -0.159543
-0.819680 1.882208 -0.162897
-0.816730 1.884411 -0.163512
-0.814527 1.888394 -0.164625
-0.808940 1.884338 -0.163492
-0.805609 1.885632 -0.163854
-0.808217 1.901227 -0.168211
-0.800048 1.890885 -0.165322
-0.797073 1.893059 -0.165929
-0.791893 1.889852 -0.165033
-0.790376 1.895600 -0.166639
-0.787024 1.896862 -0.166991
-0.783308 1.897220 -0.167091
-0.779953 1.898470 -0.167441
-0.776238 1.898815 -0.167537
-0.773951 1.902752 -0.168637
-0.770941 1.904887 -0.169234
-0.767219 1.905215 -0.169325
-0.763849 1.906438 -0.169667
-0.760828 1.908558 -0.170259
-0.757801 1.910673 -0.170850
-0.754422 1.911880 -0.171188
-0.750695 1.912177 -0.171271
-0.747657 1.914277 -0.171857
-0.744272 1.915467 -0.172190
-0.742245 1.920274 -0.173533
-0.739187 1.922361 -0.174116
-0.735787 1.923537 -0.174445
-0.731714 1.922892 -0.174265
-0.728313 1.924055 -0.174590
-0.724909 1.925213 -0.174913
-0.722165 1.928182 -0.175743
-0.719083 1.930239 -0.176317
-0.715014 1.929561 -0.176128
-0.710624 1.927964 -0.175682
-0.708509 1.932737 -0.177015
-0.706701 1.938420 -0.178603
-0.707440 1.951400 -0.182230
-0.704625 1.954348 -0.183054
-0.701167 1.955466 -0.183366
-0.698338 1.958406 -0.184187
-0.690162 1.945797 -0.180664
-0.688281 1.951465 -0.182248
-0.687935 1.961709 -0.185111
-0.684773 1.963715 -0.185671
-0.680068 1.961133 -0.184950
-0.672623 1.950289 -0.181919
-0.670997 1.956858 -0.183755
-0.665115 1.950574 -0.181999
-0.663468 1.957137 -0.183833
-0.660603 1.960024 -0.184639
-0.659811 1.969343 -0.187243
-0.655734 1.968545 -0.187021
-0.651956 1.968660 -0.187053
-0.648180 1.968768 -0.187083
-0.644986 1.970712 -0.187626
-0.642076 1.973574 -0.188426
-0.638583 1.974586 -0.188708
-0.635089 1.975593 -0.188990
-0.632444 1.979364 -0.190043
-0.628376 1.978513 -0.189806
-0.625435 1.981351 -0.190599
-0.621649 1.981410 -0.190615
-0.617865 1.981463 -0.190630
-0.614358 1.982435 -0.190902
-0.612219 1.988032 -0.192465
-0.609244 1.990848 -0.193252
-0.605449 1.990878 -0.193261
-0.602194 1.992756 -0.193785
-0.598933 1.994630 -0.194309
-0.595668 1.996498 -0.194831
-0.592133 1.997433 -0.195092
-0.589384 2.001150 -0.196131
-0.586883 2.005793 -0.197428
-0.583591 2.007643 -0.197945
-0.583379 2.020657 -0.201581
-0.577246 2.012259 -0.199235
-0.577997 2.028999 -0.203912
-0.568102 2.006603 -0.197654
-0.568054 2.020546 -0.201550
-0.560995 2.008373 -0.198149
-0.562626 2.028848 -0.203870
-0.555353 2.015722 -0.200202
-0.554951 2.028732 -0.203837
-0.551600 2.030532 -0.204340
-0.547764 2.030457 -0.204320
-0.544407 2.032247 -0.204820
-0.540097 2.030288 -0.204272
-0.537442 2.034873 -0.205553
-0.532204 2.029155 -0.203955
-0.529074 2.031856 -0.204710
-0.527546 2.041114 -0.207297
-0.523474 2.040058 -0.207002
-0.519407 2.038996 -0.206705
-0.516021 2.040740 -0.207193
-0.513076 2.044357 -0.208203
-0.509234 2.044213 -0.208163
-0.505393 2.044063 -0.208121
-0.501554 2.043905 -0.208077
-0.498584 2.047502 -0.209082
-0.495172 2.049214 -0.209560
-0.491968 2.051862 -0.210300
-0.488756 2.054504 -0.211038
-0.485745 2.058084 -0.212039
-0.482307 2.059776 -0.212511
-0.478040 2.057693 -0.211929
-0.474395 2.058429 -0.212135
-0.471154 2.061045 -0.212866
-0.468307 2.065544 -0.214123
-0.465245 2.069096 -0.215116
-0.461382 2.068867 -0.215052
-0.457913 2.070520 -0.215513
-0.454244 2.071223 -0.215710
-0.450960 2.073810 -0.216433
-0.447476 2.075446 -0.216890
-0.445123 2.082752 -0.218931
-0.440870 2.080595 -0.218328
-0.437555 2.083161 -0.219046
-0.433863 2.083830 -0.219232
-0.430171 2.084492 -0.219417
-0.427019 2.087990 -0.220395
-0.422961 2.086746 -0.220047
-0.419795 2.090233 -0.221022
-0.415740 2.088976 -0.220670
-0.412733 2.093401 -0.221907
-0.409195 2.094977 -0.222347
-0.405653 2.096547 -0.222786
-0.401769 2.096213 -0.222692
-0.398554 2.099670 -0.223658
-0.395328 2.103122 -0.224623
-0.392091 2.106570 -0.225586
-0.388842 2.110014 -0.226549
-0.384622 2.107748 -0.225916
-0.380729 2.107377 -0.225812
-0.377463 2.110804 -0.226769
-0.374495 2.116129 -0.228257
-0.369979 2.111932 -0.227085
-0.366539 2.114391 -0.227772
-0.361894 2.109226 -0.226329
-0.358746 2.113578 -0.227544
-0.354854 2.113161 -0.227428
-0.351686 2.117503 -0.228641
-0.348503 2.121840 -0.229853
-0.345024 2.124266 -0.230531
-0.343624 2.140992 -0.235204
-0.337904 2.128147 -0.231615
-0.334403 2.130557 -0.232288
-0.330894 2.132961 -0.232960
-0.328303 2.142041 -0.235497
-0.324505 2.142526 -0.235633
-0.320191 2.139184 -0.234699
-0.317923 2.151119 -0.238034
-0.314234 2.152542 -0.238431
-0.310541 2.153959 -0.238827
-0.306966 2.156326 -0.239489
-0.303142 2.156775 -0.239614
-0.299199 2.156261 -0.239470
-0.295376 2.156697 -0.239592
-0.291666 2.158083 -0.239980
-0.288292 2.162333 -0.241167
-0.284681 2.164665 -0.241819
-0.281500 2.170821 -0.243539
-0.277759 2.172184 -0.243920
-0.274544 2.178330 -0.245637
-0.270680 2.178724 -0.245747
-0.267125 2.181986 -0.246658
-0.263052 2.180452 -0.246230
-0.259185 2.180826 -0.246334
-0.255512 2.183112 -0.246973
-0.251640 2.183475 -0.247074
-0.248426 2.190542 -0.249049
-0.244448 2.189934 -0.248879
-0.240564 2.190277 -0.248975
-0.236590 2.189655 -0.248801
-0.993160 1.792086 -0.133730
-0.987207 1.788570 -0.132756
-0.986830 1.795288 -0.134618
-0.984123 1.797736 -0.135296
-0.982330 1.801892 -0.136448
-0.980066 1.805190 -0.137362
-0.975508 1.804201 -0.137088
-0.971412 1.804059 -0.137048
-0.965957 1.801333 -0.136293
-0.963681 1.804610 -0.137201
-0.960946 1.807024 -0.137870
-0.957756 1.808574 -0.138300
-0.955458 1.811841 -0.139205
-0.951367 1.811657 -0.139154
-0.948613 1.814054 -0.139818
-0.944967 1.814719 -0.140002
-0.940880 1.814512 -0.139945
-0.938116 1.816893 -0.140605
-0.935346 1.819271 -0.141264
-0.933881 1.824245 -0.142643
-0.928918 1.822278 -0.142098
-0.924399 1.821169 -0.141790
-0.920319 1.820919 -0.141721
-0.917534 1.823270 -0.142372
-0.913457 1.823006 -0.142299
-0.910237 1.824476 -0.142706
-0.907867 1.827684 -0.143596
-0.905488 1.830890 -0.144484
-0.901409 1.830599 -0.144404
-0.898176 1.832049 -0.144805
-0.894102 1.831743 -0.144721
-0.892538 1.836682 -0.146089
-0.889294 1.838117 -0.146487
-0.886877 1.841300 -0.147369
-0.884864 1.845358 -0.148494
-0.880781 1.845023 -0.148401
-0.877522 1.846438 -0.148793
-0.873852 1.846967 -0.148940
-0.870997 1.849251 -0.149572
-0.867730 1.850649 -0.149960
-0.864461 1.852042 -0.150346
-0.860787 1.852546 -0.150486
-0.857514 1.853927 -0.150869
-0.853841 1.854419 -0.151005
-0.850565 1.855789 -0.151384
-0.848473 1.859808 -0.152498
-0.845187 1.861169 -0.152875
-0.842291 1.863410 -0.153496
-0.839390 1.865647 -0.154116
-0.836093 1.866992 -0.154489
-0.833182 1.869220 -0.155107
-0.828336 1.866999 -0.154491
-0.821962 1.861208 -0.152886
-0.820205 1.866085 -0.154238
-0.816527 1.866506 -0.154355
-0.815506 1.873163 -0.156199
-0.812196 1.874468 -0.156561
-0.810012 1.878446 -0.157663
-0.808566 1.884209 -0.159261
-0.804863 1.884608 -0.159371
-0.801532 1.885895 -0.159728
-0.795981 1.881804 -0.158594
-0.792287 1.882180 -0.158698
-0.788961 1.883446 -0.159049
-0.788916 1.892782 -0.161636
-0.785208 1.893144 -0.161737
-0.783308 1.897992 -0.163080
-0.778874 1.896545 -0.162679
-0.776238 1.899588 -0.163523
-0.772880 1.900827 -0.163866
-0.769876 1.902961 -0.164457
-0.766512 1.904189 -0.164798
-0.763146 1.905411 -0.165137
-0.760128 1.907531 -0.165724
-0.757104 1.909646 -0.166310
-0.753728 1.910852 -0.166644
-0.750695 1.912958 -0.167228
-0.747657 1.915059 -0.167810
-0.745298 1.918966 -0.168893
-0.741905 1.920153 -0.169222
-0.738849 1.922241 -0.169800
-0.734776 1.921602 -0.169623
-0.732385 1.925494 -0.170702
-0.728646 1.925751 -0.170773
-0.725574 1.927819 -0.171346
-0.721504 1.927154 -0.171162
-0.718425 1.929210 -0.171732
-0.716323 1.933994 -0.173058
-0.713228 1.936044 -0.173626
-0.709157 1.935353 -0.173434
-0.704445 1.932830 -0.172735
-0.700707 1.933035 -0.172792
-0.700797 1.944194 -0.175884
-0.700215 1.953530 -0.178472
-0.693919 1.946412 -0.176499
-0.688592 1.942022 -0.175283
-0.686720 1.947691 -0.176854
-0.685760 1.956107 -0.179186
-0.680755 1.952611 -0.178217
-0.676687 1.951855 -0.178008
-0.671095 1.946504 -0.176525
-0.666436 1.943893 -0.175801
-0.662696 1.944029 -0.175839
-0.661062 1.950591 -0.177657
-0.658809 1.955315 -0.178966
-0.658324 1.965557 -0.181805
-0.655438 1.968438 -0.182603
-0.651956 1.969474 -0.182890
-0.647887 1.968660 -0.182665
-0.644405 1.969683 -0.182948
-0.640920 1.970700 -0.183230
-0.638296 1.974481 -0.184278
-0.634517 1.974564 -0.184301
-0.631592 1.977412 -0.185090
-0.627529 1.976559 -0.184854
-0.624313 1.978472 -0.185384
-0.620533 1.978530 -0.185400
-0.617865 1.982285 -0.186441
-0.614358 1.983257 -0.186710
-0.611397 1.986077 -0.187492
-0.607066 1.984256 -0.186987
-0.604908 1.989849 -0.188537
-0.601118 1.989872 -0.188543
-0.598132 1.992673 -0.189320
-0.594075 1.991754 -0.189065
-0.591078 1.994545 -0.189839
-0.587549 1.995473 -0.190096
-0.585059 2.000116 -0.191382
-0.581779 2.001964 -0.191894
-0.581836 2.015913 -0.195760
-0.579800 2.022415 -0.197562
-0.578504 2.031713 -0.200139
-0.575160 2.033551 -0.200648
-0.568054 2.021390 -0.197278
-0.563482 2.018545 -0.196490
-0.558674 2.014756 -0.195440
-0.554617 2.013761 -0.195164
-0.550079 2.010888 -0.194368
-0.547487 2.015486 -0.195642
-0.545121 2.021018 -0.197175
-0.543214 2.028419 -0.199226
-0.541044 2.034883 -0.201018
-0.538853 2.041346 -0.202809
-0.534772 2.040311 -0.202522
-0.530928 2.040206 -0.202493
-0.527316 2.041032 -0.202722
-0.523702 2.041852 -0.202949
-0.519407 2.039850 -0.202394
-0.515796 2.040657 -0.202618
-0.512407 2.042397 -0.203100
-0.509455 2.046011 -0.204101
-0.505833 2.046801 -0.204320
-0.502427 2.048525 -0.204798
-0.498367 2.047422 -0.204492
-0.494957 2.049134 -0.204967
-0.491116 2.048958 -0.204918
-0.488544 2.054427 -0.206434
-0.484697 2.054239 -0.206382
-0.481476 2.056873 -0.207112
-0.478246 2.059501 -0.207840
-0.474395 2.059295 -0.207783
-0.470951 2.060970 -0.208247
-0.467905 2.064527 -0.209233
-0.464448 2.066191 -0.209694
-0.460591 2.065961 -0.209630
-0.457717 2.070449 -0.210874
-0.454244 2.072097 -0.211331
-0.450767 2.073740 -0.211786
-0.447476 2.076323 -0.212502
-0.445123 2.083632 -0.214528
-0.441994 2.087154 -0.215503
-0.438112 2.086883 -0.215429
-0.432944 2.079975 -0.213514
-0.428531 2.076846 -0.212647
-0.425394 2.080343 -0.213616
-0.423498 2.090473 -0.216424
-0.419263 2.088274 -0.215814
-0.415214 2.087014 -0.215465
-0.411691 2.088594 -0.215903
-0.408851 2.093966 -0.217392
-0.405142 2.094587 -0.217564
-0.401769 2.097101 -0.218260
-0.398554 2.100561 -0.219219
-0.394833 2.101164 -0.219386
-0.391437 2.103662 -0.220079
-0.388196 2.107107 -0.221033
-0.384622 2.108644 -0.221459
-0.381045 2.110175 -0.221884
-0.378089 2.115508 -0.223361
-0.374650 2.117981 -0.224047
-0.371356 2.121401 -0.224995
-0.366085 2.112433 -0.222509
-0.362342 2.112982 -0.222661
-0.359781 2.121149 -0.224925
-0.358360 2.136940 -0.229301
-0.356161 2.147965 -0.232356
-0.351641 2.143728 -0.231182
-0.344038 2.118493 -0.224189
-0.339031 2.110416 -0.221950
-0.336392 2.118555 -0.224206
-0.333453 2.124783 -0.225932
-0.332904 2.148196 -0.232420
-0.329625 2.152509 -0.233616
-0.325810 2.152997 -0.233751
-0.321994 2.153477 -0.233884
-0.317542 2.149173 -0.232691
-0.314485 2.155376 -0.234410
-0.310294 2.152969 -0.233743
-0.306234 2.151511 -0.233339
-0.302661 2.153872 -0.233993
-0.298962 2.155271 -0.234381
-0.295142 2.155707 -0.234502
-0.291551 2.158051 -0.235151
-0.288406 2.164219 -0.236861
-0.285573 2.173256 -0.239365
-0.281939 2.175585 -0.240011
-0.278083 2.175992 -0.240124
-0.274331 2.177351 -0.240500
-0.270471 2.177745 -0.240609
-0.266919 2.181008 -0.241514
-0.263052 2.181390 -0.241620
-0.259384 2.183683 -0.242255
-0.255805 2.186929 -0.243155
-0.252503 2.193048 -0.244850
-0.248614 2.193405 -0.244949
-0.244633 2.192797 -0.244781
-0.240564 2.191221 -0.244344
-0.236590 2.190599 -0.244172
-0.987563 1.781925 -0.130527
-0.989067 1.792052 -0.133331
-0.987294 1.796211 -0.134483
-0.983199 1.796096 -0.134451
-0.978648 1.795116 -0.134180
-0.975938 1.797552 -0.134854
-0.974594 1.802556 -0.136240
-0.971867 1.804986 -0.136913
-0.969135 1.807413 -0.137585
-0.965039 1.807258 -0.137542
-0.961848 1.808814 -0.137973
-0.959553 1.812088 -0.138879
-0.955906 1.812773 -0.139069
-0.951367 1.811727 -0.138779
-0.948613 1.814124 -0.139443
-0.944524 1.813925 -0.139388
-0.941321 1.815447 -0.139809
-0.937676 1.816098 -0.139990
-0.934469 1.817609 -0.140408
-0.932570 1.821715 -0.141545
-0.928918 1.822349 -0.141721
-0.927001 1.826450 -0.142856
-0.922047 1.824466 -0.142307
-0.918395 1.825081 -0.142477
-0.915172 1.826559 -0.142886
-0.910665 1.825418 -0.142570
-0.908719 1.829499 -0.143701
-0.904639 1.829215 -0.143622
-0.900141 1.828050 -0.143299
-0.897755 1.831246 -0.144184
-0.895360 1.834439 -0.145068
-0.892956 1.837629 -0.145952
-0.889294 1.838189 -0.146107
-0.886048 1.839618 -0.146503
-0.882799 1.841041 -0.146897
-0.879958 1.843338 -0.147533
-0.876703 1.844751 -0.147924
-0.874261 1.847919 -0.148801
-0.870183 1.847562 -0.148702
-0.867325 1.849840 -0.149333
-0.862847 1.848587 -0.148986
-0.859983 1.850854 -0.149614
-0.859116 1.857533 -0.151463
-0.854638 1.856260 -0.151111
-0.851756 1.858515 -0.151735
-0.848868 1.860766 -0.152359
-0.845187 1.861241 -0.152490
-0.838368 1.854618 -0.150656
-0.833529 1.852413 -0.150046
-0.831424 1.856412 -0.151153
-0.829694 1.861297 -0.152506
-0.829107 1.868850 -0.154597
-0.825037 1.868398 -0.154472
-0.822501 1.871500 -0.155331
-0.818813 1.871926 -0.155449
-0.815506 1.873236 -0.155812
-0.814085 1.879003 -0.157409
-0.812646 1.884770 -0.159006
-0.811188 1.890538 -0.160603
-0.807847 1.891836 -0.160962
-0.804503 1.893128 -0.161320
-0.798939 1.889042 -0.160189
-0.794864 1.888527 -0.160046
-0.792260 1.891590 -0.160894
-0.789281 1.893754 -0.161493
-0.785934 1.895014 -0.161843
-0.782223 1.895371 -0.161941
-0.779233 1.897519 -0.162536
-0.775521 1.897864 -0.162632
-0.772167 1.899101 -0.162974
-0.769520 1.902135 -0.163814
-0.767926 1.907870 -0.165403
-0.764201 1.908193 -0.165492
-0.760478 1.908509 -0.165579
-0.757104 1.909721 -0.165915
-0.754075 1.911832 -0.166500
-0.750695 1.913034 -0.166832
-0.747657 1.915135 -0.167414
-0.743930 1.915420 -0.167493
-0.740543 1.916604 -0.167821
-0.736816 1.916876 -0.167896
-0.734102 1.919864 -0.168724
-0.731378 1.922847 -0.169550
-0.728313 1.924919 -0.170124
-0.724909 1.926078 -0.170444
-0.723487 1.932688 -0.172275
-0.723358 1.942939 -0.175113
-0.719268 1.942268 -0.174927
-0.715182 1.941588 -0.174739
-0.710129 1.938165 -0.173792
-0.706379 1.938381 -0.173851
-0.706158 1.948631 -0.176690
-0.700797 1.944271 -0.175482
-0.699898 1.952695 -0.177815
-0.693919 1.946490 -0.176097
-0.693302 1.955825 -0.178682
-0.689531 1.956009 -0.178732
-0.686692 1.958934 -0.179542
-0.682300 1.957272 -0.179082
-0.673921 1.943680 -0.175318
-0.669872 1.942911 -0.175106
-0.669477 1.953152 -0.177942
-0.666929 1.956967 -0.178998
-0.664972 1.962618 -0.180563
-0.658809 1.955393 -0.178562
-0.660703 1.972997 -0.183437
-0.654256 1.964835 -0.181177
-0.651368 1.967711 -0.181973
-0.647595 1.967818 -0.182003
-0.644114 1.968840 -0.182286
-0.640053 1.968012 -0.182056
-0.636859 1.969945 -0.182592
-0.634803 1.975567 -0.184148
-0.631876 1.978416 -0.184937
-0.628376 1.979412 -0.185213
-0.624874 1.980402 -0.185487
-0.621370 1.981386 -0.185760
-0.617865 1.982364 -0.186031
-0.614909 1.985189 -0.186813
-0.611945 1.988011 -0.187594
-0.608699 1.989900 -0.188117
-0.604908 1.989930 -0.188126
-0.601387 1.990880 -0.188389
-0.598132 1.992754 -0.188908
-0.594871 1.994622 -0.189425
-0.591342 1.995555 -0.189683
-0.587811 1.996483 -0.189940
-0.584017 1.996475 -0.189938
-0.580485 1.997390 -0.190192
-0.579265 2.006682 -0.192764
-0.580311 2.024361 -0.197660
-0.575206 2.019677 -0.196363
-0.572135 2.022443 -0.197129
-0.566803 2.016807 -0.195568
-0.564228 2.021427 -0.196848
-0.561144 2.024177 -0.197609
-0.557316 2.024120 -0.197593
-0.551540 2.016578 -0.195505
-0.547246 2.014633 -0.194966
-0.545602 2.022971 -0.197275
-0.543214 2.028501 -0.198807
-0.541281 2.035902 -0.200856
-0.535091 2.026442 -0.198236
-0.533371 2.034772 -0.200543
-0.527683 2.027164 -0.198436
-0.523635 2.026109 -0.198144
-0.519135 2.023170 -0.197330
-0.517821 2.033363 -0.200153
-0.515571 2.039801 -0.201936
-0.512853 2.044359 -0.203198
-0.509234 2.045155 -0.203418
-0.505393 2.045004 -0.203376
-0.501336 2.043906 -0.203072
-0.497934 2.045624 -0.203548
-0.494313 2.046394 -0.203761
-0.491116 2.049042 -0.204494
-0.488122 2.052627 -0.205487
-0.484697 2.054323 -0.205957
-0.481060 2.055072 -0.206164
-0.477627 2.056757 -0.206631
-0.474599 2.060323 -0.207618
-0.471559 2.063886 -0.208605
-0.467905 2.064612 -0.208806
-0.464049 2.064388 -0.208744
-0.460394 2.065101 -0.208941
-0.457325 2.068644 -0.209922
-0.453662 2.069346 -0.210117
-0.450190 2.070988 -0.210571
-0.445759 2.067894 -0.209715
-0.444933 2.082772 -0.213835
-0.441432 2.084400 -0.214285
-0.436812 2.080340 -0.213161
-0.430000 2.064904 -0.208887
-0.426344 2.065560 -0.209069
-0.423950 2.072846 -0.211086
-0.423140 2.088663 -0.215466
-0.417670 2.079823 -0.213018
-0.414512 2.083305 -0.213982
-0.411517 2.087731 -0.215208
-0.409023 2.095002 -0.217221
-0.405653 2.097522 -0.217919
-0.401769 2.097188 -0.217827
-0.398387 2.099697 -0.218521
-0.394833 2.101251 -0.218952
-0.391111 2.101848 -0.219117
-0.388357 2.108145 -0.220861
-0.384622 2.108731 -0.221023
-0.381045 2.110263 -0.221447
-0.377463 2.111789 -0.221870
-0.373257 2.109500 -0.221236
-0.369826 2.111965 -0.221919
-0.365782 2.110615 -0.221545
-0.362940 2.116881 -0.223280
-0.359929 2.122190 -0.224750
-0.357045 2.128448 -0.226483
-0.353851 2.132797 -0.227687
-0.350928 2.139048 -0.229418
-0.344742 2.123351 -0.225071
-0.341537 2.127681 -0.226271
-0.337492 2.126279 -0.225882
-0.333996 2.128690 -0.226550
-0.330492 2.131094 -0.227216
-0.328171 2.142091 -0.230261
-0.324113 2.140665 -0.229866
-0.321093 2.146877 -0.231586
-0.316653 2.142571 -0.230394
-0.313232 2.145905 -0.231317
-0.309429 2.146364 -0.231444
-0.305869 2.148731 -0.232099
-0.302301 2.151092 -0.232753
-0.299081 2.156318 -0.234200
-0.295376 2.157711 -0.234586
-0.292011 2.161970 -0.235766
-0.288406 2.164309 -0.236413
-0.285350 2.171431 -0.238385
-0.281610 2.172802 -0.238765
-0.277867 2.174166 -0.239143
-0.274119 2.175525 -0.239519
-0.270367 2.176877 -0.239894
-0.266713 2.179182 -0.240532
-0.262850 2.179564 -0.240637
-0.259086 2.180898 -0.241007
-0.255805 2.187021 -0.242702
-0.251928 2.187384 -0.242803
-0.248050 2.187741 -0.242902
-0.244264 2.189050 -0.243264
-0.240383 2.189394 -0.243360
-0.236501 2.189731 -0.243453
-0.986630 1.780621 -0.127881
-0.985348 1.785629 -0.129262
-0.986367 1.794910 -0.131819
-0.981814 1.793937 -0.131551
-0.980029 1.798090 -0.132696
-0.975938 1.797959 -0.132660
-0.974594 1.802965 -0.134039
-0.972778 1.807113 -0.135182
-0.969589 1.808683 -0.135615
-0.965039 1.807668 -0.135336
-0.962299 1.810086 -0.136002
-0.957756 1.809055 -0.135718
-0.956354 1.814048 -0.137094
-0.949582 1.808688 -0.135617
-0.946834 1.811083 -0.136277
-0.942751 1.810881 -0.136221
-0.939996 1.813265 -0.136878
-0.937676 1.816512 -0.137773
-0.934031 1.817157 -0.137950
-0.931260 1.819529 -0.138604
-0.929353 1.823633 -0.139735
-0.927435 1.827736 -0.140866
-0.924640 1.830099 -0.141518
-0.920548 1.829848 -0.141448
-0.916030 1.828718 -0.141137
-0.906391 1.817119 -0.137940
-0.905312 1.822939 -0.139544
-0.900822 1.821776 -0.139224
-0.904367 1.837205 -0.143476
-0.901123 1.838660 -0.143877
-0.898716 1.841860 -0.144759
-0.892956 1.838050 -0.143709
-0.889294 1.838610 -0.143863
-0.886048 1.840039 -0.144257
-0.881972 1.839707 -0.144165
-0.878724 1.841125 -0.144556
