# This PCD file was generated using the MATLAB® pcwrite function
# from Computer Vision System Toolbox®.
# .PCD v.7 - Point Cloud Data file format
VERSION .7
FIELDS x y z
SIZE 4 4 4
TYPE F F F
COUNT 1 1 1
WIDTH 1669
HEIGHT 1
VIEWPOINT 0 0 0 1 0 0 0
POINTS 1669
DATA ascii
0.164316 1.497477 -0.197027
0.166601 1.494362 -0.195852
0.169009 1.492172 -0.195026
0.171409 1.489977 -0.194198
0.173939 1.488706 -0.193719
0.176883 1.490211 -0.194287
0.179833 1.491711 -0.194852
0.182790 1.493205 -0.195416
0.185463 1.492842 -0.195279
0.187552 1.488773 -0.193744
0.189922 1.486552 -0.192906
0.192883 1.488027 -0.193463
0.195698 1.488573 -0.193669
0.199128 1.492812 -0.195268
0.201337 1.489650 -0.194075
0.203848 1.488333 -0.193578
0.206512 1.487935 -0.193428
0.209016 1.486610 -0.192928
0.211839 1.487128 -0.193124
0.214012 1.483949 -0.191925
0.216668 1.483535 -0.191768
0.219324 1.483117 -0.191611
0.222316 1.484539 -0.192147
0.224974 1.484112 -0.191986
0.227974 1.485524 -0.192519
0.230807 1.486009 -0.192701
0.233643 1.486489 -0.192883
0.235773 1.483280 -0.191672
0.238249 1.481910 -0.191156
0.240902 1.481457 -0.190985
0.243554 1.480999 -0.190812
0.246205 1.480538 -0.190638
0.248855 1.480071 -0.190462
0.251317 1.478682 -0.189938
0.253963 1.478207 -0.189759
0.256418 1.476810 -0.189232
0.258676 1.474490 -0.188357
0.260927 1.472168 -0.187481
0.263953 1.473513 -0.187988
0.266788 1.473935 -0.188147
0.270023 1.476185 -0.188996
0.272866 1.476597 -0.189152
0.276523 1.480668 -0.190687
0.278151 1.475573 -0.188765
0.280792 1.475055 -0.188570
0.283431 1.474532 -0.188373
0.286490 1.475834 -0.188864
0.288708 1.473473 -0.187973
0.291345 1.472938 -0.187771
0.294196 1.473312 -0.187912
0.297698 1.476421 -0.189085
0.300558 1.476784 -0.189222
0.302322 1.472577 -0.187635
0.305179 1.472932 -0.187769
0.307368 1.470545 -0.186869
0.309774 1.469067 -0.186312
0.312630 1.469409 -0.186440
0.315944 1.471567 -0.187254
0.318577 1.470987 -0.187035
0.320977 1.469492 -0.186472
0.323607 1.468904 -0.186250
0.327411 1.472858 -0.187741
-0.510223 1.642783 -0.249108
-0.504865 1.635432 -0.246348
-0.501395 1.634388 -0.245956
-0.498195 1.634239 -0.245900
-0.496307 1.638603 -0.247539
-0.492841 1.637541 -0.247140
-0.488345 1.632856 -0.245381
-0.485411 1.633590 -0.245657
-0.482476 1.634319 -0.245930
-0.480046 1.636854 -0.246882
-0.476601 1.635761 -0.246472
-0.472409 1.631944 -0.245039
-0.467736 1.626304 -0.242921
-0.464073 1.624282 -0.242162
-0.461155 1.624976 -0.242422
-0.457749 1.623849 -0.241999
-0.454106 1.621807 -0.241233
-0.450952 1.621576 -0.241146
-0.447801 1.621339 -0.241057
-0.444414 1.620188 -0.240624
-0.441739 1.621759 -0.241214
-0.438359 1.620596 -0.240778
-0.436143 1.623980 -0.242048
-0.432305 1.620983 -0.240923
-0.429850 1.623448 -0.241849
-0.426707 1.623174 -0.241746
-0.421542 1.614685 -0.238558
-0.419088 1.617135 -0.239478
-0.416183 1.617755 -0.239711
-0.411739 1.611978 -0.237542
-0.407317 1.606190 -0.235369
-0.404432 1.606791 -0.235595
-0.402191 1.610131 -0.236848
-0.398873 1.608894 -0.236384
-0.397464 1.615887 -0.239010
-0.393094 1.610064 -0.236823
-0.390202 1.610642 -0.237040
-0.386898 1.609383 -0.236568
-0.383394 1.607201 -0.235749
-0.379899 1.605013 -0.234927
-0.376012 1.600984 -0.233414
-0.374134 1.606121 -0.235343
-0.368088 1.591984 -0.230035
-0.364250 1.587931 -0.228513
-0.362177 1.592136 -0.230092
-0.360474 1.598175 -0.232359
-0.357987 1.600537 -0.233246
-0.355113 1.601058 -0.233442
-0.351676 1.598815 -0.232600
-0.348249 1.596565 -0.231755
-0.344831 1.594309 -0.230908
-0.341969 1.594808 -0.231095
-0.339106 1.595303 -0.231281
-0.335527 1.592108 -0.230081
-0.332669 1.592592 -0.230263
-0.329459 1.591227 -0.229751
-0.326603 1.591701 -0.229929
-0.323746 1.592171 -0.230105
-0.320548 1.590790 -0.229587
-0.317524 1.590327 -0.229413
-0.314169 1.588012 -0.228543
-0.311319 1.588461 -0.228712
-0.308468 1.588905 -0.228879
-0.305616 1.589345 -0.229044
-0.302763 1.589780 -0.229207
-0.299752 1.589285 -0.229022
-0.296899 1.589711 -0.229181
-0.293736 1.588282 -0.228645
-0.290580 1.586847 -0.228106
-0.286522 1.579854 -0.225480
-0.284285 1.583960 -0.227022
-0.279668 1.573250 -0.223001
-0.278307 1.582904 -0.226626
-0.275177 1.581441 -0.226076
-0.273766 1.591092 -0.229700
-0.269923 1.584988 -0.227408
-0.266522 1.581656 -0.226157
-0.263134 1.578318 -0.224904
-0.260574 1.580538 -0.225737
-0.256933 1.575333 -0.223783
-0.253710 1.572905 -0.222871
-0.251280 1.576039 -0.224048
-0.248066 1.573600 -0.223132
-0.245242 1.573941 -0.223260
-0.241917 1.570562 -0.221992
-0.238976 1.569964 -0.221767
-0.236038 1.569361 -0.221541
-0.233583 1.572471 -0.222708
-0.230643 1.571858 -0.222478
-0.227590 1.570311 -0.221898
-0.224428 1.567829 -0.220965
-0.221955 1.570922 -0.222127
-0.219471 1.574011 -0.223287
-0.216099 1.569653 -0.221650
-0.213391 1.570872 -0.222108
-0.210785 1.573018 -0.222914
-0.207963 1.573298 -0.223019
-0.204832 1.570780 -0.222073
-0.201913 1.570119 -0.221825
-0.198501 1.564795 -0.219826
-0.195792 1.565987 -0.220274
-0.192983 1.566242 -0.220370
-0.190173 1.566493 -0.220464
-0.187363 1.566739 -0.220556
-0.184553 1.566981 -0.220647
-0.181831 1.568151 -0.221086
-0.178931 1.567451 -0.220823
-0.175948 1.565813 -0.220209
-0.173056 1.565103 -0.219942
-0.170167 1.564389 -0.219674
-0.167200 1.562736 -0.219053
-0.164241 1.561078 -0.218431
-0.161364 1.560349 -0.218157
-0.158491 1.559615 -0.217881
-0.155547 1.557942 -0.217253
-0.152753 1.558132 -0.217324
-0.149820 1.556449 -0.216693
-0.146824 1.553827 -0.215708
-0.144105 1.554937 -0.216125
-0.141316 1.555108 -0.216189
-0.138779 1.559012 -0.217655
-0.135861 1.557306 -0.217014
-0.133009 1.556529 -0.216723
-0.130102 1.554812 -0.216078
-0.127426 1.556830 -0.216836
-0.124742 1.558843 -0.217592
-0.121842 1.557113 -0.216942
-0.119050 1.557248 -0.216993
-0.115818 1.548962 -0.213882
-0.112805 1.544412 -0.212173
-0.109537 1.534244 -0.208356
-0.106962 1.538100 -0.209803
-0.104331 1.541016 -0.210898
-0.101609 1.542058 -0.211289
-0.098806 1.541224 -0.210976
-0.095970 1.539450 -0.210310
-0.093316 1.542349 -0.211399
-0.090584 1.543373 -0.211783
-0.087849 1.544393 -0.212166
-0.084991 1.541664 -0.211142
-0.082200 1.540803 -0.210818
-0.079569 1.545552 -0.212601
-0.076627 1.539067 -0.210166
-0.073733 1.533512 -0.208081
-0.071005 1.534504 -0.208453
-0.068255 1.534556 -0.208473
-0.065522 1.535539 -0.208842
-0.062802 1.537454 -0.209561
-0.060088 1.540300 -0.210629
-0.057327 1.540334 -0.210642
-0.054556 1.539427 -0.210302
-0.051771 1.536644 -0.209256
-0.049002 1.534792 -0.208561
-0.046252 1.534807 -0.208567
-0.043501 1.534819 -0.208571
-0.040751 1.534825 -0.208574
-0.038000 1.533892 -0.208223
-0.035251 1.533889 -0.208222
-0.032499 1.534819 -0.208571
-0.029748 1.534807 -0.208567
-0.027005 1.533856 -0.208210
-0.024256 1.533835 -0.208202
-0.021486 1.535683 -0.208896
-0.018734 1.535654 -0.208885
-0.016024 1.532812 -0.207818
-0.013308 1.530901 -0.207100
-0.010565 1.530859 -0.207084
-0.007802 1.531748 -0.207418
-0.005058 1.531696 -0.207399
-0.002336 1.530704 -0.207026
0.000432 1.531579 -0.207355
0.003072 1.527771 -0.205925
0.005837 1.528638 -0.206250
0.008576 1.528564 -0.206223
0.011252 1.526614 -0.205491
0.014087 1.529338 -0.206513
0.016757 1.527380 -0.205778
0.019567 1.529159 -0.206446
0.021962 1.520643 -0.203249
0.024766 1.522414 -0.203914
0.027452 1.521374 -0.203523
0.030221 1.522200 -0.203833
0.033038 1.523957 -0.204493
0.035722 1.522903 -0.204097
0.038303 1.519975 -0.202998
0.041026 1.519848 -0.202950
0.043644 1.517847 -0.202199
0.046417 1.518646 -0.202499
0.049137 1.518506 -0.202446
0.051973 1.520231 -0.203094
0.054696 1.520082 -0.203038
0.057297 1.518059 -0.202279
0.059953 1.516967 -0.201868
0.062541 1.514936 -0.201106
0.065188 1.513836 -0.200693
0.067764 1.511797 -0.199927
0.070332 1.509754 -0.199160
0.073107 1.510508 -0.199444
0.076032 1.513126 -0.200426
0.078742 1.512937 -0.200355
0.081375 1.511811 -0.199933
0.084082 1.511613 -0.199858
0.086629 1.509545 -0.199082
0.089496 1.511206 -0.199705
0.092203 1.510995 -0.199626
0.094909 1.510780 -0.199546
0.097876 1.513359 -0.200514
0.100142 1.508472 -0.198679
0.102752 1.507312 -0.198243
0.104528 1.497758 -0.194656
0.107868 1.504047 -0.197017
0.110273 1.501011 -0.195878
0.113058 1.501698 -0.196136
0.115548 1.499586 -0.195342
0.118435 1.501196 -0.195947
0.121020 1.500007 -0.195500
0.123915 1.501607 -0.196101
0.126709 1.502271 -0.196351
0.129723 1.504791 -0.197297
0.131759 1.498932 -0.195097
0.134219 1.496792 -0.194293
0.137352 1.500229 -0.195584
0.139923 1.499010 -0.195126
0.142840 1.500577 -0.195715
0.145289 1.498420 -0.194905
0.147852 1.497189 -0.194443
0.149435 1.488520 -0.191188
0.153088 1.495644 -0.193862
0.154762 1.487899 -0.190954
0.159077 1.499654 -0.195368
0.161762 1.499329 -0.195246
0.164838 1.501785 -0.196168
0.167526 1.501452 -0.196043
0.169277 1.494619 -0.193478
0.171816 1.493351 -0.193002
0.174352 1.492079 -0.192524
0.176883 1.490803 -0.192045
0.179692 1.491376 -0.192260
0.182219 1.490092 -0.191778
0.185175 1.491582 -0.192337
0.187552 1.489363 -0.191504
0.190070 1.488067 -0.191017
0.192583 1.486766 -0.190529
0.194942 1.484536 -0.189692
0.198210 1.487854 -0.190938
0.201182 1.489316 -0.191486
0.203691 1.487998 -0.190992
0.206354 1.487601 -0.190843
0.209016 1.487200 -0.190692
0.211516 1.485870 -0.190193
0.213849 1.483613 -0.189345
0.216338 1.482276 -0.188843
0.218991 1.481858 -0.188686
0.221642 1.481436 -0.188528
0.224293 1.481010 -0.188368
0.227458 1.483346 -0.189245
0.230286 1.483832 -0.189427
0.232591 1.481548 -0.188570
0.234888 1.479261 -0.187711
0.237355 1.477892 -0.187197
0.239999 1.477440 -0.187027
0.243007 1.478824 -0.187547
0.245837 1.479283 -0.187719
0.248484 1.478817 -0.187545
0.251317 1.479267 -0.187713
0.253963 1.478792 -0.187535
0.256418 1.477393 -0.187010
0.258869 1.475991 -0.186484
0.261509 1.475504 -0.186301
0.264149 1.475013 -0.186116
0.266788 1.474517 -0.185930
0.269824 1.475852 -0.186431
0.273269 1.479015 -0.187619
0.276320 1.480337 -0.188115
0.278151 1.476156 -0.186545
0.279761 1.471057 -0.184631
0.282600 1.471451 -0.184779
0.286909 1.478248 -0.187331
0.289342 1.476800 -0.186787
0.291984 1.476263 -0.186586
0.293981 1.472979 -0.185352
0.296832 1.473348 -0.185491
0.299468 1.472799 -0.185285
0.301443 1.469506 -0.184048
0.304736 1.471688 -0.184868
0.308038 1.473863 -0.185684
0.309999 1.470559 -0.184444
0.312630 1.469988 -0.184230
0.315259 1.469413 -0.184014
0.317427 1.467012 -0.183112
0.320050 1.466429 -0.182893
0.322440 1.464931 -0.182331
0.326470 1.469800 -0.184159
0.335731 1.494669 -0.193497
-0.516422 1.653420 -0.250697
-0.509148 1.639765 -0.245590
-0.505133 1.636923 -0.244527
-0.501927 1.636781 -0.244474
-0.498458 1.635730 -0.244081
-0.494209 1.631961 -0.242672
-0.491799 1.634513 -0.243626
-0.487569 1.630729 -0.242211
-0.485925 1.635987 -0.244177
-0.481454 1.631283 -0.242418
-0.478778 1.632912 -0.243028
-0.475088 1.630911 -0.242279
-0.471658 1.629809 -0.241867
-0.467487 1.625980 -0.240435
-0.464073 1.624864 -0.240018
-0.460665 1.623742 -0.239598
-0.457018 1.621706 -0.238837
-0.453864 1.621479 -0.238752
-0.450231 1.619429 -0.237985
-0.447323 1.620101 -0.238237
-0.444177 1.619858 -0.238146
-0.441504 1.621430 -0.238734
-0.438359 1.621176 -0.238639
-0.435216 1.620917 -0.238542
-0.431385 1.617918 -0.237420
-0.429165 1.621294 -0.238683
-0.425800 1.620107 -0.238239
-0.423791 1.624389 -0.239840
-0.419981 1.621365 -0.238709
-0.416405 1.619247 -0.237917
-0.412838 1.617122 -0.237123
-0.409280 1.614990 -0.236326
-0.406164 1.614680 -0.236210
-0.404338 1.619854 -0.238144
-0.401217 1.619535 -0.238025
-0.397252 1.615549 -0.236535
-0.392465 1.607892 -0.233671
-0.387084 1.597474 -0.229775
-0.385454 1.603542 -0.232044
-0.383189 1.606858 -0.233284
-0.379697 1.604668 -0.232466
-0.375409 1.598802 -0.230272
-0.373736 1.604859 -0.232537
-0.371448 1.608160 -0.233771
-0.366994 1.601354 -0.231226
-0.363148 1.597296 -0.229708
-0.360474 1.598744 -0.230250
-0.357796 1.600188 -0.230790
-0.354735 1.599789 -0.230641
-0.351114 1.596624 -0.229457
-0.347878 1.595293 -0.228959
-0.344647 1.593956 -0.228459
-0.341422 1.592613 -0.227957
-0.338745 1.594028 -0.228486
-0.335885 1.594517 -0.228669
-0.333023 1.595002 -0.228851
-0.329459 1.591793 -0.227651
-0.326430 1.591345 -0.227483
-0.323230 1.589969 -0.226968
-0.319697 1.586741 -0.225761
-0.317018 1.588122 -0.226278
-0.314169 1.588576 -0.226448
-0.311484 1.589949 -0.226961
-0.308468 1.589470 -0.226782
-0.305293 1.588061 -0.226255
-0.302603 1.589420 -0.226763
-0.299593 1.588925 -0.226578
-0.296743 1.589351 -0.226737
-0.293427 1.586995 -0.225856
-0.290121 1.584634 -0.224973
-0.287429 1.585969 -0.225473
-0.285331 1.591005 -0.227356
-0.282329 1.590481 -0.227160
-0.278307 1.583465 -0.224536
-0.274600 1.578295 -0.222603
-0.272339 1.582387 -0.224133
-0.269783 1.584623 -0.224969
-0.266940 1.584999 -0.225110
-0.262584 1.575166 -0.221433
-0.258945 1.569963 -0.219487
-0.255728 1.567537 -0.218580
-0.253710 1.573462 -0.220795
-0.251019 1.574740 -0.221274
-0.247937 1.573229 -0.220708
-0.244099 1.566137 -0.218056
-0.242043 1.572047 -0.220266
-0.239718 1.576096 -0.221781
-0.236647 1.574564 -0.221208
-0.234544 1.580466 -0.223415
-0.231472 1.578925 -0.222838
-0.228640 1.579239 -0.222956
-0.225807 1.579548 -0.223072
-0.222295 1.574269 -0.221097
-0.219249 1.572707 -0.220513
-0.215879 1.568346 -0.218882
-0.212743 1.565840 -0.217945
-0.210148 1.567987 -0.218748
-0.207545 1.570129 -0.219549
-0.204832 1.571335 -0.220000
-0.201711 1.568810 -0.219056
-0.198600 1.566279 -0.218110
-0.195694 1.565608 -0.217858
-0.192983 1.566795 -0.218302
-0.190079 1.566114 -0.218048
-0.187271 1.566360 -0.218140
-0.184281 1.564736 -0.217532
-0.181653 1.566839 -0.218319
-0.178495 1.563339 -0.217010
-0.175607 1.562633 -0.216746
-0.172721 1.561923 -0.216480
-0.169757 1.560274 -0.215864
-0.167040 1.561420 -0.216292
-0.164319 1.562563 -0.216720
-0.161211 1.559031 -0.215399
-0.158266 1.557363 -0.214775
-0.155474 1.557557 -0.214848
-0.152825 1.559615 -0.215617
-0.149959 1.558866 -0.215337
-0.147097 1.558113 -0.215055
-0.144171 1.556419 -0.214422
-0.141252 1.554721 -0.213787
-0.138653 1.557692 -0.214898
-0.136105 1.561594 -0.216357
-0.133127 1.558947 -0.215368
-0.130160 1.556295 -0.214376
-0.127203 1.553638 -0.213382
-0.124634 1.557523 -0.214835
-0.122052 1.561403 -0.216286
-0.119404 1.564345 -0.217386
-0.116453 1.561669 -0.216385
-0.112994 1.548697 -0.211534
-0.110445 1.553495 -0.213329
-0.106875 1.536768 -0.207073
-0.104289 1.540621 -0.208514
-0.101489 1.539792 -0.208204
-0.099075 1.548317 -0.211392
-0.096154 1.544670 -0.210029
-0.093386 1.544763 -0.210063
-0.090584 1.543915 -0.209746
-0.087880 1.545871 -0.210478
-0.085080 1.545015 -0.210157
-0.082395 1.547898 -0.211236
-0.079490 1.543287 -0.209511
-0.076701 1.542416 -0.209185
-0.073891 1.540604 -0.208508
-0.071173 1.542533 -0.209229
-0.068332 1.538839 -0.207848
-0.065488 1.534204 -0.206115
-0.062739 1.534247 -0.206131
-0.060088 1.540841 -0.208596
-0.057352 1.542748 -0.209310
-0.054587 1.542777 -0.209321
-0.051771 1.537182 -0.207228
-0.049023 1.538139 -0.207586
-0.046252 1.535345 -0.206541
-0.043512 1.538166 -0.207596
-0.040754 1.537237 -0.207249
-0.038000 1.536302 -0.206899
-0.035246 1.537237 -0.207249
-0.032502 1.534420 -0.206195
-0.029769 1.531599 -0.205140
-0.027025 1.531583 -0.205134
-0.024264 1.533436 -0.205827
-0.021507 1.534348 -0.206168
-0.018770 1.533382 -0.205807
-0.016038 1.532412 -0.205444
-0.013292 1.532374 -0.205430
-0.010547 1.532331 -0.205414
-0.007879 1.528538 -0.203996
-0.005141 1.528487 -0.203976
-0.002426 1.527494 -0.203605
0.000358 1.529307 -0.204283
0.003072 1.528305 -0.203909
0.005837 1.529172 -0.204233
0.008546 1.528162 -0.203855
0.011189 1.525275 -0.202776
0.013888 1.524256 -0.202395
0.016548 1.522297 -0.201662
0.019237 1.521270 -0.201278
0.022000 1.522110 -0.201592
0.024846 1.524817 -0.202604
0.027619 1.525648 -0.202915
0.030177 1.521796 -0.201474
0.032766 1.518875 -0.200382
0.035486 1.518757 -0.200338
0.038254 1.519570 -0.200642
0.040976 1.519443 -0.200595
0.043696 1.519312 -0.200545
0.046363 1.518241 -0.200145
0.049026 1.517166 -0.199743
0.051800 1.517956 -0.200038
0.054340 1.515002 -0.198934
0.056930 1.512979 -0.198177
0.059765 1.514691 -0.198818
0.062541 1.515464 -0.199107
0.065387 1.517167 -0.199743
0.067900 1.514192 -0.198631
0.070402 1.511214 -0.197517
0.072964 1.509166 -0.196751
0.075666 1.508982 -0.196683
0.078367 1.508794 -0.196612
0.081298 1.511403 -0.197588
0.084004 1.511206 -0.197514
0.086789 1.511938 -0.197788
0.089496 1.511732 -0.197711
0.092370 1.513388 -0.198330
0.094994 1.512239 -0.197901
0.097440 1.509220 -0.196772
0.100142 1.508997 -0.196688
0.102843 1.508769 -0.196603
0.105451 1.507604 -0.196167
0.107586 1.501772 -0.193986
0.110273 1.501532 -0.193896
0.112473 1.496626 -0.192062
0.116144 1.505698 -0.195455
0.118940 1.506376 -0.195708
0.121842 1.507981 -0.196308
0.123496 1.498402 -0.192726
0.127028 1.505587 -0.195413
0.130587 1.512764 -0.198097
0.132966 1.509693 -0.196948
0.134554 1.500103 -0.193362
0.135314 1.483998 -0.187340
0.138314 1.486504 -0.188277
0.140973 1.486214 -0.188168
0.144342 1.491499 -0.190145
0.147251 1.493059 -0.190728
0.151751 1.506699 -0.195829
0.152717 1.493374 -0.190846
0.155389 1.493060 -0.190728
0.158188 1.493671 -0.190957
0.161376 1.497063 -0.192225
0.163532 1.493021 -0.190713
0.166072 1.491760 -0.190242
0.168741 1.491425 -0.190117
0.171409 1.491084 -0.189989
0.174214 1.491668 -0.190208
0.176744 1.490391 -0.189730
0.179551 1.490965 -0.189945
0.181934 1.488753 -0.189118
0.184597 1.488392 -0.188982
0.187260 1.488025 -0.188846
0.189922 1.487655 -0.188707
0.192733 1.488206 -0.188913
0.195244 1.486901 -0.188425
0.198057 1.487443 -0.188628
0.200873 1.487980 -0.188829
0.203848 1.489438 -0.189374
0.206354 1.488116 -0.188879
0.209016 1.487714 -0.188729
0.211355 1.485459 -0.187886
0.213685 1.483201 -0.187042
0.216173 1.481864 -0.186541
0.218824 1.481446 -0.186385
0.221811 1.482871 -0.186918
0.224803 1.484290 -0.187449
0.227630 1.484781 -0.187632
0.229418 1.479732 -0.185744
0.231889 1.478371 -0.185235
0.234356 1.477006 -0.184725
0.237177 1.477480 -0.184902
0.239999 1.477949 -0.185077
0.243007 1.479334 -0.185595
0.245653 1.478873 -0.185423
0.248484 1.479327 -0.185593
0.251691 1.481617 -0.186449
0.254152 1.480222 -0.185927
0.256418 1.477903 -0.185060
0.258676 1.475581 -0.184192
0.261509 1.476013 -0.184353
0.264149 1.475521 -0.184169
0.267776 1.479616 -0.185701
0.270223 1.478196 -0.185170
0.273068 1.478607 -0.185324
0.275104 1.475345 -0.184104
0.277742 1.474831 -0.183911
0.279967 1.472480 -0.183032
0.282808 1.472874 -0.183179
0.285651 1.473263 -0.183325
0.288285 1.472732 -0.183126
0.290919 1.472196 -0.182926
0.293981 1.473486 -0.183408
0.297049 1.474770 -0.183889
0.298813 1.470564 -0.182316
0.301443 1.470011 -0.182109
0.304071 1.469454 -0.181901
0.307368 1.471632 -0.182715
0.310224 1.471978 -0.182844
0.313309 1.473231 -0.183313
0.315715 1.471743 -0.182756
0.318347 1.471162 -0.182539
0.320282 1.467844 -0.181298
0.322440 1.465435 -0.180397
0.325295 1.465753 -0.180517
-0.508879 1.638928 -0.245015
-0.504598 1.635182 -0.243615
-0.502192 1.637748 -0.244574
-0.498986 1.637601 -0.244520
-0.494996 1.634737 -0.243449
-0.491538 1.633673 -0.243051
-0.488086 1.632602 -0.242651
-0.485411 1.634241 -0.243263
-0.481454 1.631347 -0.242182
-0.478524 1.632070 -0.242452
-0.475340 1.631881 -0.242381
-0.472159 1.631687 -0.242309
-0.467239 1.625136 -0.239860
-0.463579 1.623113 -0.239104
-0.460174 1.621990 -0.238684
-0.456531 1.619952 -0.237922
-0.453380 1.619725 -0.237838
-0.450472 1.620402 -0.238090
-0.448039 1.622893 -0.239022
-0.444888 1.622651 -0.238931
-0.441739 1.622404 -0.238839
-0.437892 1.619418 -0.237723
-0.433594 1.614602 -0.235923
-0.430925 1.616158 -0.236504
-0.430764 1.627742 -0.240834
-0.426027 1.621083 -0.238345
-0.421317 1.614413 -0.235852
-0.417748 1.612298 -0.235061
-0.411752 1.600129 -0.230512
-0.410859 1.608961 -0.233814
-0.408625 1.612311 -0.235066
-0.406164 1.614744 -0.235975
-0.403050 1.614428 -0.235858
-0.399726 1.613192 -0.235396
-0.396196 1.611035 -0.234589
-0.393303 1.611618 -0.234807
-0.389371 1.607615 -0.233311
-0.385042 1.601771 -0.231126
-0.381962 1.601420 -0.230995
-0.379088 1.601979 -0.231204
-0.376414 1.603452 -0.231755
-0.375530 1.613182 -0.235392
-0.370064 1.601795 -0.231135
-0.366210 1.597743 -0.229620
-0.363148 1.597358 -0.229477
-0.360282 1.597887 -0.229675
-0.357414 1.598412 -0.229871
-0.354168 1.597092 -0.229377
-0.350927 1.595766 -0.228882
-0.347878 1.595355 -0.228728
-0.344831 1.594939 -0.228572
-0.341422 1.592675 -0.227726
-0.338023 1.590405 -0.226878
-0.335169 1.590893 -0.227060
-0.332846 1.594142 -0.228275
-0.329635 1.592777 -0.227764
-0.326256 1.590484 -0.226907
-0.323402 1.590953 -0.227083
-0.320207 1.589571 -0.226566
-0.317187 1.589107 -0.226393
-0.313836 1.586791 -0.225527
-0.310824 1.586315 -0.225349
-0.308304 1.588607 -0.226206
-0.305293 1.588123 -0.226025
-0.301964 1.585783 -0.225150
-0.299277 1.587137 -0.225656
-0.296273 1.586637 -0.225469
-0.293272 1.586132 -0.225280
-0.290274 1.585621 -0.225089
-0.287278 1.585105 -0.224897
-0.284434 1.585510 -0.225048
-0.281590 1.585911 -0.225198
-0.279037 1.588160 -0.226039
-0.275322 1.582990 -0.224106
-0.271484 1.576886 -0.221824
-0.268233 1.574484 -0.220926
-0.266383 1.581351 -0.223493
-0.265058 1.591928 -0.227447
-0.261931 1.590441 -0.226891
-0.256933 1.575952 -0.221475
-0.254768 1.580950 -0.223344
-0.251019 1.574801 -0.221045
-0.249998 1.588152 -0.226036
-0.246005 1.580134 -0.223038
-0.242669 1.576755 -0.221775
-0.239841 1.577087 -0.221899
-0.236891 1.576485 -0.221674
-0.233943 1.575878 -0.221448
-0.230288 1.569685 -0.219133
-0.227123 1.567206 -0.218206
-0.225003 1.573096 -0.220408
-0.221955 1.571538 -0.219825
-0.220029 1.579284 -0.222721
-0.216209 1.571199 -0.219699
-0.212959 1.567764 -0.218414
-0.210148 1.568047 -0.218520
-0.207441 1.569258 -0.218973
-0.204730 1.570464 -0.219424
-0.201509 1.567007 -0.218132
-0.198501 1.565408 -0.217534
-0.195694 1.565668 -0.217631
-0.192887 1.565924 -0.217727
-0.189703 1.562444 -0.216426
-0.187271 1.566421 -0.217913
-0.184281 1.564797 -0.217305
-0.181564 1.565967 -0.217743
-0.178495 1.563400 -0.216783
-0.175607 1.562694 -0.216519
-0.172721 1.561983 -0.216254
-0.169839 1.561268 -0.215986
-0.166800 1.558680 -0.215019
-0.164241 1.561689 -0.216144
-0.161441 1.561894 -0.216220
-0.158491 1.560225 -0.215596
-0.155547 1.558551 -0.214971
-0.152610 1.556873 -0.214343
-0.149820 1.557058 -0.214413
-0.147029 1.557238 -0.214480
-0.144171 1.556480 -0.214196
-0.141316 1.555716 -0.213911
-0.138590 1.556818 -0.214323
-0.135861 1.557915 -0.214733
-0.132831 1.554332 -0.213394
-0.129872 1.551679 -0.212402
-0.127035 1.550892 -0.212108
-0.124256 1.551036 -0.212162
-0.121476 1.551174 -0.212213
-0.118696 1.551308 -0.212264
-0.115964 1.552374 -0.212662
-0.113229 1.553434 -0.213058
-0.110626 1.557298 -0.214502
-0.107573 1.551800 -0.212447
-0.104792 1.551911 -0.212489
-0.101769 1.546402 -0.210430
-0.099037 1.547441 -0.210818
-0.095860 1.537241 -0.207005
-0.093211 1.540142 -0.208090
-0.090352 1.537421 -0.207073
-0.087692 1.540313 -0.208154
-0.084932 1.540392 -0.208183
-0.082228 1.542340 -0.208911
-0.079386 1.539600 -0.207887
-0.076676 1.541539 -0.208612
-0.073823 1.537854 -0.207234
-0.071026 1.536037 -0.206555
-0.068178 1.531406 -0.204824
-0.065505 1.535200 -0.206242
-0.062786 1.537115 -0.206958
-0.060074 1.539964 -0.208023
-0.057315 1.539997 -0.208036
-0.054556 1.540027 -0.208046
-0.051744 1.534432 -0.205955
-0.049002 1.535388 -0.206313
-0.046252 1.535404 -0.206319
-0.043508 1.537289 -0.207023
-0.040754 1.537296 -0.207026
-0.038000 1.535424 -0.206326
-0.035253 1.533549 -0.205625
-0.032513 1.531669 -0.204922
-0.029769 1.531657 -0.204918
-0.027019 1.532578 -0.205262
-0.024256 1.534432 -0.205955
-0.021538 1.531597 -0.204895
-0.018795 1.531568 -0.204885
-0.016065 1.530597 -0.204522
-0.013308 1.531496 -0.204858
-0.010600 1.529580 -0.204142
-0.007956 1.524851 -0.202374
-0.005225 1.524799 -0.202355
-0.002426 1.527553 -0.203384
0.000383 1.530302 -0.204411
0.003176 1.532109 -0.205087
0.006032 1.535785 -0.206461
0.008754 1.534775 -0.206083
0.011283 1.528142 -0.203604
0.013888 1.524315 -0.202173
0.016583 1.523292 -0.201791
0.019384 1.525072 -0.202457
0.022115 1.524976 -0.202421
0.024846 1.524876 -0.202383
0.027535 1.523835 -0.201994
0.030221 1.522790 -0.201603
0.032857 1.520805 -0.200861
0.035580 1.520687 -0.200817
0.038303 1.520564 -0.200771
0.040976 1.519501 -0.200374
0.043644 1.518435 -0.199975
0.046309 1.517364 -0.199575
0.048970 1.516288 -0.199173
0.051685 1.516144 -0.199119
0.054399 1.515995 -0.199064
0.057114 1.515842 -0.199006
0.059828 1.515684 -0.198947
0.062541 1.515522 -0.198887
0.065122 1.513486 -0.198126
0.067696 1.511446 -0.197363
0.070402 1.511271 -0.197298
0.072964 1.509223 -0.196532
0.075739 1.509974 -0.196813
0.078442 1.509786 -0.196742
0.081221 1.510527 -0.197020
0.083768 1.508462 -0.196248
0.086549 1.509195 -0.196522
0.089169 1.508055 -0.196096
0.092286 1.512512 -0.197762
0.094823 1.510430 -0.196983
0.097440 1.509278 -0.196553
0.099519 1.502523 -0.194028
0.101846 1.498565 -0.192548
0.104620 1.499267 -0.192811
0.107680 1.502762 -0.194117
0.110178 1.500656 -0.193330
0.112668 1.498548 -0.192542
0.114158 1.487114 -0.188268
0.118334 1.500842 -0.193399
0.120300 1.494062 -0.190865
0.123183 1.495664 -0.191464
0.126284 1.499124 -0.192757
0.129399 1.502578 -0.194048
0.132308 1.504164 -0.194641
0.133328 1.489921 -0.189317
0.137125 1.498945 -0.192690
0.139808 1.498657 -0.192583
0.142840 1.501155 -0.193516
0.145289 1.498997 -0.192710
0.147732 1.496835 -0.191902
0.150288 1.495600 -0.191440
0.152470 1.491572 -0.189934
0.155389 1.493117 -0.190512
0.158188 1.493727 -0.190740
0.161376 1.497120 -0.192008
0.164446 1.499578 -0.192927
0.166468 1.494602 -0.191067
0.169411 1.496122 -0.191635
0.171816 1.493925 -0.190814
0.174352 1.492652 -0.190338
0.176466 1.488592 -0.188821
0.179270 1.489167 -0.189035
0.182076 1.489737 -0.189248
0.184742 1.489375 -0.189113
0.187260 1.488082 -0.188630
0.189922 1.487711 -0.188491
0.192434 1.486410 -0.188005
0.194942 1.485106 -0.187517
0.197445 1.483797 -0.187028
0.199945 1.482484 -0.186537
0.203222 1.485794 -0.187774
0.206354 1.488172 -0.188663
0.209016 1.487770 -0.188513
0.211355 1.485516 -0.187670
0.213849 1.484182 -0.187172
0.216503 1.483768 -0.187017
0.218991 1.482426 -0.186516
0.221474 1.481080 -0.186013
0.224293 1.481577 -0.186198
0.227115 1.482069 -0.186382
0.229592 1.480711 -0.185874
0.232415 1.481193 -0.186055
0.234710 1.478905 -0.185199
0.237355 1.478457 -0.185032
0.240180 1.478926 -0.185207
0.242460 1.476627 -0.184348
0.244917 1.475246 -0.183832
0.247555 1.474781 -0.183658
0.250567 1.476152 -0.184170
0.253396 1.476598 -0.184337
0.256037 1.476120 -0.184158
0.258099 1.472879 -0.182947
0.260538 1.471474 -0.182422
0.262973 1.470065 -0.181895
0.266392 1.473244 -0.183083
0.269226 1.473662 -0.183240
0.272464 1.475911 -0.184080
0.275306 1.476318 -0.184232
0.277742 1.474887 -0.183697
0.280585 1.475285 -0.183846
0.283847 1.477511 -0.184678
0.286490 1.476982 -0.184481
0.288074 1.471872 -0.182570
0.290706 1.471337 -0.182370
0.293551 1.471712 -0.182511
0.296832 1.473911 -0.183333
0.299249 1.472448 -0.182786
0.302322 1.473722 -0.183262
0.304514 1.471336 -0.182370
0.307368 1.471687 -0.182501
0.309549 1.469295 -0.181607
0.312176 1.468725 -0.181394
0.314802 1.468150 -0.181179
0.317427 1.467571 -0.180963
0.319819 1.466077 -0.180404
0.322206 1.464579 -0.179844
0.325295 1.465809 -0.180304
0.332178 1.481593 -0.186204
-0.511551 1.638076 -0.241348
-0.508610 1.638848 -0.241635
-0.505133 1.637810 -0.241249
-0.501661 1.636764 -0.240860
-0.497931 1.634808 -0.240133
-0.494471 1.633749 -0.239739
-0.491278 1.633588 -0.239680
-0.488345 1.634327 -0.239954
-0.484640 1.632344 -0.239217
-0.480688 1.629447 -0.238141
-0.477255 1.628356 -0.237735
-0.474080 1.628165 -0.237664
-0.471408 1.629783 -0.238266
-0.466493 1.623227 -0.235829
-0.463579 1.623926 -0.236088
-0.459683 1.620984 -0.234995
-0.457018 1.622581 -0.235589
-0.453380 1.620536 -0.234828
-0.450712 1.622123 -0.235418
-0.447801 1.622796 -0.235668
-0.444414 1.621642 -0.235240
-0.441034 1.620483 -0.234809
-0.437425 1.618405 -0.234037
-0.432898 1.612674 -0.231906
-0.428855 1.608756 -0.230450
-0.425740 1.608481 -0.230348
-0.422854 1.609113 -0.230583
-0.420192 1.610653 -0.231155
-0.415739 1.604880 -0.229010
-0.412860 1.605496 -0.229238
-0.411079 1.610679 -0.231165
-0.407535 1.608543 -0.230371
-0.406813 1.618296 -0.233996
-0.402191 1.611573 -0.231497
-0.397382 1.603924 -0.228654
-0.394082 1.602677 -0.228191
-0.389740 1.596842 -0.226022
-0.387707 1.601082 -0.227598
-0.381536 1.586977 -0.222355
-0.378077 1.584784 -0.221540
-0.376452 1.590845 -0.223793
-0.374806 1.596906 -0.226046
-0.373935 1.606640 -0.229664
-0.370657 1.605349 -0.229184
-0.366406 1.599457 -0.226994
-0.362954 1.597233 -0.226167
-0.359897 1.596843 -0.226022
-0.356842 1.596447 -0.225875
-0.353789 1.596046 -0.225726
-0.351114 1.597481 -0.226259
-0.347692 1.595228 -0.225422
-0.344831 1.595732 -0.225609
-0.341058 1.591623 -0.224082
-0.338023 1.591195 -0.223923
-0.334991 1.590761 -0.223762
-0.331784 1.589400 -0.223256
-0.328933 1.589878 -0.223433
-0.326082 1.590352 -0.223609
-0.323058 1.589897 -0.223441
-0.320207 1.590361 -0.223613
-0.317018 1.588973 -0.223097
-0.314169 1.589427 -0.223266
-0.310824 1.587103 -0.222402
-0.307815 1.586622 -0.222223
-0.304485 1.584286 -0.221355
-0.301324 1.582869 -0.220828
-0.298486 1.583297 -0.220988
-0.295491 1.582796 -0.220801
-0.292344 1.581362 -0.220268
-0.289509 1.581776 -0.220422
-0.286219 1.579406 -0.219541
-0.283836 1.582590 -0.220725
-0.280851 1.582062 -0.220529
-0.276846 1.575039 -0.217918
-0.275033 1.581920 -0.220476
-0.272625 1.585089 -0.221654
-0.270064 1.587327 -0.222485
-0.267218 1.587704 -0.222625
-0.264096 1.586220 -0.222074
-0.260981 1.584730 -0.221520
-0.257871 1.583235 -0.220964
-0.254371 1.578946 -0.219370
-0.250497 1.571863 -0.216738
-0.247422 1.570350 -0.216175
-0.244353 1.568830 -0.215610
-0.241541 1.569166 -0.215735
-0.238976 1.571357 -0.216550
-0.235916 1.569822 -0.215979
-0.233102 1.570144 -0.216099
-0.231117 1.576976 -0.218638
-0.227707 1.572635 -0.217025
-0.224888 1.572943 -0.217139
-0.221389 1.567659 -0.215175
-0.219249 1.573545 -0.217363
-0.216099 1.571045 -0.216433
-0.213067 1.569470 -0.215848
-0.210148 1.568822 -0.215607
-0.207232 1.568169 -0.215365
-0.204524 1.569376 -0.215813
-0.201610 1.568714 -0.215567
-0.198401 1.565248 -0.214279
-0.195401 1.563643 -0.213682
-0.192695 1.564831 -0.214124
-0.189703 1.563215 -0.213523
-0.187086 1.565328 -0.214309
-0.184100 1.563702 -0.213704
-0.181209 1.563005 -0.213445
-0.178321 1.562304 -0.213185
-0.175607 1.563465 -0.213616
-0.172805 1.563688 -0.213699
-0.169839 1.562037 -0.213086
-0.166800 1.559448 -0.212123
-0.163927 1.558722 -0.211853
-0.161288 1.560795 -0.212624
-0.158416 1.560059 -0.212350
-0.155401 1.557450 -0.211381
-0.152467 1.555770 -0.210756
-0.149610 1.555019 -0.210477
-0.146824 1.555200 -0.210544
-0.144105 1.556311 -0.210957
-0.141445 1.558353 -0.211716
-0.138653 1.558520 -0.211778
-0.135800 1.557747 -0.211491
-0.132594 1.551355 -0.209115
-0.129757 1.550571 -0.208824
-0.126924 1.549783 -0.208531
-0.124688 1.559286 -0.212063
-0.121476 1.551937 -0.209332
-0.118848 1.554880 -0.210425
-0.115573 1.545648 -0.206994
-0.112711 1.543900 -0.206344
-0.110354 1.552447 -0.209521
-0.107573 1.552563 -0.209564
-0.104792 1.552675 -0.209606
-0.101810 1.548099 -0.207905
-0.098998 1.547264 -0.207595
-0.096227 1.547362 -0.207631
-0.093490 1.548391 -0.208014
-0.090750 1.549417 -0.208395
-0.087755 1.542943 -0.205988
-0.084843 1.538337 -0.204277
-0.082116 1.539348 -0.204653
-0.079386 1.540355 -0.205027
-0.076652 1.541358 -0.205400
-0.073801 1.537670 -0.204029
-0.071089 1.539601 -0.204746
-0.068294 1.537779 -0.204069
-0.065557 1.538763 -0.204435
-0.062755 1.535994 -0.203406
-0.060004 1.536032 -0.203420
-0.057242 1.535129 -0.203084
-0.054556 1.540782 -0.205185
-0.051779 1.538932 -0.204498
-0.049009 1.537078 -0.203809
-0.046252 1.536156 -0.203466
-0.043501 1.536167 -0.203470
-0.040749 1.535237 -0.203124
-0.038000 1.536176 -0.203474
-0.035237 1.542736 -0.205912
-0.032495 1.537105 -0.203819
-0.029743 1.537094 -0.203815
-0.027053 1.528642 -0.200673
-0.024291 1.531434 -0.201711
-0.021559 1.530472 -0.201353
-0.018807 1.531380 -0.201691
-0.016121 1.527597 -0.200285
-0.013418 1.525685 -0.199574
-0.010687 1.525642 -0.199558
-0.007975 1.524658 -0.199192
-0.005079 1.532104 -0.201960
-0.002290 1.533922 -0.202636
0.000530 1.536673 -0.203658
0.003202 1.533796 -0.202589
0.006060 1.537475 -0.203956
0.008398 1.524283 -0.199053
0.011346 1.530763 -0.201462
0.013855 1.524122 -0.198993
0.016653 1.525909 -0.199657
0.019384 1.525817 -0.199623
0.022000 1.522911 -0.198543
0.024766 1.523747 -0.198854
0.027452 1.522706 -0.198467
0.030177 1.522597 -0.198426
0.032857 1.521546 -0.198036
0.035533 1.520492 -0.197644
0.038254 1.520369 -0.197598
0.040874 1.518370 -0.196855
0.043487 1.516367 -0.196111
0.046309 1.518103 -0.196756
0.048858 1.515155 -0.195661
0.051570 1.515011 -0.195607
0.054281 1.514862 -0.195552
0.056930 1.513774 -0.195147
0.059828 1.516422 -0.196131
0.062477 1.515325 -0.195724
0.065122 1.514223 -0.195314
0.067696 1.512182 -0.194555
0.070402 1.512007 -0.194490
0.073036 1.510892 -0.194076
0.075739 1.510708 -0.194008
0.078667 1.513324 -0.194980
0.081528 1.515000 -0.195603
0.084082 1.512933 -0.194835
0.086629 1.510863 -0.194065
0.089169 1.508788 -0.193294
0.092119 1.511380 -0.194257
0.094823 1.511165 -0.194177
0.097527 1.510946 -0.194096
0.099964 1.507921 -0.192972
0.102390 1.504892 -0.191846
0.104897 1.502794 -0.191066
0.107774 1.504424 -0.191672
0.109890 1.498585 -0.189502
0.112570 1.498341 -0.189411
0.115052 1.496227 -0.188625
0.117627 1.495042 -0.188185
0.120609 1.497583 -0.189129
0.123810 1.501982 -0.190764
0.126497 1.501715 -0.190665
0.129183 1.501444 -0.190564
0.131978 1.502100 -0.190808
0.134665 1.501819 -0.190704
0.137239 1.500603 -0.190252
0.139463 1.496590 -0.188760
0.141323 1.489781 -0.186229
0.144342 1.492278 -0.187157
0.148933 1.506866 -0.192580
0.150776 1.500046 -0.190044
0.153459 1.499735 -0.189929
0.155389 1.493839 -0.187738
0.158061 1.493521 -0.187619
0.160732 1.493198 -0.187499
0.163402 1.492871 -0.187378
0.165807 1.490681 -0.186564
0.168607 1.491274 -0.186784
0.171138 1.490005 -0.186313
0.173802 1.489661 -0.186185
0.176187 1.487456 -0.185365
0.178847 1.487103 -0.185234
0.181506 1.486746 -0.185101
0.184453 1.488240 -0.185657
0.187260 1.488801 -0.185865
0.189922 1.488430 -0.185727
0.192284 1.486202 -0.184899
0.194942 1.485823 -0.184758
0.197445 1.484513 -0.184271
0.200254 1.485052 -0.184472
0.202753 1.483734 -0.183982
0.205880 1.486115 -0.184867
0.208057 1.482938 -0.183686
0.210547 1.481608 -0.183192
0.213195 1.481199 -0.183040
0.215513 1.478937 -0.182199
0.218824 1.482217 -0.183418
0.221811 1.483643 -0.183948
0.224633 1.484139 -0.184132
0.227115 1.482784 -0.183629
0.229592 1.481425 -0.183123
0.232240 1.480985 -0.182960
0.234356 1.477773 -0.181766
0.236819 1.476403 -0.181257
0.239638 1.476873 -0.181432
0.242460 1.477339 -0.181605
0.245101 1.476878 -0.181433
0.247555 1.475491 -0.180918
0.250192 1.475022 -0.180744
0.252829 1.474548 -0.180568
0.255083 1.472230 -0.179706
0.257329 1.469909 -0.178843
0.260150 1.470343 -0.179005
0.263561 1.473530 -0.180189
0.267183 1.477629 -0.181712
0.269425 1.475290 -0.180843
0.272464 1.476621 -0.181338
0.274901 1.475193 -0.180807
0.277742 1.475597 -0.180957
0.280585 1.475995 -0.181105
0.283639 1.477306 -0.181593
0.286070 1.475861 -0.181056
0.288497 1.474412 -0.180517
0.291132 1.473876 -0.180318
0.293981 1.474251 -0.180457
0.296832 1.474621 -0.180595
0.298595 1.470412 -0.179030
0.300783 1.468030 -0.178145
0.304071 1.470216 -0.178957
0.308038 1.475136 -0.180786
0.310449 1.473655 -0.180235
0.312630 1.471257 -0.179344
0.315030 1.469768 -0.178791
0.317657 1.469189 -0.178576
0.319355 1.464957 -0.177003
0.322206 1.465282 -0.177123
0.325059 1.465602 -0.177242
-0.513401 1.633910 -0.238905
-0.510468 1.634686 -0.239193
-0.505921 1.630038 -0.237468
-0.503529 1.632608 -0.238422
-0.500864 1.634272 -0.239039
-0.497667 1.634122 -0.238984
-0.494209 1.633062 -0.238590
-0.491017 1.632901 -0.238531
-0.487051 1.630018 -0.237460
-0.483611 1.628938 -0.237060
-0.480432 1.628759 -0.236993
-0.477001 1.627667 -0.236588
-0.473828 1.627475 -0.236517
-0.470657 1.627278 -0.236444
-0.466741 1.624352 -0.235358
-0.462591 1.620508 -0.233931
-0.459193 1.619383 -0.233514
-0.456287 1.620070 -0.233769
-0.453138 1.619842 -0.233684
-0.450231 1.620519 -0.233935
-0.447562 1.622102 -0.234523
-0.443467 1.618215 -0.233080
-0.440563 1.618876 -0.233326
-0.436725 1.615886 -0.232216
-0.433130 1.613800 -0.231442
-0.429775 1.612620 -0.231004
-0.426653 1.612346 -0.230902
-0.423761 1.612979 -0.231137
-0.420417 1.611781 -0.230692
-0.417972 1.614232 -0.231602
-0.414189 1.611195 -0.230475
-0.410859 1.609979 -0.230024
-0.406444 1.604182 -0.227872
-0.404216 1.607528 -0.229114
-0.402406 1.612703 -0.231035
-0.396530 1.600473 -0.226496
-0.395562 1.609305 -0.229773
-0.389321 1.595220 -0.224547
-0.386876 1.597627 -0.225440
-0.384011 1.598196 -0.225651
-0.381758 1.601512 -0.226882
-0.379088 1.602991 -0.227430
-0.375007 1.598036 -0.225591
-0.371742 1.596748 -0.225113
-0.367692 1.591777 -0.223269
-0.365230 1.594153 -0.224150
-0.362760 1.596526 -0.225031
-0.359897 1.597055 -0.225227
-0.356651 1.595739 -0.224739
-0.353600 1.595337 -0.224590
-0.350927 1.596772 -0.225122
-0.347692 1.595439 -0.224628
-0.344095 1.592258 -0.223447
-0.340693 1.589991 -0.222606
-0.337481 1.588639 -0.222104
-0.334633 1.589127 -0.222285
-0.331607 1.588687 -0.222122
-0.328933 1.590088 -0.222642
-0.326082 1.590562 -0.222818
-0.323058 1.590108 -0.222649
-0.319867 1.588724 -0.222136
-0.316513 1.586411 -0.221277
-0.313335 1.585015 -0.220759
-0.310494 1.585463 -0.220926
-0.307161 1.583132 -0.220060
-0.304485 1.584496 -0.220566
-0.301484 1.584004 -0.220384
-0.298328 1.582581 -0.219856
-0.295178 1.581153 -0.219326
-0.292189 1.580645 -0.219137
-0.289662 1.582912 -0.219979
-0.287580 1.587955 -0.221850
-0.285631 1.593923 -0.224065
-0.282772 1.594326 -0.224214
-0.279037 1.589159 -0.222297
-0.273734 1.573780 -0.216590
-0.273338 1.589939 -0.222586
-0.268937 1.580111 -0.218939
-0.266105 1.580487 -0.219079
-0.261897 1.571572 -0.215770
-0.260031 1.578438 -0.218318
-0.257201 1.578799 -0.218452
-0.255033 1.583802 -0.220309
-0.251541 1.579507 -0.218715
-0.248710 1.579854 -0.218844
-0.246259 1.582986 -0.220006
-0.243045 1.580534 -0.219096
-0.239965 1.579007 -0.218529
-0.237378 1.581196 -0.219342
-0.234544 1.581520 -0.219462
-0.230762 1.574392 -0.216817
-0.228173 1.576567 -0.217624
-0.225348 1.576876 -0.217739
-0.222295 1.575317 -0.217160
-0.219360 1.574685 -0.216925
-0.216757 1.576843 -0.217726
-0.212959 1.568745 -0.214721
-0.210148 1.569029 -0.214826
-0.207336 1.569308 -0.214930
-0.204524 1.569583 -0.215032
-0.201509 1.567988 -0.214440
-0.198203 1.563588 -0.212807
-0.195401 1.563848 -0.212904
-0.192695 1.565037 -0.213345
-0.190079 1.567154 -0.214131
-0.186901 1.563667 -0.212836
-0.184009 1.562974 -0.212580
-0.181120 1.562277 -0.212321
-0.178321 1.562509 -0.212407
-0.175521 1.562737 -0.212491
-0.172638 1.562025 -0.212227
-0.169675 1.560374 -0.211615
-0.166800 1.559653 -0.211347
-0.163848 1.557992 -0.210731
-0.160904 1.556326 -0.210112
-0.158041 1.555590 -0.209839
-0.155254 1.555784 -0.209911
-0.152396 1.555039 -0.209635
-0.149331 1.551483 -0.208315
-0.146484 1.550727 -0.208034
-0.143773 1.551838 -0.208447
-0.141123 1.553880 -0.209204
-0.138528 1.556853 -0.210308
-0.135678 1.556080 -0.210021
-0.132890 1.556237 -0.210079
-0.130102 1.556390 -0.210136
-0.127091 1.552795 -0.208802
-0.124310 1.552938 -0.208855
-0.121214 1.547460 -0.206822
-0.118392 1.546657 -0.206524
-0.115525 1.544914 -0.205877
-0.112711 1.544102 -0.205576
-0.109855 1.542349 -0.204925
-0.107137 1.543401 -0.205315
-0.104457 1.545385 -0.206052
-0.101729 1.546428 -0.206439
-0.099037 1.548404 -0.207172
-0.096154 1.545691 -0.206165
-0.093316 1.543910 -0.205504
-0.090485 1.542124 -0.204842
-0.087692 1.541270 -0.204525
-0.084932 1.541350 -0.204554
-0.082144 1.540487 -0.204234
-0.079360 1.539620 -0.203912
-0.076578 1.538748 -0.203589
-0.073846 1.539746 -0.203959
-0.071068 1.538865 -0.203632
-0.068274 1.537042 -0.202956
-0.065522 1.537089 -0.202973
-0.062770 1.537132 -0.202989
-0.060018 1.537171 -0.203003
-0.057388 1.546579 -0.206495
-0.054514 1.537234 -0.203027
-0.051683 1.528821 -0.199905
-0.048947 1.528841 -0.199912
-0.046200 1.526982 -0.199222
-0.043494 1.534493 -0.202010
-0.040747 1.534500 -0.202012
-0.038000 1.538252 -0.203405
-0.035248 1.537313 -0.203056
-0.032530 1.527930 -0.199574
-0.029774 1.531669 -0.200962
-0.027025 1.532591 -0.201304
-0.024238 1.537258 -0.203036
-0.021549 1.531609 -0.200939
-0.018893 1.525017 -0.198493
-0.016191 1.523109 -0.197785
-0.013387 1.527758 -0.199510
-0.010652 1.527716 -0.199495
-0.007822 1.532356 -0.201216
-0.005246 1.524805 -0.198414
-0.002517 1.524750 -0.198394
0.000212 1.524689 -0.198371
0.002653 1.514315 -0.194521
0.005362 1.514246 -0.194496
0.008101 1.515110 -0.194817
0.011283 1.529089 -0.200004
0.014020 1.529006 -0.199973
0.016583 1.524234 -0.198202
0.019274 1.523205 -0.197821
0.022000 1.523109 -0.197785
0.024766 1.523946 -0.198095
0.027368 1.521031 -0.197014
0.030090 1.520921 -0.196973
0.032721 1.518935 -0.196236
0.035392 1.517880 -0.195844
0.038157 1.518694 -0.196147
0.040824 1.517631 -0.195752
0.043539 1.517500 -0.195703
0.046309 1.518301 -0.196000
0.048914 1.516288 -0.195254
0.051627 1.516144 -0.195200
0.054281 1.515059 -0.194797
0.056930 1.513970 -0.194393
0.059514 1.511941 -0.193640
0.062283 1.512715 -0.193928
0.064990 1.512549 -0.193866
0.067764 1.513313 -0.194150
0.070332 1.511268 -0.193390
0.072964 1.510153 -0.192977
0.075519 1.508099 -0.192215
0.078292 1.508846 -0.192492
0.081145 1.510523 -0.193114
0.083925 1.511261 -0.193388
0.086629 1.511059 -0.193313
0.089414 1.511787 -0.193583
0.092035 1.510642 -0.193158
0.094823 1.511361 -0.193425
0.097527 1.511142 -0.193344
0.099964 1.508116 -0.192221
0.101937 1.500419 -0.189364
0.104066 1.494587 -0.187200
0.106644 1.493419 -0.186766
0.109602 1.495979 -0.187717
0.112180 1.494803 -0.187280
0.115548 1.501085 -0.189612
0.117526 1.494303 -0.187094
0.120609 1.497776 -0.188384
0.123392 1.498447 -0.188632
0.126284 1.500045 -0.189226
0.128751 1.497910 -0.188433
0.131869 1.501362 -0.189714
0.134554 1.501082 -0.189610
0.136786 1.497072 -0.188122
0.138773 1.491196 -0.185941
0.140623 1.484386 -0.183414
0.143632 1.486885 -0.184342
0.147011 1.492169 -0.186303
0.150654 1.499309 -0.188952
0.153953 1.503650 -0.190563
0.156266 1.500543 -0.189410
0.158442 1.496503 -0.187911
0.160860 1.494320 -0.187101
0.163793 1.495852 -0.187669
0.165807 1.490873 -0.185822
0.168741 1.492395 -0.186387
0.170866 1.488339 -0.184881
0.173802 1.489853 -0.185443
0.176327 1.488576 -0.184969
0.179129 1.489151 -0.185183
0.181791 1.488793 -0.185050
0.184164 1.486576 -0.184227
0.187260 1.488993 -0.185124
0.189922 1.488622 -0.184986
0.192284 1.486393 -0.184159
0.194790 1.485087 -0.183675
0.197598 1.485631 -0.183876
0.200409 1.486169 -0.184076
0.203065 1.485777 -0.183931
0.205880 1.486306 -0.184127
0.208537 1.485905 -0.183978
0.211031 1.484574 -0.183484
0.213359 1.482315 -0.182646
0.216173 1.482826 -0.182835
0.218657 1.481483 -0.182337
0.221305 1.481061 -0.182180
0.223952 1.480635 -0.182022
0.226771 1.481128 -0.182205
0.229418 1.480692 -0.182043
0.232065 1.480252 -0.181880
0.234356 1.477963 -0.181031
0.236819 1.476593 -0.180522
0.239458 1.476141 -0.180354
0.242278 1.476606 -0.180527
0.245101 1.477067 -0.180698
0.247555 1.475681 -0.180184
0.250005 1.474290 -0.179668
0.252829 1.474737 -0.179834
0.255655 1.475180 -0.179998
0.258099 1.473777 -0.179477
0.260150 1.470531 -0.178273
0.262973 1.470961 -0.178432
0.265799 1.471385 -0.178589
0.270023 1.478235 -0.181132
0.272665 1.477729 -0.180944
0.274901 1.475383 -0.180073
0.276924 1.472115 -0.178860
0.279761 1.472515 -0.179009
0.282600 1.472910 -0.179155
0.285232 1.472384 -0.178960
0.288074 1.472769 -0.179103
0.290919 1.473149 -0.179244
0.293981 1.474440 -0.179723
0.296616 1.473895 -0.179521
0.299249 1.473345 -0.179317
0.301882 1.472791 -0.179111
0.304514 1.472233 -0.178904
0.306252 1.468015 -0.177339
0.309549 1.470190 -0.178146
0.311950 1.468706 -0.177595
0.315030 1.469957 -0.178059
0.317887 1.470289 -0.178183
0.320050 1.467881 -0.177289
0.321973 1.464558 -0.176056
0.324824 1.464878 -0.176175
0.330046 1.474301 -0.179672
-0.506409 1.621594 -0.232498
-0.504845 1.626875 -0.234451
-0.502728 1.630348 -0.235736
-0.499537 1.630202 -0.235682
-0.496875 1.631860 -0.236296
-0.493685 1.631703 -0.236238
-0.489715 1.628825 -0.235173
-0.485757 1.625938 -0.234105
-0.483097 1.627575 -0.234711
-0.479666 1.626488 -0.234308
-0.475732 1.623580 -0.233232
-0.472316 1.622479 -0.232825
-0.468904 1.621371 -0.232415
-0.465498 1.620257 -0.232003
-0.461603 1.617319 -0.230917
-0.458702 1.618011 -0.231172
-0.455556 1.617787 -0.231090
-0.452896 1.619378 -0.231678
-0.449511 1.618234 -0.231255
-0.446131 1.617084 -0.230829
-0.442993 1.616838 -0.230739
-0.440093 1.617499 -0.230983
-0.438592 1.623626 -0.233250
-0.435679 1.624280 -0.233491
-0.431155 1.618539 -0.231368
-0.428252 1.619181 -0.231605
-0.423987 1.614336 -0.229813
-0.422216 1.619535 -0.231736
-0.417748 1.613762 -0.229600
-0.414411 1.612552 -0.229153
-0.411739 1.614081 -0.229718
-0.407317 1.608283 -0.227574
-0.404865 1.610717 -0.228474
-0.401976 1.611315 -0.228695
-0.398660 1.610075 -0.228237
-0.394716 1.606080 -0.226759
-0.390369 1.600242 -0.224599
-0.387292 1.599899 -0.224472
-0.382567 1.592209 -0.221627
-0.378690 1.588181 -0.220137
-0.376655 1.592409 -0.221701
-0.375409 1.600311 -0.224624
-0.372141 1.599023 -0.224148
-0.367692 1.592213 -0.221628
-0.364642 1.591830 -0.221487
-0.361983 1.593283 -0.222024
-0.359127 1.593811 -0.222220
-0.356079 1.593413 -0.222073
-0.353222 1.593932 -0.222264
-0.350552 1.595367 -0.222795
-0.347321 1.594033 -0.222302
-0.344095 1.592693 -0.221806
-0.340693 1.590425 -0.220967
-0.337120 1.587228 -0.219785
-0.334275 1.587716 -0.219965
-0.331607 1.589121 -0.220485
-0.329109 1.591446 -0.221345
-0.325909 1.590073 -0.220837
-0.322543 1.587771 -0.219985
-0.319186 1.585461 -0.219131
-0.316176 1.584995 -0.218958
-0.313335 1.585448 -0.219126
-0.310329 1.584971 -0.218950
-0.307161 1.583564 -0.218429
-0.304161 1.583077 -0.218249
-0.301324 1.583510 -0.218409
-0.298328 1.583013 -0.218225
-0.295804 1.585289 -0.219067
-0.292499 1.582929 -0.218194
-0.289815 1.584270 -0.218690
-0.286219 1.580045 -0.217127
-0.282191 1.573030 -0.214532
-0.279225 1.572500 -0.214336
-0.277284 1.578460 -0.216541
-0.273156 1.570496 -0.213595
-0.272197 1.582947 -0.218201
-0.268796 1.579614 -0.216968
-0.266383 1.582775 -0.218137
-0.262035 1.572928 -0.214494
-0.259081 1.572363 -0.214285
-0.256532 1.574582 -0.215106
-0.255430 1.587023 -0.219708
-0.252455 1.586446 -0.219495
-0.249482 1.585865 -0.219280
-0.243082 1.560161 -0.209771
-0.241667 1.570730 -0.213681
-0.237987 1.564546 -0.211393
-0.235672 1.568595 -0.212891
-0.232141 1.563329 -0.210943
-0.228986 1.560851 -0.210026
-0.227357 1.570476 -0.213587
-0.225577 1.579169 -0.216803
-0.222295 1.575746 -0.215537
-0.219806 1.578842 -0.216682
-0.216428 1.574476 -0.215067
-0.212743 1.567306 -0.212415
-0.209617 1.564792 -0.211485
-0.206813 1.565071 -0.211588
-0.204421 1.569077 -0.213069
-0.201408 1.567481 -0.212479
-0.198103 1.563080 -0.210851
-0.195206 1.562406 -0.210602
-0.192408 1.562661 -0.210696
-0.189514 1.561978 -0.210443
-0.186717 1.562224 -0.210534
-0.183918 1.562465 -0.210623
-0.180764 1.558964 -0.209329
-0.177972 1.559196 -0.209414
-0.175265 1.560357 -0.209844
-0.172387 1.559645 -0.209580
-0.169675 1.560797 -0.210007
-0.166880 1.561011 -0.210086
-0.164084 1.561219 -0.210163
-0.161057 1.558618 -0.209200
-0.158191 1.557882 -0.208928
-0.155401 1.558077 -0.209000
-0.152253 1.553589 -0.207340
-0.149331 1.551903 -0.206716
-0.146484 1.551147 -0.206436
-0.143641 1.550386 -0.206155
-0.140735 1.548685 -0.205526
-0.138025 1.549787 -0.205933
-0.135372 1.551821 -0.206686
-0.132772 1.554787 -0.207783
-0.129815 1.552130 -0.206800
-0.126812 1.548533 -0.205469
-0.124039 1.548676 -0.205522
-0.121267 1.548814 -0.205574
-0.118544 1.549885 -0.205970
-0.115671 1.548141 -0.205325
-0.112711 1.544519 -0.203984
-0.109946 1.544639 -0.204029
-0.107180 1.544754 -0.204072
-0.104457 1.545802 -0.204459
-0.101689 1.545909 -0.204499
