# This PCD file was generated using the MATLAB® pcwrite function
# from Computer Vision System Toolbox®.
# .PCD v.7 - Point Cloud Data file format
VERSION .7
FIELDS x y z
SIZE 4 4 4
TYPE F F F
COUNT 1 1 1
WIDTH 1704
HEIGHT 1
VIEWPOINT 0 0 0 1 0 0 0
POINTS 1704
DATA ascii
0.712711 1.298166 -0.549312
0.714851 1.296383 -0.548016
0.716078 1.293156 -0.545671
0.716838 1.289209 -0.542802
0.723068 1.293897 -0.546209
0.724734 1.291383 -0.544382
0.727312 1.290304 -0.543598
0.729426 1.288504 -0.542290
0.731998 1.287419 -0.541502
0.735032 1.287046 -0.541231
0.737135 1.285237 -0.539916
0.739231 1.283426 -0.538600
0.742262 1.283041 -0.538320
0.744822 1.281938 -0.537518
0.749270 1.283683 -0.538786
0.751357 1.281857 -0.537460
0.750585 1.275760 -0.533029
0.752652 1.273933 -0.531701
0.754714 1.272105 -0.530373
0.758211 1.272403 -0.530589
0.760266 1.270568 -0.529256
0.761832 1.268023 -0.527406
0.763390 1.265477 -0.525556
0.765912 1.264344 -0.524733
0.768920 1.263913 -0.524420
0.771439 1.262772 -0.523590
0.772973 1.260218 -0.521734
0.776469 1.260479 -0.521924
0.778980 1.259328 -0.521087
0.782480 1.259578 -0.521269
0.784492 1.257715 -0.519916
0.785003 1.253747 -0.517032
0.787500 1.252584 -0.516186
0.789994 1.251416 -0.515338
0.792989 1.250945 -0.514995
0.794975 1.249071 -0.513634
0.797462 1.247893 -0.512778
0.796901 1.242530 -0.508880
0.804464 1.248312 -0.513082
0.807970 1.248512 -0.513228
0.808919 1.245232 -0.510844
0.803181 1.232928 -0.501902
0.799967 1.224111 -0.495495
0.803949 1.225004 -0.496144
0.806902 1.224506 -0.495782
0.813492 1.228841 -0.498932
0.815935 1.227637 -0.498057
0.818375 1.226429 -0.497180
0.820289 1.224530 -0.495799
0.821146 1.221251 -0.493417
0.824627 1.221412 -0.493533
0.826525 1.219505 -0.492148
0.828948 1.218283 -0.491260
0.831368 1.217057 -0.490369
0.833253 1.215143 -0.488978
0.836200 1.214595 -0.488580
0.838077 1.212676 -0.487185
0.839410 1.210073 -0.485294
0.839658 1.206107 -0.482411
0.841511 1.204185 -0.481015
0.842818 1.201582 -0.479123
0.846831 1.202374 -0.479699
0.848672 1.200445 -0.478297
0.852692 1.201224 -0.478863
0.853980 1.198611 -0.476964
0.856358 1.197350 -0.476048
0.858183 1.195410 -0.474638
0.860553 1.194143 -0.473717
0.862368 1.192199 -0.472304
0.865842 1.192272 -0.472358
0.864868 1.186961 -0.468498
0.870567 1.189713 -0.470498
0.871807 1.187088 -0.468590
0.873599 1.185132 -0.467168
0.875385 1.183174 -0.465746
0.878293 1.182551 -0.465293
0.882331 1.183258 -0.465807
0.884676 1.181957 -0.464861
0.885882 1.179321 -0.462945
0.887649 1.177350 -0.461513
0.889410 1.175377 -0.460079
0.438984 1.524575 -0.717223
0.442068 1.523900 -0.716731
0.443832 1.519324 -0.713395
0.447702 1.520979 -0.714602
0.449710 1.517177 -0.711830
0.453854 1.519600 -0.713597
0.456116 1.516571 -0.711388
0.459456 1.516649 -0.711445
0.461976 1.514391 -0.709799
0.464211 1.511354 -0.707585
0.465326 1.505209 -0.703104
0.468090 1.503721 -0.702020
0.471129 1.503005 -0.701498
0.473320 1.499959 -0.699277
0.476068 1.498461 -0.698185
0.479382 1.498509 -0.698219
0.481835 1.496229 -0.696557
0.482835 1.490079 -0.692074
0.485264 1.487796 -0.690409
0.487684 1.485510 -0.688743
0.490390 1.483994 -0.687638
0.493387 1.483247 -0.687093
0.496383 1.482496 -0.686545
0.499376 1.481740 -0.685994
0.501767 1.479439 -0.684316
0.503847 1.476365 -0.682075
0.506523 1.474828 -0.680955
0.509500 1.474058 -0.680394
0.512476 1.473284 -0.679829
0.516067 1.474043 -0.680382
0.517800 1.470187 -0.677571
0.518581 1.464028 -0.673080
0.521535 1.463241 -0.672507
0.524802 1.463216 -0.672489
0.528389 1.463953 -0.673026
0.531023 1.462386 -0.671884
0.533653 1.460816 -0.670739
0.534344 1.454654 -0.666246
0.536953 1.453080 -0.665099
0.539558 1.451503 -0.663949
0.542485 1.450686 -0.663354
0.544423 1.447576 -0.661086
0.546680 1.445228 -0.659374
0.548264 1.441352 -0.656549
0.550835 1.439762 -0.655389
0.553401 1.438168 -0.654227
0.555288 1.435050 -0.651953
0.558179 1.434211 -0.651342
0.561408 1.434128 -0.651281
0.564297 1.433280 -0.650664
0.566154 1.430153 -0.648383
0.567653 1.426265 -0.645549
0.570178 1.424651 -0.644372
0.573395 1.424549 -0.644297
0.575914 1.422927 -0.643116
0.578427 1.421303 -0.641931
0.581288 1.420432 -0.641296
0.584147 1.419556 -0.640658
0.584865 1.414148 -0.636715
0.588069 1.414022 -0.636623
0.590194 1.411629 -0.634878
0.593758 1.412248 -0.635329
0.594420 1.406838 -0.631385
0.597250 1.405944 -0.630733
0.599346 1.403542 -0.628982
0.601432 1.401139 -0.627230
0.604250 1.400235 -0.626571
0.606323 1.397827 -0.624815
0.608761 1.396166 -0.623605
0.611568 1.395252 -0.622938
0.613997 1.393586 -0.621723
0.615665 1.390420 -0.619415
0.617700 1.388000 -0.617651
0.620490 1.387074 -0.616976
0.622512 1.384650 -0.615209
0.625678 1.384463 -0.615072
0.628460 1.383525 -0.614388
0.629689 1.379603 -0.611529
0.633628 1.380893 -0.612469
0.633667 1.374737 -0.607981
0.635643 1.372301 -0.606206
0.638792 1.372092 -0.606053
0.641152 1.370393 -0.604815
0.643506 1.368692 -0.603574
0.644658 1.364765 -0.600711
0.647798 1.364541 -0.600548
0.649733 1.362092 -0.598762
0.652466 1.361120 -0.598054
0.653982 1.357928 -0.595726
0.655893 1.355474 -0.593937
0.657387 1.352280 -0.591609
0.659279 1.349823 -0.589818
0.661986 1.348838 -0.589100
0.663864 1.346377 -0.587305
0.666564 1.345386 -0.586582
0.668428 1.342921 -0.584785
0.671120 1.341923 -0.584057
0.672132 1.337986 -0.581188
0.674814 1.336983 -0.580456
0.677493 1.335976 -0.579722
0.679321 1.333501 -0.577918
0.681141 1.331026 -0.576113
0.683807 1.330010 -0.575372
0.687758 1.331179 -0.576225
0.688272 1.326507 -0.572819
0.689632 1.323295 -0.570477
0.691415 1.320811 -0.568666
0.696235 1.323418 -0.570566
0.698448 1.321653 -0.569280
0.700217 1.319161 -0.567462
0.700218 1.313764 -0.563528
0.699315 1.306920 -0.558539
0.698384 1.300084 -0.553554
0.705875 1.307005 -0.558600
0.715182 1.316801 -0.565742
0.716474 1.313569 -0.563386
0.715059 1.306007 -0.557872
0.714965 1.300615 -0.553942
0.711232 1.289463 -0.545811
0.712900 1.286965 -0.543989
0.720938 1.294536 -0.549509
0.728553 1.301369 -0.554491
0.730697 1.299568 -0.553178
0.730534 1.294178 -0.549248
0.732658 1.292375 -0.547934
0.735704 1.292003 -0.547662
0.738751 1.291625 -0.547387
0.740866 1.289813 -0.546066
0.740635 1.284428 -0.542140
0.741323 1.280474 -0.539258
0.743880 1.279374 -0.538455
0.748324 1.281118 -0.539726
0.750409 1.279295 -0.538398
0.752487 1.277471 -0.537068
0.753606 1.274224 -0.534701
0.756628 1.273815 -0.534402
0.758211 1.271275 -0.532551
0.761229 1.270859 -0.532247
0.763282 1.269022 -0.530908
0.765814 1.267890 -0.530083
0.767371 1.265343 -0.528226
0.769408 1.263500 -0.526882
0.771928 1.262359 -0.526050
0.774446 1.261215 -0.525216
0.776961 1.260068 -0.524380
0.779474 1.258917 -0.523540
0.781984 1.257762 -0.522699
0.783995 1.255903 -0.521343
0.786499 1.254742 -0.520497
0.789500 1.254277 -0.520158
0.792000 1.253108 -0.519306
0.795001 1.252634 -0.518960
0.796993 1.250760 -0.517594
0.798980 1.248884 -0.516226
0.807051 1.255360 -0.520947
0.810063 1.254862 -0.520584
0.811543 1.252275 -0.518698
0.806359 1.240664 -0.510233
0.806262 1.236004 -0.506836
0.811813 1.238968 -0.508996
0.812730 1.235692 -0.506608
0.817263 1.237255 -0.507748
0.819206 1.235356 -0.506363
0.819582 1.231387 -0.503469
0.820465 1.228109 -0.501079
0.822385 1.226208 -0.499694
0.824824 1.224993 -0.498808
0.826734 1.223088 -0.497419
0.827053 1.219123 -0.494528
0.831068 1.219957 -0.495136
0.833494 1.218729 -0.494241
0.835384 1.216815 -0.492845
0.836735 1.214215 -0.490950
0.839148 1.212980 -0.490049
0.841022 1.211060 -0.488649
0.844507 1.211180 -0.488737
0.845833 1.208573 -0.486837
0.847151 1.205967 -0.484936
0.847918 1.202682 -0.482541
0.850306 1.201430 -0.481629
0.852692 1.200176 -0.480714
0.857266 1.201623 -0.481769
0.858554 1.199008 -0.479863
0.859284 1.195718 -0.477464
0.860553 1.193103 -0.475558
0.864028 1.193180 -0.475614
0.866396 1.191906 -0.474685
0.869874 1.191972 -0.474733
0.870009 1.188007 -0.471843
0.871807 1.186055 -0.470420
0.874160 1.184770 -0.469483
0.878758 1.186156 -0.470493
0.882238 1.186196 -0.470522
0.881766 1.181563 -0.467144
0.884109 1.180264 -0.466197
0.884746 1.176967 -0.463793
0.889356 1.178321 -0.464781
0.891692 1.177012 -0.463826
0.457199 1.517069 -0.717989
0.459184 1.513266 -0.715200
0.462523 1.513340 -0.715254
0.464763 1.510308 -0.713030
0.468654 1.511923 -0.714214
0.469764 1.505787 -0.709714
0.471971 1.502748 -0.707486
0.474450 1.500482 -0.705823
0.477488 1.499758 -0.705292
0.480810 1.499803 -0.705325
0.481835 1.493665 -0.700823
0.484280 1.491387 -0.699152
0.486717 1.489107 -0.697480
0.490023 1.489137 -0.697502
0.493037 1.488392 -0.696956
0.494866 1.484561 -0.694146
0.496680 1.480730 -0.691336
0.499675 1.479975 -0.690782
0.502669 1.479216 -0.690226
0.505661 1.478453 -0.689666
0.507739 1.475381 -0.687413
0.510723 1.474611 -0.686848
0.514012 1.474604 -0.686843
0.515449 1.469991 -0.683460
0.518111 1.468444 -0.682325
0.520455 1.466127 -0.680625
0.522790 1.463807 -0.678924
0.525433 1.462251 -0.677783
0.527754 1.459927 -0.676078
0.529429 1.456071 -0.673250
0.532371 1.455271 -0.672663
0.535633 1.455229 -0.672633
0.538573 1.454420 -0.672039
0.541186 1.452844 -0.670883
0.543466 1.450503 -0.669166
0.546396 1.449682 -0.668564
0.549324 1.448858 -0.667960
0.551254 1.445747 -0.665678
0.553840 1.444156 -0.664511
0.555414 1.440283 -0.661670
0.556636 1.435650 -0.658272
0.559195 1.434052 -0.657100
0.561749 1.432451 -0.655926
0.566008 1.434636 -0.657529
0.568216 1.432269 -0.655793
0.570070 1.429144 -0.653500
0.572607 1.427530 -0.652317
0.574441 1.424401 -0.650022
0.577665 1.424292 -0.649942
0.578427 1.418895 -0.645983
0.580934 1.417271 -0.644792
0.583792 1.416398 -0.644152
0.585935 1.414014 -0.642404
0.588069 1.411629 -0.640654
0.591274 1.411498 -0.640558
0.593035 1.408355 -0.638253
0.597326 1.410470 -0.639804
0.599440 1.408072 -0.638045
0.601178 1.404922 -0.635735
0.603273 1.402521 -0.633974
0.605729 1.400868 -0.632761
0.607437 1.397714 -0.630448
0.609880 1.396055 -0.629232
0.611193 1.392151 -0.626368
0.613997 1.391235 -0.625696
0.616420 1.389569 -0.624474
0.619977 1.390138 -0.624892
0.622014 1.387719 -0.623118
0.624425 1.386043 -0.621888
0.625678 1.382131 -0.619019
0.627688 1.379707 -0.617241
0.630077 1.378025 -0.616008
0.633628 1.378569 -0.616406
0.635620 1.376137 -0.614623
0.636820 1.372220 -0.611750
0.639580 1.371269 -0.611052
0.643129 1.371794 -0.611437
0.645491 1.370094 -0.610190
0.648247 1.369130 -0.609483
0.650600 1.367423 -0.608231
0.650537 1.361284 -0.603728
0.652466 1.358837 -0.601934
0.654387 1.356389 -0.600139
0.657113 1.355413 -0.599422
0.656978 1.349280 -0.594924
0.661329 1.351242 -0.596363
0.662809 1.348051 -0.594023
0.665930 1.347797 -0.593837
0.666979 1.343870 -0.590956
0.669677 1.342875 -0.590227
0.671538 1.340412 -0.588421
0.672552 1.336484 -0.585539
0.675656 1.336214 -0.585341
0.677915 1.334476 -0.584067
0.681442 1.334927 -0.584398
0.682419 1.330995 -0.581513
0.684235 1.328521 -0.579699
0.685614 1.325317 -0.577349
0.688703 1.325025 -0.577134
0.693953 1.328363 -0.579583
0.694450 1.323698 -0.576162
0.697541 1.323392 -0.575937
0.699758 1.321629 -0.574644
0.702409 1.320589 -0.573881
0.697578 1.307235 -0.564087
0.701964 1.309092 -0.565449
0.704587 1.308049 -0.564683
0.707653 1.307724 -0.564445
0.708935 1.304508 -0.562086
0.713340 1.306339 -0.563429
0.716407 1.306000 -0.563181
0.719474 1.305656 -0.562929
0.719828 1.300993 -0.559508
0.718802 1.294177 -0.554509
0.718204 1.288085 -0.550041
0.722154 1.289170 -0.550837
0.726110 1.290248 -0.551628
0.729153 1.289887 -0.551363
0.733582 1.291667 -0.552668
0.734778 1.288435 -0.550298
0.737821 1.288060 -0.550022
0.739000 1.284826 -0.547651
0.742507 1.285156 -0.547893
0.743670 1.281920 -0.545519
0.745764 1.280107 -0.544189
0.747852 1.278291 -0.542858
0.750883 1.277893 -0.542566
0.753439 1.276781 -0.541750
0.755515 1.274957 -0.540412
0.758065 1.273838 -0.539592
0.760131 1.272009 -0.538250
0.762193 1.270177 -0.536907
0.764249 1.268343 -0.535562
0.767269 1.267918 -0.535249
0.769803 1.266783 -0.534417
0.771847 1.264940 -0.533065
0.773396 1.262392 -0.531197
0.774446 1.259141 -0.528812
0.776469 1.257294 -0.527457
0.777992 1.254744 -0.525587
0.781984 1.255695 -0.526285
0.783001 1.252440 -0.523897
0.786000 1.251982 -0.523561
0.788500 1.250820 -0.522709
0.791499 1.250353 -0.522367
0.793995 1.249184 -0.521509
0.792957 1.243138 -0.517074
0.794425 1.240575 -0.515195
0.801468 1.245655 -0.518921
0.801918 1.241696 -0.516017
0.807459 1.244672 -0.518200
0.807383 1.240017 -0.514786
0.810884 1.240210 -0.514927
0.805632 1.228645 -0.506445
0.807565 1.226766 -0.505067
0.810010 1.225574 -0.504193
0.814531 1.227135 -0.505337
0.816977 1.225933 -0.504456
0.819420 1.224728 -0.503572
0.822385 1.224207 -0.503190
0.824299 1.222308 -0.501797
0.828315 1.223149 -0.502414
0.830224 1.221243 -0.501016
0.832127 1.219336 -0.499617
0.834025 1.217426 -0.498217
0.836983 1.216880 -0.497816
0.839406 1.215647 -0.496911
0.841292 1.213729 -0.495505
0.843171 1.211810 -0.494097
0.845045 1.209889 -0.492688
0.846914 1.207966 -0.491278
0.848776 1.206041 -0.489866
0.850090 1.203437 -0.487956
0.851396 1.200833 -0.486046
0.853238 1.198904 -0.484632
0.856171 1.198323 -0.484205
0.859652 1.198411 -0.484270
0.861485 1.196473 -0.482848
0.862209 1.193188 -0.480439
0.863475 1.190576 -0.478523
0.865287 1.188635 -0.477100
0.868205 1.188032 -0.476657
0.870567 1.186755 -0.475721
0.871807 1.184137 -0.473801
0.874160 1.182855 -0.472861
0.877072 1.182237 -0.472407
0.880547 1.182280 -0.472438
0.884026 1.182316 -0.472465
0.886941 1.181681 -0.472000
0.889857 1.181042 -0.471530
0.887649 1.174431 -0.466682
0.891122 1.174451 -0.466696
0.459456 1.513158 -0.717230
0.463071 1.514006 -0.717853
0.465865 1.512524 -0.716765
0.468377 1.510265 -0.715104
0.470322 1.506456 -0.712305
0.472533 1.503419 -0.710072
0.475579 1.502699 -0.709543
0.478056 1.500429 -0.707875
0.480810 1.498929 -0.706773
0.484134 1.498969 -0.706802
0.486882 1.497461 -0.705694
0.490206 1.497492 -0.705716
0.491485 1.492123 -0.701771
0.493037 1.487526 -0.698392
0.494866 1.483698 -0.695579
0.497572 1.482177 -0.694461
0.501171 1.482959 -0.695036
0.505075 1.484504 -0.696172
0.508080 1.483739 -0.695609
0.510172 1.480665 -0.693350
0.512863 1.479125 -0.692218
0.515857 1.478348 -0.691647
0.517304 1.473736 -0.688257
0.519043 1.469889 -0.685430
0.520455 1.465276 -0.682040
0.523418 1.464489 -0.681461
0.525433 1.461403 -0.679194
0.528389 1.460609 -0.678610
0.529748 1.455992 -0.675217
0.532691 1.455191 -0.674628
0.535311 1.453624 -0.673476
0.538573 1.453578 -0.673442
0.541837 1.453526 -0.673405
0.544775 1.452709 -0.672804
0.548040 1.452648 -0.672759
0.548994 1.447259 -0.668799
0.550590 1.443391 -0.665956
0.552504 1.440283 -0.663672
0.555749 1.440209 -0.663618
0.558996 1.440131 -0.663560
0.561905 1.439289 -0.662942
0.563451 1.435413 -0.660093
0.566008 1.433808 -0.658913
0.568216 1.431443 -0.657175
0.570761 1.429832 -0.655991
0.572607 1.426706 -0.653694
0.574441 1.423580 -0.651396
0.578365 1.424981 -0.652426
0.581945 1.425621 -0.652896
0.583762 1.422485 -0.650592
0.585923 1.420102 -0.648840
0.588789 1.419223 -0.648194
0.590577 1.416083 -0.645886
0.591994 1.412189 -0.643025
0.594120 1.409799 -0.641268
0.596963 1.408908 -0.640613
0.599440 1.407263 -0.639404
0.601911 1.405615 -0.638193
0.604377 1.403963 -0.636979
0.606099 1.400812 -0.634663
0.607809 1.397660 -0.632347
0.611372 1.398245 -0.632777
0.613815 1.396582 -0.631555
0.617383 1.397157 -0.631977
0.619065 1.393995 -0.629653
0.621874 1.393069 -0.628973
0.624300 1.391394 -0.627742
0.625190 1.386738 -0.624320
0.627599 1.385060 -0.623086
0.629617 1.382635 -0.621304
0.632402 1.381694 -0.620613
0.634795 1.380007 -0.619373
0.637183 1.378317 -0.618131
0.640351 1.378107 -0.617976
0.642732 1.376410 -0.616730
0.645107 1.374711 -0.615481
0.647477 1.373009 -0.614230
0.649443 1.370565 -0.612434
0.650200 1.365904 -0.609008
0.652948 1.364934 -0.608296
0.654887 1.362486 -0.606496
0.655602 1.357826 -0.603072
0.658740 1.357585 -0.602894
0.660653 1.355132 -0.601092
0.664198 1.355618 -0.601448
0.665278 1.351690 -0.598562
0.667169 1.349232 -0.596755
0.669881 1.348238 -0.596025
0.670926 1.344310 -0.593138
0.672792 1.341847 -0.591328
0.675069 1.340114 -0.590054
0.677761 1.339109 -0.589316
0.679606 1.336640 -0.587501
0.682291 1.335629 -0.586758
0.684547 1.333885 -0.585477
0.688081 1.334324 -0.585799
0.688616 1.329661 -0.582372
0.689994 1.326456 -0.580017
0.693521 1.326884 -0.580331
0.695318 1.324401 -0.578506
0.697541 1.322642 -0.577214
0.698448 1.318706 -0.574321
0.702847 1.320566 -0.575688
0.705937 1.320246 -0.575452
0.710352 1.322090 -0.576808
0.711233 1.318146 -0.573909
0.712544 1.314925 -0.571542
0.715182 1.313867 -0.570765
0.718713 1.314247 -0.571044
0.721349 1.313181 -0.570261
0.720827 1.307077 -0.565774
0.719828 1.300259 -0.560764
0.723342 1.300627 -0.561034
0.725949 1.299555 -0.560246
0.729010 1.299195 -0.559982
0.729779 1.295251 -0.557083
0.732374 1.294169 -0.556288
0.734044 1.291654 -0.554440
0.736168 1.289852 -0.553115
0.737821 1.287335 -0.551265
0.740399 1.286242 -0.550462
0.742975 1.285146 -0.549656
0.745079 1.283334 -0.548325
0.746235 1.280098 -0.545947
0.749270 1.279704 -0.545657
0.752779 1.280014 -0.545885
0.755817 1.279609 -0.545587
0.757901 1.277782 -0.544245
0.759022 1.274539 -0.541861
0.763493 1.276243 -0.543114
0.764602 1.272996 -0.540727
0.766182 1.270455 -0.538859
0.767754 1.267912 -0.536991
0.769803 1.266073 -0.535639
0.773311 1.266342 -0.535837
0.775843 1.265199 -0.534997
0.777882 1.263351 -0.533639
0.780900 1.262903 -0.533310
0.782931 1.261049 -0.531947
0.785948 1.260593 -0.531611
0.786977 1.257334 -0.529217
0.788493 1.254775 -0.527336
0.790000 1.252216 -0.525455
0.792502 1.251049 -0.524598
0.795001 1.249880 -0.523738
0.798507 1.250098 -0.523898
0.801004 1.248919 -0.523032
0.806544 1.251904 -0.525226
0.809045 1.250714 -0.524351
0.813075 1.251600 -0.525002
0.809943 1.242787 -0.518526
0.808316 1.236062 -0.513583
0.810268 1.234179 -0.512199
0.812214 1.232295 -0.510814
0.812600 1.228340 -0.507908
0.823363 1.238158 -0.515124
0.827397 1.239008 -0.515749
0.827258 1.234354 -0.512328
0.826053 1.228332 -0.507902
0.827452 1.225744 -0.506000
0.834639 1.230688 -0.509634
0.834980 1.226723 -0.506719
0.831598 1.217977 -0.500292
0.834025 1.216752 -0.499391
0.835384 1.214160 -0.497487
0.838872 1.214292 -0.497584
0.839684 1.211016 -0.495176
0.842634 1.210460 -0.494767
0.845584 1.209899 -0.494355
0.847994 1.208654 -0.493440
0.850401 1.207407 -0.492523
0.851720 1.204802 -0.490609
0.853574 1.202873 -0.489192
0.855969 1.201618 -0.488269
0.859456 1.201708 -0.488335
0.861848 1.200444 -0.487406
0.864238 1.199177 -0.486475
0.864417 1.195218 -0.483566
0.866242 1.193276 -0.482138
0.868616 1.192003 -0.481203
0.872100 1.192065 -0.481249
0.874471 1.190784 -0.480307
0.877399 1.190167 -0.479853
0.880327 1.189545 -0.479396
0.882130 1.187585 -0.477956
0.885619 1.187621 -0.477982
0.887981 1.186320 -0.477026
0.890340 1.185017 -0.476068
0.887585 1.177740 -0.470720
0.888787 1.175112 -0.468789
0.891692 1.174468 -0.468316
0.468099 1.508105 -0.716820
0.471159 1.507392 -0.716294
0.474217 1.506674 -0.715765
0.476426 1.503636 -0.713525
0.478908 1.501368 -0.711853
0.481381 1.499097 -0.710179
0.484709 1.499136 -0.710208
0.486882 1.496088 -0.707960
0.490497 1.496889 -0.708551
0.492947 1.494605 -0.706867
0.496271 1.494626 -0.706883
0.496936 1.487722 -0.701793
0.499654 1.486200 -0.700670
0.501769 1.483138 -0.698413
0.504774 1.482378 -0.697853
0.506871 1.479312 -0.695592
0.510476 1.480078 -0.696157
0.511946 1.475473 -0.692762
0.515242 1.475465 -0.692756
0.516376 1.470092 -0.688795
0.519975 1.470842 -0.689347
0.522329 1.468526 -0.687640
0.526244 1.470030 -0.688749
0.528590 1.467708 -0.687037
0.531245 1.466146 -0.685885
0.531661 1.459242 -0.680795
0.533974 1.456914 -0.679079
0.536277 1.454585 -0.677362
0.538249 1.451492 -0.675081
0.539883 1.447636 -0.672238
0.542485 1.446061 -0.671078
0.545738 1.446004 -0.671035
0.550316 1.448980 -0.673230
0.552250 1.445874 -0.670939
0.555175 1.445043 -0.670327
0.557427 1.442691 -0.668593
0.560007 1.441095 -0.667416
0.562582 1.439495 -0.666237
0.564131 1.435622 -0.663381
0.567376 1.435531 -0.663314
0.570278 1.434678 -0.662685
0.571451 1.430045 -0.659269
0.574341 1.429187 -0.658636
0.576532 1.426816 -0.656888
0.578715 1.424442 -0.655138
0.580889 1.422067 -0.653387
0.584116 1.421949 -0.653300
0.586633 1.420320 -0.652099
0.588789 1.417937 -0.650342
0.591294 1.416303 -0.649138
0.592714 1.412413 -0.646270
0.594843 1.410024 -0.644508
0.596237 1.406134 -0.641640
0.599075 1.405241 -0.640982
0.602278 1.405093 -0.640873
0.605482 1.404940 -0.640760
0.608317 1.404034 -0.640092
0.611522 1.403871 -0.639972
0.613983 1.402210 -0.638747
0.614565 1.396814 -0.634769
0.617383 1.395895 -0.634092
0.619821 1.394228 -0.632862
0.622254 1.392557 -0.631630
0.623919 1.389395 -0.629299
0.626338 1.387719 -0.628064
0.629137 1.386784 -0.627374
0.632319 1.386588 -0.627229
0.634340 1.384160 -0.625439
0.636352 1.381730 -0.623648
0.639528 1.381522 -0.623495
0.641920 1.379828 -0.622246
0.643126 1.375912 -0.619358
0.645898 1.374953 -0.618651
0.648272 1.373251 -0.617397
0.651038 1.372285 -0.616685
0.651401 1.366890 -0.612707
0.655360 1.368131 -0.613622
0.656501 1.364209 -0.610730
0.660059 1.364703 -0.611095
0.660774 1.360044 -0.607660
0.661878 1.356122 -0.604768
0.663788 1.353668 -0.602959
0.665690 1.351213 -0.601149
0.668409 1.350223 -0.600419
0.669881 1.347031 -0.598066
0.673008 1.346767 -0.597871
0.674881 1.344303 -0.596055
0.676327 1.341108 -0.593699
0.678182 1.338643 -0.591881
0.681296 1.338364 -0.591676
0.682715 1.335165 -0.589317
0.685825 1.334879 -0.589106
0.687654 1.332405 -0.587282
0.689045 1.329203 -0.584921
0.691716 1.328179 -0.584167
0.693521 1.325700 -0.582339
0.695318 1.323220 -0.580511
0.697976 1.322188 -0.579750
0.701505 1.322601 -0.580054
0.703724 1.320837 -0.578753
0.705497 1.318347 -0.576918
0.707703 1.316579 -0.575614
0.715221 1.323466 -0.580692
0.716546 1.320244 -0.578316
0.719198 1.319182 -0.577533
0.717370 1.310919 -0.571441
0.712812 1.298351 -0.562175
0.716769 1.299450 -0.562985
0.719376 1.298388 -0.562202
0.722888 1.298756 -0.562474
0.725038 1.296969 -0.561156
0.729010 1.298043 -0.561948
0.730697 1.295533 -0.560098
0.733755 1.295166 -0.559827
0.736352 1.294080 -0.559027
0.738484 1.292277 -0.557697
0.740610 1.290472 -0.556366
0.740866 1.285816 -0.552934
0.743443 1.284720 -0.552126
0.745548 1.282910 -0.550791
0.749061 1.283228 -0.551025
0.751160 1.281411 -0.549686
0.753727 1.280300 -0.548867
0.754390 1.276354 -0.545958
0.756947 1.275239 -0.545136
0.759979 1.274827 -0.544832
0.763493 1.275117 -0.545045
0.764602 1.271873 -0.542654
0.767632 1.271448 -0.542341
0.769208 1.268907 -0.540467
0.771748 1.267771 -0.539630
0.772823 1.264524 -0.537236
0.775354 1.263383 -0.536395
0.779355 1.264342 -0.537102
0.781885 1.263192 -0.536254
0.782931 1.259939 -0.533856
0.783966 1.256687 -0.531458
0.785486 1.254133 -0.529575
0.789490 1.255068 -0.530264
0.793500 1.255995 -0.530948
0.800024 1.260396 -0.534192
0.804055 1.261304 -0.534862
0.803552 1.255949 -0.530914
0.802522 1.249906 -0.526458
0.801976 1.244562 -0.522519
0.804464 1.243381 -0.521647
0.802354 1.235967 -0.516181
0.807895 1.238932 -0.518368
0.809343 1.236361 -0.516472
0.810268 1.233099 -0.514067
0.812730 1.231906 -0.513188
0.816227 1.232086 -0.513320
0.823363 1.237074 -0.516998
0.822708 1.231740 -0.513065
0.825168 1.230529 -0.512173
0.821861 1.221774 -0.505718
0.832181 1.230836 -0.512399
0.835166 1.230296 -0.512001
0.840793 1.233168 -0.514118
0.841666 1.229884 -0.511697
0.846247 1.231374 -0.512795
0.842312 1.221957 -0.505852
0.843681 1.219358 -0.503936
0.845043 1.216758 -0.502020
0.845321 1.212801 -0.499102
0.847200 1.210880 -0.497686
0.849615 1.209635 -0.496768
0.851485 1.207710 -0.495348
0.853892 1.206458 -0.494426
0.855753 1.204529 -0.493003
0.858153 1.203272 -0.492076
0.860551 1.202011 -0.491147
0.861848 1.199401 -0.489223
0.864238 1.198136 -0.488290
0.865521 1.195524 -0.486364
0.868455 1.194924 -0.485922
0.871390 1.194318 -0.485475
0.874325 1.193708 -0.485025
0.875586 1.191088 -0.483094
0.877958 1.189803 -0.482147
0.880327 1.188515 -0.481197
0.884379 1.189220 -0.481717
0.886183 1.187258 -0.480270
0.886286 1.183301 -0.477353
0.889207 1.182665 -0.476884
0.891560 1.181360 -0.475922
0.894480 1.180715 -0.475446
0.895687 1.178081 -0.473504
0.480328 1.504057 -0.716619
0.483953 1.504869 -0.717219
0.486720 1.503364 -0.716107
0.487749 1.497237 -0.711577
0.489334 1.492650 -0.708186
0.492070 1.491138 -0.707069
0.494801 1.489624 -0.705949
0.497527 1.488106 -0.704827
0.500248 1.486584 -0.703703
0.502666 1.484292 -0.702008
0.505676 1.483531 -0.701445
0.508685 1.482766 -0.700880
0.511084 1.480464 -0.699179
0.514086 1.479692 -0.698607
0.516779 1.478150 -0.697467
0.519776 1.477369 -0.696890
0.521218 1.472762 -0.693485
0.523890 1.471211 -0.692338
0.526872 1.470421 -0.691754
0.527959 1.465048 -0.687782
0.530610 1.463489 -0.686629
0.533256 1.461926 -0.685474
0.536218 1.461123 -0.684880
0.538856 1.459553 -0.683720
0.541488 1.457981 -0.682558
0.544116 1.456405 -0.681393
0.546738 1.454826 -0.680226
0.548698 1.451725 -0.677933
0.551968 1.451659 -0.677884
0.554575 1.450070 -0.676710
0.557178 1.448478 -0.675533
0.559775 1.446884 -0.674354
0.561018 1.442257 -0.670934
0.562921 1.439145 -0.668633
0.564812 1.436031 -0.666331
0.566692 1.432916 -0.664029
0.569247 1.431310 -0.662842
0.572833 1.431965 -0.663326
0.575382 1.430352 -0.662133
0.576881 1.426474 -0.659267
0.578715 1.423349 -0.656957
0.581593 1.422482 -0.656315
0.584116 1.420858 -0.655115
0.588409 1.422990 -0.656691
0.590572 1.420606 -0.654929
0.593444 1.419722 -0.654275
0.595234 1.416583 -0.651955
0.598098 1.415692 -0.651296
0.600959 1.414797 -0.650635
0.604183 1.414647 -0.650524
0.606309 1.412248 -0.648750
0.607322 1.407603 -0.645316
0.608317 1.402960 -0.641884
0.611522 1.402797 -0.641764
0.612491 1.398153 -0.638331
0.616438 1.399475 -0.639308
0.618888 1.397810 -0.638077
0.622088 1.397630 -0.637944
0.623771 1.394470 -0.635608
0.625444 1.391309 -0.633271
0.627869 1.389632 -0.632032
0.627984 1.383499 -0.627498
0.631547 1.384046 -0.627902
0.635115 1.384587 -0.628302
0.637519 1.382900 -0.627055
0.639919 1.381210 -0.625805
0.640351 1.375818 -0.621820
0.643126 1.374864 -0.621115
0.647480 1.376861 -0.622590
0.651052 1.377373 -0.622969
0.652633 1.374191 -0.620617
0.655004 1.372483 -0.619354
0.657772 1.371509 -0.618634
0.658116 1.366116 -0.614647
0.660059 1.363666 -0.612837
0.662807 1.362685 -0.612111
0.663512 1.358029 -0.608669
0.666248 1.357043 -0.607940
0.668570 1.355319 -0.606666
0.670474 1.352861 -0.604849
0.671540 1.348938 -0.601949
0.673008 1.345747 -0.599590
0.675717 1.344747 -0.598851
0.677585 1.342283 -0.597030
0.680287 1.341277 -0.596286
0.682141 1.338810 -0.594462
0.683563 1.335612 -0.592098
0.685825 1.333870 -0.590810
0.686799 1.329944 -0.587908
0.689474 1.328925 -0.587155
0.692147 1.327903 -0.586399
0.695682 1.328326 -0.586712
0.697919 1.326570 -0.585414
0.699281 1.323364 -0.583043
0.701942 1.322327 -0.582277
0.705039 1.322009 -0.582042
0.706817 1.319520 -0.580202
0.707703 1.315587 -0.577294
0.709904 1.313818 -0.575986
0.712544 1.312766 -0.575209
0.715182 1.311711 -0.574429
0.720952 1.315685 -0.577367
0.723596 1.314618 -0.576578
0.725787 1.312830 -0.575256
0.726615 1.308887 -0.572342
0.726520 1.303514 -0.568369
0.726404 1.298144 -0.564399
0.729010 1.297069 -0.563605
0.731155 1.295276 -0.562280
0.734215 1.294909 -0.562008
0.737738 1.295250 -0.562260
0.740337 1.294159 -0.561454
0.742005 1.291641 -0.559592
0.742731 1.287699 -0.556678
0.745314 1.286602 -0.555867
0.747895 1.285500 -0.555053
0.750474 1.284395 -0.554236
0.752577 1.282578 -0.552893
0.754201 1.280051 -0.551025
0.756292 1.278230 -0.549679
0.759809 1.278527 -0.549898
0.763330 1.278817 -0.550113
0.766374 1.278396 -0.549801
0.767492 1.275151 -0.547403
0.767632 1.270499 -0.543964
0.769208 1.267960 -0.542087
0.771262 1.266123 -0.540729
0.773798 1.264985 -0.539888
0.777311 1.265247 -0.540081
0.780827 1.265502 -0.540269
0.782378 1.262951 -0.538384
0.784413 1.261099 -0.537014
0.786939 1.259943 -0.536160
0.788965 1.258085 -0.534787
0.790985 1.256226 -0.533412
0.793500 1.255061 -0.532551
0.799021 1.258066 -0.534773
0.803049 1.258975 -0.535444
0.803552 1.255015 -0.532517
0.796956 1.241348 -0.522414
0.793855 1.232553 -0.515912
0.804464 1.242458 -0.523234
0.808991 1.244040 -0.524404
0.812503 1.244231 -0.524545
0.813965 1.241655 -0.522641
0.816963 1.241147 -0.522265
0.820478 1.241322 -0.522395
0.819335 1.235301 -0.517944
0.822324 1.234783 -0.517561
0.823750 1.232201 -0.515652
0.826213 1.230990 -0.514757
0.824481 1.224296 -0.509809
0.825350 1.221032 -0.507395
0.830423 1.223235 -0.509024
0.831810 1.220649 -0.507113
0.832127 1.216699 -0.504192
0.834025 1.214795 -0.502785
0.838049 1.215611 -0.503388
0.840475 1.214380 -0.502478
0.838613 1.207713 -0.497550
0.843709 1.209872 -0.499146
0.847200 1.209988 -0.499231
0.849615 1.208744 -0.498312
0.852568 1.208173 -0.497889
0.854979 1.206921 -0.496964
0.857387 1.205666 -0.496036
0.858699 1.203060 -0.494110
0.861099 1.201800 -0.493179
0.864044 1.201209 -0.492741
0.865889 1.199270 -0.491308
0.866625 1.195988 -0.488882
0.870116 1.196056 -0.488932
0.868616 1.190097 -0.484527
0.873769 1.192164 -0.486055
0.876144 1.190883 -0.485108
0.880195 1.191598 -0.485637
0.882569 1.190308 -0.484683
0.884941 1.189014 -0.483726
0.887873 1.188381 -0.483259
0.890241 1.187080 -0.482297
0.893172 1.186438 -0.481823
0.895535 1.185130 -0.480855
0.894480 1.179851 -0.476953
0.897400 1.179201 -0.476473
0.486433 1.501036 -0.718089
0.489194 1.499530 -0.716971
0.491369 1.496484 -0.714711
0.494409 1.495740 -0.714159
0.497153 1.494224 -0.713034
0.500189 1.493471 -0.712476
0.502033 1.489648 -0.709640
0.505058 1.488889 -0.709076
0.506578 1.484296 -0.705669
0.508685 1.481233 -0.703397
0.511084 1.478935 -0.701692
0.514086 1.478163 -0.701120
0.517086 1.477387 -0.700544
0.520085 1.476607 -0.699965
0.523082 1.475823 -0.699383
0.525764 1.474271 -0.698232
0.528128 1.471954 -0.696513
0.531746 1.472682 -0.697053
0.533466 1.468835 -0.694199
0.535489 1.465748 -0.691909
0.537500 1.462660 -0.689618
0.539822 1.460331 -0.687890
0.543108 1.460279 -0.687852
0.546069 1.459462 -0.687246
0.548702 1.457882 -0.686074
0.551000 1.455541 -0.684337
0.552629 1.451681 -0.681473
0.554908 1.449336 -0.679734
0.557178 1.446989 -0.677992
0.559775 1.445396 -0.676811
0.561692 1.442288 -0.674505
0.564276 1.440690 -0.673319
0.565833 1.436823 -0.670450
0.568060 1.434465 -0.668701
0.570621 1.432859 -0.667510
0.572487 1.429743 -0.665198
0.575382 1.428885 -0.664562
0.577230 1.425765 -0.662247
0.580466 1.425653 -0.662164
0.581945 1.421777 -0.659288
0.585530 1.422408 -0.659757
0.588409 1.421532 -0.659107
0.590929 1.419902 -0.657897
0.593086 1.417519 -0.656129
0.596674 1.418131 -0.656583
0.599544 1.417239 -0.655922
0.602412 1.416344 -0.655257
0.604548 1.413948 -0.653480
0.607409 1.413046 -0.652811
0.610267 1.412139 -0.652138
0.610906 1.406751 -0.648141
0.613008 1.404348 -0.646358
0.615475 1.402688 -0.645127
0.617187 1.399536 -0.642789
0.620392 1.399360 -0.642658
0.623599 1.399179 -0.642524
0.624530 1.394534 -0.639078
0.627349 1.393604 -0.638387
0.629400 1.391185 -0.636593
0.631827 1.389506 -0.635347
0.632705 1.384861 -0.631901
0.635502 1.383919 -0.631202
0.637908 1.382233 -0.629952
0.641481 1.382762 -0.630344
0.643097 1.379591 -0.627992
0.644701 1.376420 -0.625639
0.649458 1.379149 -0.627664
0.651052 1.375973 -0.625307
0.654228 1.375741 -0.625136
0.655405 1.371825 -0.622231
0.658977 1.372322 -0.622599
0.658923 1.366199 -0.618057
0.661274 1.364486 -0.616786
0.664434 1.364238 -0.616602
0.667187 1.363251 -0.615870
0.669527 1.361528 -0.614592
0.669805 1.356143 -0.610596
0.671713 1.353686 -0.608774
0.674028 1.351959 -0.607492
0.676754 1.350959 -0.606750
0.679060 1.349225 -0.605464
0.680521 1.346031 -0.603095
0.681550 1.342108 -0.600184
0.683832 1.340370 -0.598895
0.686108 1.338629 -0.597603
0.687528 1.335432 -0.595231
0.689363 1.332961 -0.593398
0.690761 1.329763 -0.591026
0.693438 1.328740 -0.590266
0.696978 1.329161 -0.590579
0.699654 1.328129 -0.589813
0.701458 1.325647 -0.587972
0.703689 1.323886 -0.586666
0.706354 1.322844 -0.585893
0.709017 1.321799 -0.585118
0.711677 1.320750 -0.584339
0.711676 1.315378 -0.580354
0.713878 1.313606 -0.579039
0.715628 1.311112 -0.577189
0.719608 1.312209 -0.578003
0.720450 1.308275 -0.575084
0.722630 1.306493 -0.573762
0.725257 1.305425 -0.572970
0.726520 1.302206 -0.570582
0.728227 1.299703 -0.568725
0.729010 1.295770 -0.565807
0.732990 1.296834 -0.566597
0.736056 1.296465 -0.566323
0.738199 1.294665 -0.564988
0.738947 1.290729 -0.562067
0.741540 1.289638 -0.561258
0.744597 1.289253 -0.560973
0.747186 1.288155 -0.560158
0.750243 1.287761 -0.559866
0.750945 1.283821 -0.556943
0.755413 1.285544 -0.558221
0.754676 1.279481 -0.553723
0.756292 1.276955 -0.551849
0.758855 1.275839 -0.551021
0.760458 1.273311 -0.549145
0.763973 1.273598 -0.549359
0.768456 1.275288 -0.550612
0.770531 1.273452 -0.549250
0.773086 1.272317 -0.548408
0.774180 1.269073 -0.546002
0.775262 1.265830 -0.543596
0.778290 1.265388 -0.543268
0.780827 1.264242 -0.542418
0.783855 1.263792 -0.542084
0.785401 1.261242 -0.540192
0.786443 1.257993 -0.537781
0.789959 1.258229 -0.537957
0.789988 1.253586 -0.534512
0.794500 1.255206 -0.535714
0.797015 1.254037 -0.534847
0.799528 1.252865 -0.533977
0.799516 1.248222 -0.530533
0.802016 1.247046 -0.529660
0.802991 1.243791 -0.527246
0.805991 1.243302 -0.526883
0.803375 1.235211 -0.520880
0.808407 1.237479 -0.522563
0.810884 1.236291 -0.521682
0.817478 1.240607 -0.524883
0.820478 1.240094 -0.524503
0.825551 1.242323 -0.526157
0.821804 1.232876 -0.519148
0.823750 1.230984 -0.517744
0.828303 1.232513 -0.518879
0.832341 1.233349 -0.519499
0.831656 1.228028 -0.515551
0.833585 1.226125 -0.514139
0.832866 1.220810 -0.510197
0.832127 1.215501 -0.506258
0.834556 1.214280 -0.505352
0.840180 1.217133 -0.507469
0.844216 1.217937 -0.508065
0.843971 1.213308 -0.504631
0.846932 1.212747 -0.504215
0.849894 1.212182 -0.503796
0.856098 1.215666 -0.506381
0.853110 1.207660 -0.500441
0.858781 1.210456 -0.502515
0.859020 1.206503 -0.499582
0.860338 1.203898 -0.497650
0.862741 1.202637 -0.496715
0.866241 1.202715 -0.496773
0.867541 1.200105 -0.494836
0.868832 1.197495 -0.492900
0.871222 1.196222 -0.491956
0.873609 1.194946 -0.491009
0.875994 1.193666 -0.490060
0.878375 1.192384 -0.489108
0.881313 1.191763 -0.488648
0.883130 1.189808 -0.487197
0.886627 1.189844 -0.487224
0.888437 1.187882 -0.485769
0.889111 1.184594 -0.483329
0.890340 1.181969 -0.481382
0.894399 1.182649 -0.481886
0.896757 1.181341 -0.480916
0.897970 1.178710 -0.478964
0.501667 1.496186 -0.717154
0.502330 1.489299 -0.712032
0.504161 1.485478 -0.709190
0.506578 1.483186 -0.707485
0.509894 1.483186 -0.707485
0.512604 1.481652 -0.706344
0.515308 1.480115 -0.705201
0.518008 1.478575 -0.704055
0.519776 1.474741 -0.701204
0.522460 1.473195 -0.700054
0.525764 1.473171 -0.700036
0.529698 1.474664 -0.701147
0.532378 1.473106 -0.699988
0.534418 1.470022 -0.697694
0.537403 1.469219 -0.697096
0.539424 1.466130 -0.694800
0.541111 1.462281 -0.691937
0.544080 1.461468 -0.691332
0.545744 1.457616 -0.688467
0.547720 1.454522 -0.686166
0.549685 1.451427 -0.683863
0.552960 1.451359 -0.683813
0.555572 1.449772 -0.682633
0.559180 1.450452 -0.683138
0.562458 1.450369 -0.683077
0.564389 1.447260 -0.680764
0.566647 1.444904 -0.679012
0.568556 1.441792 -0.676697
0.571138 1.440187 -0.675503
0.572683 1.436317 -0.672626
0.574214 1.432448 -0.669748
0.577117 1.431589 -0.669108
0.580018 1.430725 -0.668466
0.583268 1.430609 -0.668380
0.586167 1.429737 -0.667731
0.588004 1.426609 -0.665405
0.590539 1.424980 -0.664193
0.593783 1.424848 -0.664095
0.597028 1.424710 -0.663992
0.598474 1.420824 -0.661102
0.599906 1.416939 -0.658212
0.601685 1.413801 -0.655878
0.604183 1.412156 -0.654655
0.606309 1.409761 -0.652874
0.608427 1.407365 -0.651091
0.611645 1.407203 -0.650971
0.613008 1.403311 -0.648076
0.616594 1.403886 -0.648504
0.617936 1.399992 -0.645608
0.621145 1.399815 -0.645476
0.622466 1.395918 -0.642578
0.624151 1.392764 -0.640232
0.626587 1.391093 -0.638989
0.629017 1.389419 -0.637744
0.631827 1.388483 -0.637048
0.634248 1.386802 -0.635798
0.637052 1.385859 -0.635096
0.639465 1.384173 -0.633842
0.641872 1.382483 -0.632585
0.645059 1.382267 -0.632425
0.648247 1.382046 -0.632260
0.650645 1.380346 -0.630996
0.651846 1.376434 -0.628086
0.654228 1.374730 -0.626819
0.656205 1.372288 -0.625003
0.659379 1.372049 -0.624825
0.662151 1.371071 -0.624097
0.664515 1.369354 -0.622820
0.665654 1.365437 -0.619907
0.668003 1.363717 -0.618627
0.670347 1.361994 -0.617346
0.673097 1.361000 -0.616607
0.675431 1.359272 -0.615321
0.678175 1.358271 -0.614577
0.679668 1.355077 -0.612201
0.681985 1.353341 -0.610910
0.681780 1.347232 -0.606367
0.683234 1.344039 -0.603992
0.685522 1.342300 -0.602698
0.688229 1.341285 -0.601943
0.689231 1.337362 -0.599025
0.691927 1.336341 -0.598266
0.693334 1.333143 -0.595887
0.696882 1.333565 -0.596201
0.699138 1.331810 -0.594896
0.701389 1.330053 -0.593589
0.702328 1.326126 -0.590669
0.704563 1.324366 -0.589359
0.707669 1.324045 -0.589121
0.708137 1.319396 -0.585663
0.709911 1.316910 -0.583813
0.711233 1.313702 -0.581428
0.714323 1.313370 -0.581181
0.716520 1.311596 -0.579862
0.718265 1.309103 -0.578007
0.719102 1.305175 -0.575085
0.722630 1.305545 -0.575361
0.727067 1.307340 -0.576696
0.728790 1.304837 -0.574834
0.730960 1.303047 -0.573503
0.732667 1.300541 -0.571639
0.735742 1.300173 -0.571365
0.738817 1.299800 -0.571088
0.739123 1.295151 -0.567630
0.741727 1.294061 -0.566820
0.745259 1.294388 -0.567063
0.747861 1.293290 -0.566246
0.749058 1.290060 -0.563844
0.750712 1.287539 -0.561969
0.753771 1.287140 -0.561672
0.756358 1.286030 -0.560846
0.757994 1.283503 -0.558966
0.759622 1.280974 -0.557086
0.761241 1.278445 -0.555205
0.762851 1.275915 -0.553323
0.765414 1.274792 -0.552488
0.767974 1.273665 -0.551649
0.770048 1.271832 -0.550286
0.770178 1.267190 -0.546833
0.772721 1.266056 -0.545990
0.775750 1.265619 -0.545665
0.779758 1.266577 -0.546378
0.782300 1.265430 -0.545525
0.785825 1.265676 -0.545708
0.787377 1.263125 -0.543810
0.789911 1.261968 -0.542949
0.791450 1.259414 -0.541050
0.794973 1.259642 -0.541219
0.796500 1.257084 -0.539317
0.799523 1.256607 -0.538963
0.800031 1.252659 -0.536026
0.803552 1.252869 -0.536182
0.807076 1.253073 -0.536334
0.815680 1.260184 -0.541623
0.815153 1.254843 -0.537650
0.811543 1.245367 -0.530602
0.807383 1.235216 -0.523052
0.811911 1.236784 -0.524218
0.814903 1.236280 -0.523843
0.817379 1.235084 -0.522954
0.817781 1.231138 -0.520020
0.820765 1.230624 -0.519637
0.823229 1.229420 -0.518741
0.827258 1.230264 -0.519369
0.832865 1.233151 -0.521517
0.831656 1.227151 -0.517054
0.829896 1.220476 -0.512089
0.831281 1.217896 -0.510170
0.841136 1.226204 -0.516349
0.849436 1.232448 -0.520993
0.852969 1.232561 -0.521078
0.849559 1.223851 -0.514600
0.848793 1.218542 -0.510650
0.850156 1.215945 -0.508719
0.846662 1.207263 -0.502262
0.848534 1.205348 -0.500837
0.851485 1.204779 -0.500414
0.857151 1.207574 -0.502493
0.860110 1.206991 -0.502060
0.861976 1.205060 -0.500623
0.864384 1.203798 -0.499684
0.866241 1.201862 -0.498244
0.868642 1.200594 -0.497301
0.871592 1.199991 -0.496853
0.873989 1.198716 -0.495905
0.875829 1.196769 -0.494457
0.874881 1.191487 -0.490528
0.880048 1.193537 -0.492053
0.882432 1.192250 -0.491095
0.884251 1.190295 -0.489641
0.886627 1.189002 -0.488679
0.889000 1.187705 -0.487715
0.893631 1.189053 -0.488718
0.894871 1.186424 -0.486763
0.894399 1.181814 -0.483333
0.895618 1.179187 -0.481380
0.897970 1.177878 -0.480406
0.504412 1.493385 -0.718100
0.506254 1.489565 -0.715251
0.508683 1.487272 -0.713540
0.512011 1.487270 -0.713538
0.515036 1.486498 -0.712963
0.518365 1.486485 -0.712953
0.519852 1.481891 -0.709526
0.522248 1.479584 -0.707805
0.524014 1.475750 -0.704946
0.526389 1.473439 -0.703222
0.528442 1.470364 -0.700928
0.531115 1.468809 -0.699768
0.533148 1.465731 -0.697472
0.537084 1.467209 -0.698574
0.539745 1.465643 -0.697406
0.542723 1.464832 -0.696802
0.544727 1.461743 -0.694497
0.547697 1.460925 -0.693887
0.548702 1.455559 -0.689885
0.551987 1.455494 -0.689836
0.554282 1.453153 -0.688090
0.557233 1.452322 -0.687470
0.559514 1.449976 -0.685720
0.561787 1.447628 -0.683969
0.563715 1.444523 -0.681652
0.565970 1.442171 -0.679898
0.568556 1.440570 -0.678704
0.570112 1.436707 -0.675822
0.573371 1.436607 -0.675747
0.576285 1.435749 -0.675108
0.578158 1.432633 -0.672783
0.581064 1.431769 -0.672138
0.584318 1.431651 -0.672051
0.587223 1.430779 -0.671400
0.587650 1.424653 -0.666831
0.590894 1.424525 -0.666735
0.593426 1.422895 -0.665519
0.596670 1.422758 -0.665417
0.598114 1.418876 -0.662521
0.599906 1.415743 -0.660184
0.602412 1.414101 -0.658960
0.604913 1.412457 -0.657733
0.607042 1.410064 -0.655948
0.609163 1.407669 -0.654162
0.611645 1.406017 -0.652929
0.613379 1.402873 -0.650584
0.616221 1.401960 -0.649903
0.618685 1.400300 -0.648665
0.622650 1.401607 -0.649640
0.623221 1.396228 -0.645627
0.626428 1.396043 -0.645489
0.628111 1.392888 -0.643136
0.631696 1.393435 -0.643544
0.634517 1.392496 -0.642844
0.637336 1.391553 -0.642140
0.638215 1.386912 -0.638678
0.641021 1.385964 -0.637971
0.643826 1.385012 -0.637261
0.646628 1.384056 -0.636548
0.648641 1.381623 -0.634733
0.649063 1.376243 -0.630720
0.651449 1.374545 -0.629453
0.653032 1.371373 -0.627087
0.656205 1.371139 -0.626912
0.658977 1.370165 -0.626186
0.662555 1.370655 -0.626552
0.664921 1.368940 -0.625273
0.666468 1.365758 -0.622899
0.668820 1.364039 -0.621617
0.671577 1.363048 -0.620878
0.674743 1.362784 -0.620681
0.676258 1.359595 -0.618302
0.678175 1.357136 -0.616467
0.680084 1.354674 -0.614631
0.682821 1.353668 -0.613880
0.684716 1.351202 -0.612041
0.686603 1.348735 -0.610201
0.687636 1.344813 -0.607275
0.687805 1.339441 -0.603268
0.689231 1.336248 -0.600886
0.691500 1.334504 -0.599585
0.693334 1.332034 -0.597742
0.695591 1.330285 -0.596438
0.698706 1.329980 -0.596210
0.700955 1.328225 -0.594901
0.703634 1.327189 -0.594129
0.705437 1.324708 -0.592278
0.708546 1.324386 -0.592038
0.710337 1.321900 -0.590184
0.712118 1.319413 -0.588328
0.713892 1.316925 -0.586472
0.716990 1.316589 -0.586222
0.719198 1.314813 -0.584897
0.721399 1.313035 -0.583571
0.721798 1.308391 -0.580107
0.723983 1.306611 -0.578779
0.727067 1.306258 -0.578515
0.729698 1.305185 -0.577716
0.732326 1.304110 -0.576913
0.734953 1.303030 -0.576108
0.737118 1.301235 -0.574768
0.739738 1.300148 -0.573958
0.738661 1.293371 -0.568902
0.741727 1.292992 -0.568620
0.744329 1.291900 -0.567805
0.746462 1.290095 -0.566459
0.749058 1.288995 -0.565639
0.750712 1.286477 -0.563760
0.753771 1.286079 -0.563463
0.756830 1.285676 -0.563163
0.758468 1.283150 -0.561279
0.762000 1.283445 -0.561498
0.763627 1.280915 -0.559611
0.765724 1.279088 -0.558248
0.767335 1.276555 -0.556359
0.769419 1.274724 -0.554994
0.772465 1.274295 -0.554673
0.775026 1.273159 -0.553826
0.776612 1.270619 -0.551931
0.777701 1.267379 -0.549514
0.779269 1.264838 -0.547619
0.783282 1.265788 -0.548327
0.787302 1.266730 -0.549030
0.787377 1.262089 -0.545568
0.790407 1.261629 -0.545225
0.792940 1.260468 -0.544359
0.793976 1.257219 -0.541936
0.796500 1.256053 -0.541066
0.795009 1.249336 -0.536056
0.801037 1.253018 -0.538802
0.801534 1.249075 -0.535861
0.803028 1.246516 -0.533952
0.805021 1.244647 -0.532558
0.810572 1.247605 -0.534764
0.817670 1.252619 -0.538505
0.820184 1.251420 -0.537610
0.824236 1.252282 -0.538253
0.821599 1.244203 -0.532227
0.822545 1.240939 -0.529792
0.825033 1.239734 -0.528893
0.825960 1.236470 -0.526458
0.826355 1.232523 -0.523514
0.824645 1.225845 -0.518532
0.832341 1.231463 -0.522723
0.843216 1.241155 -0.529953
0.840962 1.233790 -0.524459
0.835509 1.222351 -0.515926
0.834777 1.217048 -0.511971
0.839870 1.219221 -0.513591
0.847640 1.224774 -0.517734
0.853834 1.228276 -0.520346
0.851472 1.220935 -0.514870
0.848007 1.212253 -0.508394
0.849894 1.210336 -0.506964
0.853937 1.211116 -0.507546
0.855819 1.209193 -0.506111
0.857695 1.207268 -0.504675
0.859565 1.205341 -0.503238
0.861976 1.204083 -0.502300
0.864932 1.203493 -0.501860
0.867339 1.202228 -0.500916
0.869192 1.200291 -0.499471
0.869936 1.197015 -0.497027
0.873989 1.197746 -0.497573
0.876384 1.196468 -0.496620
0.877106 1.193189 -0.494174
0.879491 1.191907 -0.493217
0.881313 1.189958 -0.491763
0.883691 1.188670 -0.490802
0.887751 1.189368 -0.491323
0.892381 1.190719 -0.492331
0.894760 1.189416 -0.491359
0.897137 1.188110 -0.490385
0.901214 1.188779 -0.490884
0.904727 1.188781 -0.490886
0.904819 1.184828 -0.487937
0.509886 1.489135 -0.717763
0.513220 1.489131 -0.717760
0.515948 1.487595 -0.716611
0.518977 1.486819 -0.716031
0.521389 1.484514 -0.714307
0.522866 1.479923 -0.710872
0.526188 1.479898 -0.710854
0.526702 1.473021 -0.705710
0.530012 1.472990 -0.705687
0.530800 1.466875 -0.701114
0.534418 1.467597 -0.701653
0.536446 1.464518 -0.699350
0.540065 1.465230 -0.699883
0.541756 1.461388 -0.697009
0.544727 1.460576 -0.696402
0.547046 1.458245 -0.694658
0.550665 1.458938 -0.695177
0.553302 1.457358 -0.693994
0.555934 1.455773 -0.692810
0.558894 1.454941 -0.692187
0.560516 1.451085 -0.689303
0.561787 1.446475 -0.685855
0.563378 1.442619 -0.682971
0.566647 1.442530 -0.682904
0.571960 1.446953 -0.686213
0.573532 1.443089 -0.683322
0.576464 1.442232 -0.682681
0.578357 1.439117 -0.680351
0.581627 1.439004 -0.680267
0.583155 1.435134 -0.677372
0.585719 1.433514 -0.676160
0.587574 1.430391 -0.673825
0.590125 1.428766 -0.672609
0.592315 1.426389 -0.670831
0.595210 1.425506 -0.670170
0.596670 1.421628 -0.667270
0.599554 1.420739 -0.666605
0.602075 1.419100 -0.665379
0.605681 1.419695 -0.665824
0.608562 1.418794 -0.665150
0.610707 1.416398 -0.663358
0.611372 1.411022 -0.659337
0.612754 1.407136 -0.656431
0.615236 1.405481 -0.655193
0.617339 1.403080 -0.653397
0.620184 1.402162 -0.652710
0.621897 1.399014 -0.650356
0.627000 1.402539 -0.652992
0.628704 1.399385 -0.650633
0.631160 1.397711 -0.649381
0.632844 1.394554 -0.647020
0.635285 1.392875 -0.645764
0.637336 1.390455 -0.643953
0.640152 1.389509 -0.643246
0.641410 1.385608 -0.640329
0.643435 1.383182 -0.638514
0.646236 1.382228 -0.637800
0.648247 1.379798 -0.635983
0.651831 1.380308 -0.636364
0.654626 1.379342 -0.635641
0.656222 1.376168 -0.633268
0.657006 1.371527 -0.629796
0.659379 1.369821 -0.628520
0.662958 1.370309 -0.628886
0.664921 1.367864 -0.627056
0.665248 1.362490 -0.623037
0.669228 1.363698 -0.623941
0.671987 1.362708 -0.623200
0.674743 1.361714 -0.622456
0.676258 1.358528 -0.620073
0.679005 1.357527 -0.619325
0.682166 1.357252 -0.619119
0.684492 1.355516 -0.617820
0.685974 1.352323 -0.615432
0.686182 1.346951 -0.611414
0.687636 1.343760 -0.609028
0.691199 1.344194 -0.609352
0.693063 1.341724 -0.607505
0.696201 1.341424 -0.607281
0.698482 1.339673 -0.605971
0.699035 1.335028 -0.602496
0.700002 1.331107 -0.599564
0.702256 1.329352 -0.598251
0.705375 1.329037 -0.598015
0.705873 1.324394 -0.594543
0.708108 1.322633 -0.593225
0.709897 1.320150 -0.591368
0.714326 1.321977 -0.592735
0.717436 1.321642 -0.592484
0.718769 1.318432 -0.590083
0.718751 1.313073 -0.586074
0.721399 1.312013 -0.585282
0.724045 1.310950 -0.584487
0.725787 1.308453 -0.582619
0.727972 1.306670 -0.581285
0.730152 1.304884 -0.579950
0.733238 1.304522 -0.579678
0.734496 1.301305 -0.577273
0.736200 1.298800 -0.575399
0.738357 1.297006 -0.574057
0.740970 1.295919 -0.573244
0.745434 1.297667 -0.574551
0.746653 1.294443 -0.572140
0.748794 1.292636 -0.570789
0.750462 1.290119 -0.568906
0.752590 1.288309 -0.567552
0.755184 1.287202 -0.566724
0.756358 1.283974 -0.564310
0.759416 1.283567 -0.564005
0.760573 1.280338 -0.561590
0.765058 1.282035 -0.562859
0.768596 1.282317 -0.563070
0.770216 1.279783 -0.561175
0.773755 1.280055 -0.561378
0.775847 1.278217 -0.560004
0.776965 1.274977 -0.557580
0.777098 1.270338 -0.554110
0.779653 1.269197 -0.553257
0.781226 1.266656 -0.551356
0.783773 1.265509 -0.550498
0.786317 1.264359 -0.549638
0.787871 1.261812 -0.547733
0.790407 1.260656 -0.546869
0.794431 1.261581 -0.547561
0.795970 1.259027 -0.545651
0.800000 1.259941 -0.546334
0.802532 1.258768 -0.545456
0.808080 1.261744 -0.547682
0.811120 1.261251 -0.547314
0.811631 1.257300 -0.544358
0.813142 1.254730 -0.542436
0.813117 1.250093 -0.538968
0.818691 1.253033 -0.541167
0.820696 1.251146 -0.539755
0.821154 1.247195 -0.536801
